0,0,0,0,0,0,0,0,0,0,0,0,277.4,2169.3,2428.7,2422.9,2422.8,2417,2414.6,2414.7,2414.7,2422.8,2427.6,2437.3,2445.6,2457.6,2467.4,2477.1,2490.8,2502,2510.8,2519.6,2527.3,2536.2,2540.2,2548.2,2554.6,2907.8,2909.9,2910.1,2914.1,2914.9,2921.4,2922.7,2928.2,2925.9,2931.7,2943.7,2945.6,2959.2,2963.3,2966.8,2977,2986.1,2991.8,2999.7,3006.6,3017.4,3029.8,3039.8,3055.8,3070.5,3083.2,3099.7,3112.3,3125.9,3142.4,3155.7,3167.8,3179.9,3192,3201.3,3220.7,3231.6,3245,3253.2,3263.1,3271.7,3282,3290.5,3299.3,3308.2,3313.2,3316.7,3323.9,3331,3336.3,3343.6,3350.9,3358.1,3359.9,3374.7,3385.8,3398.9,3417.6,3436.8,3450.4,3472,3489.9,3508,3530.1,3550.4,3566.9,3585.8,3606.7,3623.6,3640.5,3658,3671.1,3677.8,3682.4,3682.4,3324.7,3325,3327.4,3329.8,3329.9,3336.5,3343.8,3358.1,3376.8,3397.8,3419.4,3833.22,3863.11,3904.11,3939.56,3978.33,4021.78,4048.11,4068.44,4113.56,4210.4,4219.6,4229.3,4242.2,4254.8,4268.2,4285.2,4293,4306.8,4318.3,4323.9,4338.6,4341.6,4353.6,4359.6,4362.5,4365.7,4362.6,4359.7,4353.6,4346.8,4334.8,4332,4322.6,4313.5,4316.6,4325.4,4343.5,4368.3,4399.6,4440.3,4495.5,4558.9,4616.7,4686.9,4752.1,4826.4,4896.33,4946.5,4926,4926,0,0,0,0,0,0,0,0,0,0,0,0,0,0,0,0,0,0,0,0,0,0,0,0,0,0,0,0,0,0,0,0,0,0,0,0,0,0,0,0,0,0,0,0,0,0,0,0,0,0,0,0,0,0,0,0,0,2463,2387,2315,2231,1466.33,3132,2327.75,3787,3906,3033.17,2221.67,2948.67,3494.4,3729.67,3690.17,3767.43,3772,3163.43,3187.57,3224.29,3217.57,3184.14,3215.29,2533.57,3540.6,4521.8,4549,4577.83,3664.4,4429.5,4501.25,4552.5,3507.5,3082.67,2199.5,4495,4528,2332.5,1591.33,1221.75,0,0,0,0,0,0,0,0,0,0,0,0,0,0,0,2483,2443.5,1212.25,954.8,760.333,1519,813.7,1218.3,1160.1,681.9,659.9,648,1223.7,947.6,940,608.7,610.6,903.3,340.2,340.2,332.9,0,0,0,0,0,0,278.6,0,0,0,0,0,0,0,0,0,0,0,0,0,0,0,90.3,90.2,445.6,711.8,799.4,888.5,888.3,888.3,887.3,887.2,887.1,886.9,886.7,886.2,885.4,884.8,884.7,884.3,883.1,881.3,879.1,877.5,876.1,873.7,872.2,870.7,869.5,868.8,868.8,868.9,869,869.2,869.9,870.4,870.8,871.2,871.9,872.2,873.4,874.9,876.6,878.2,878.9,880.6,881.2,882.8,0,0,0,0,0,518.333,526.333,1044.67,1358.71,948.3,530.444,789.5,4719,3158.67,3171.33,3209,2350.5,2350.5,2387,2405.5,2443.5,2483,0,0,0,0,0,0,0,0,0,0,0,0,0,0,0,0,0,0,0,0,0,0,0,0,0,0,0,0,0,0,0,0,0,67.2,67.1,67.1,67,67,67.1,130.6,130.4,196,195.8,129.8,129.6,395.2,460.7,393.9,458.8,453.3,451.8,513.4,509.6,570.5,438.2,498.9,618.9,615.7,613.3,611.5,609.9,608.8,607.5,606.3,604.7,602.9,599.3,419.6,299.1,66.6,225.1,445.5,496.5,492.7,490.9,489.7,488,486,430,428.1,425.6,476.3,473.9,471.6,416.8,467.1,465,462.8,460.3,457.6,454.5,451.4,398.4,445.6,442.9,440.2,437.8,435.8,433.8,432.1,430.1,428.2,425.6,375.9,373.5,417.8,415.3,413,411.1,409.4,407.6,360.9,359.8,358.1,401,354.9,396.8,394.6,429.8,427.7,426,424.2,422.4,421.1,382.1,380.6,379.1,377.5,375.4,331.9,330,328.1,366.4,323.8,320.6,398.8,356.7,395.2,393.5,392.1,390.9,389.6,388.7,388.1,387.2,386.8,386.2,385.8,385.5,385.2,384.8,384.9,384.7,384.8,77,0,0,0,0,0,0,0,0,0,0,0,0,0,0,0,0,0,0,0,0,0,0,0,0,0,0,0,0,0,0,0,0,0,0,0,0,0,0,0,0,0,0,0,0,0,0,128.9,256.9,299.2,426.8,426.6,426.1,425.6,425.2,424.6,424.1,423.3,422.3,421.6,420.6,419.4,418.7,417.7,416.8,416,414.9,414,413.4,412.5,411.6,410.9,409.9,409.1,408.2,407.4,406.3,405.5,404.9,404.1,403.5,402.7,402.1,401.4,401.1,400.4,400.3,400.1,399.9,399.8
0,0,0,0,0,0,0,0,0,0,0,0,552.3,2165.8,2420.7,2417.1,2419.3,2417.1,2413.6,2413.5,2413.6,2421.7,2428.9,2437.3,2448.1,2458.9,2470.1,2480.9,2492.1,2503.4,2512.1,2520.9,2529.8,2538.7,2542.7,2549.2,2551.9,2898,2901.4,2901.6,2908.4,2911.1,2912.5,2913.3,2919,2921.6,2927.9,2932.4,2943.1,2951,2959.7,2969.5,2975.8,2983.4,2991.3,2998.4,3007.7,3018.5,3033,3043.2,3055.4,3071.3,3084.2,3100.6,3110.7,3128.5,3143.2,3155,3166.5,3181.7,3192.4,3204.7,3217.6,3231.9,3241.9,3253.5,3258.2,3270.1,3278.5,3283.8,3297.7,3302.8,3311.5,3315,3323.9,3331,3336.3,3339.9,3345.3,3354.5,3359.9,3369.3,3382,3395,3410.1,3431,3448.5,3466.1,3487.6,3509.6,3531.6,3554,3577,3595.7,3614.7,3636.3,3655.8,3671.7,3684.8,3691.5,3693.7,3696,3704.8,3702.8,3711.6,3338.9,3339.1,3345.9,3355.2,3366.8,3378.8,3399.9,3425.8,3943.2,3982.7,3909.33,3953.11,3995.89,4030.33,4065.33,4176.8,4199.9,4211.3,4228.1,4239.6,4244.4,4263.4,4274.3,4284.8,4298.7,4303.8,4321.7,4326.8,4335.4,4341.2,4347.2,4353.2,4359.1,4356.2,4356.2,4353.4,4344.1,4328.6,4328.6,4322.5,4307.4,4304.5,4307.5,4319.6,4331.6,4362.2,4387.2,4434.1,4479.3,4542.1,4592.9,4655.2,4715.8,4778.1,4864.7,4904.43,4927,4887,4926,0,0,0,0,0,0,0,0,0,0,0,0,0,0,0,0,0,0,0,0,0,0,0,0,0,0,0,0,0,0,0,0,0,0,0,0,0,0,0,0,0,0,0,0,0,0,0,0,0,0,0,4926,2368.5,4596,4462,4306,4247,4524,4543.5,4485.5,4530,4648.5,4755.5,4888.67,4795.5,4705.5,4686.5,4791,4815,4752,4715.67,3568,4735,4755,4852.33,4831.5,4888.5,4914.33,4868.5,4906.5,4906.5,4887,4926,4946,4939.67,4887.5,4906.5,4926,4966,4926,4966,0,0,0,0,0,0,0,0,0,0,0,0,0,0,0,0,0,0,0,0,0,0,0,2473,1592.67,610.875,522.333,456.2,424.7,410.5,394.8,384.9,380.1,371,0,377.8,375.5,373.2,371,366.6,360.1,0,0,0,0,0,0,0,0,0,0,0,0,0,0,0,0,0,0,0,0,0,90.7,90.6,90.3,356.6,535.6,714.5,891.2,891.1,890.3,889.7,889.7,888.9,888.5,888.2,887.6,886.8,886.3,886.2,885.9,884.6,882.6,880.8,878.3,876.7,874.8,872.8,870.9,869.5,868.5,869,868.8,868.9,869,869.6,869.9,870.6,871.2,871.5,872.1,873.2,874.7,877,878.4,879.6,880.8,882,883.2,0,0,0,0,0,0,522.333,526.333,1348.43,1038.22,1021.44,777.5,2315,2324.25,3123.33,2378.5,3198.67,1555,1579,1591.33,1616.33,0,0,0,0,0,0,0,0,0,0,0,0,0,0,0,0,0,0,0,0,0,0,0,0,0,0,0,0,0,0,0,0,0,0,0,67.2,67.1,67.1,67.1,67.1,67,130.3,130,129.8,63,0,329.8,333.2,395.6,460.6,393.9,327.1,516.9,447.3,380.1,381.8,312,560.5,618,615.3,552.3,550.8,549.3,548,546.8,605.5,603.6,600.8,596.3,531.5,181.6,292.2,457.9,498.6,560.8,558.6,557.2,489.6,487.7,485.3,375.8,320.2,424.8,475.5,473.2,470.8,469.2,466.8,464.6,461.9,357.1,456.6,453.2,450.1,447.1,444.2,441.5,439,437.1,435.1,433.3,384.1,429.1,426.8,377.1,421.5,418.7,415.9,367.4,411.5,409.6,408.2,361.5,360.3,403.6,357.2,355.6,309.7,389,305.9,429,389.8,387.9,386.1,341.8,383.1,381.8,380.2,336.2,292.7,332.8,331.1,329,368,284.9,242.6,321.2,360,317.9,356,392.6,391.3,389.8,388.9,388.3,387.5,387.1,386.5,385.9,385.6,385.4,385.3,385.2,385.4,385,346.9,0,0,0,0,0,0,0,0,0,0,0,0,0,0,0,0,0,0,0,0,0,0,0,0,0,0,0,0,0,0,0,0,0,0,0,0,0,0,0,0,0,0,0,0,0,0,0,0,128.3,384,426.6,426,425.6,425,424.4,423.9,423.2,422.3,421.4,420.2,419.2,418.6,417.5,416.6,415.8,414.7,414,413,412,411.3,410.4,409.4,408.6,408,407.1,406.1,405.1,404.4,403.8,402.9,402.3,401.7,401.2,400.6,400.4,400,399.8,399.6,399.9
0,0,0,0,0,0,0,0,0,0,0,0,822.3,1892.1,2418.1,2417.1,2417,2413.4,2411.2,2408.9,2416,2420.6,2426.6,2433.8,2447,2459,2471.3,2481,2492.2,2502.1,2513.4,2523.5,2532.3,2538.8,2544,2549.2,2553.2,2894.3,2897.7,2898.5,2903.9,2908,2908.9,2912.1,2916.5,2920.9,2927.2,2936.3,2946.3,2956.4,2966.1,2973.8,2987.3,2991,2997.8,3001.7,3013.1,3024.9,3035.1,3046.7,3057.2,3071.9,3083.1,3100.4,3112,3128,3141.2,3154,3167.1,3179,3187.9,3205.5,3217.9,3227.2,3236.8,3250.1,3258.4,3264.9,3275.1,3285.5,3290.6,3301.1,3306.1,3309.6,3318.4,3323.9,3330.9,3332.6,3338.1,3347.1,3356.2,3363.6,3376.4,3393.1,3404.3,3421.6,3442.5,3466,3483.7,3509.5,3535.6,3556.1,3583.4,3604.7,3625.9,3647.8,3665.5,3681.7,3695.1,3705.9,3714.8,3712.1,3718.8,3723.2,3723.1,3345.9,3348.2,3359.4,3368.8,3378.1,3390.1,3417.9,3435,3463.6,3502.6,4021.2,4060.1,4100.1,4131.5,4156.9,4171.4,4195,4207.3,4221.5,4227.1,4232.3,4245.6,4262.6,4279.1,4286.9,4298,4308.6,4323.4,4338.4,4347.2,4350,4350,4359.2,4358.9,4356.1,4350.1,4334.7,4325.6,4325.3,4316.5,4313.4,4310.5,4310.7,4323,4340.9,4362.2,4390.5,4428.3,4473.3,4525.7,4579.5,4637.8,4690.8,4763.2,4830.4,4901,4901,4927,4946,4966,0,0,0,0,0,0,0,0,0,0,0,0,0,0,0,0,0,0,0,0,0,0,0,0,0,0,0,0,0,0,0,0,0,0,0,0,0,0,0,0,0,0,0,0,0,0,0,0,0,0,0,0,4887,4774,4630,4562,4528,4665,4737,4926,0,0,0,0,0,0,0,0,0,0,0,0,0,0,0,0,0,0,0,0,0,0,0,0,0,0,0,0,0,0,0,0,0,0,0,0,0,0,0,0,0,0,0,0,0,0,0,0,0,0,0,0,0,1655.33,1385.71,543,538.778,0,0,459.6,0,436.7,430.6,430.6,427.6,424.7,416.1,418.9,413.3,407.8,0,0,0,0,0,0,0,0,0,0,0,0,0,0,0,0,0,0,0,0,0,0,90.8,90.7,90.4,90.2,179,540.9,629.7,628.5,716.6,894.5,715.2,713.8,891.4,890.5,889.5,888.9,888.6,888.1,887.4,886.3,884,881.8,879.5,877.8,875.8,873.1,871,869.3,868.5,868.8,868.7,868.5,868.7,869.1,869.7,870.2,870.9,871.5,871.9,873,874.9,877,878.8,879.7,881.2,882.1,883.7,0,0,0,0,0,0,463,1029.22,1724.12,1737.88,2002.57,1526.33,919.2,2298,3087.67,2342.5,2380.5,2315,1555,2387,4849,0,0,0,0,0,0,0,0,0,0,0,0,0,0,0,0,0,0,0,0,0,0,0,0,0,0,0,0,0,0,0,0,0,0,0,0,0,67.2,67.2,67.1,67.1,67.1,66.9,66.9,0,66.6,263.9,267.8,333.6,399.8,398.9,266.2,323.8,387.4,383.7,312.5,377,376.3,559.1,617.7,614.8,612.9,610.8,609,607.4,606,604.3,601.8,597.8,534.8,296.9,293.5,402.8,567.1,562.3,559.8,492.2,490.9,489.3,487.3,431,268.1,427.3,477.8,475.3,473.2,470.9,469,466.7,464.3,461.4,458.3,455.3,402,448.9,446,443,440.3,438,436.3,434.3,432.4,430.2,427.8,425.1,422,372.1,416.3,367.9,412,410.2,408.4,407.2,405.9,359.7,358.3,401,399.1,397,351.2,305.5,390.9,389.3,387.5,385.8,384.3,382.9,381.4,379.6,377.6,375.7,373.6,371.2,369.4,327.2,324.5,323.2,361.2,279.1,317.3,315.8,353.4,352.1,351.1,388.6,387.9,387.2,387,348,347.6,347.5,347.4,347.4,347.3,347.1,347.3,0,0,0,0,0,0,0,0,0,0,0,0,0,0,0,0,0,0,0,0,0,0,0,0,0,0,0,0,0,0,0,0,0,0,0,0,0,0,0,0,0,0,0,43.5,0,0,43.2,43.1,214.3,427.3,426.7,426.1,425.5,425,381.7,423.8,423,422.1,421.1,420,419.1,418.2,417.1,416.2,415.5,414.3,413.8,412.7,412,411,410,409,408.4,407.5,406.4,405.4,404.9,404.1,403.6,402.7,402.1,401.6,401.1,400.3,400.2,400.2,399.7,399.5,399.6
0,0,0,0,0,0,0,0,0,0,0,0,822.3,1357.7,1884.9,2146.8,2412.3,2411.2,2410.1,2407.7,2410.1,2417.1,2425.4,2434.9,2444.5,2457.8,2468.9,2477.3,2493.4,2502,2514.7,2523.4,2532.3,2538.8,2542.7,2546.6,2925.1,2918.5,2912.3,2909.1,2911.3,2911.6,2914.4,2915.7,2919.5,2926.6,2933.7,2945.2,2959.8,2970.9,2979.5,2988.9,2994.5,3001.2,3009.8,3014.2,3029,3036.1,3045.7,3057.4,3071,3081.5,3096.4,3108.1,3120.7,3128,3140.6,3150.2,3163.1,3176.7,3185.5,3194.3,3211.6,3222.4,3233.7,3241.6,3256.7,3261.6,3270.1,3278.5,3287.3,3296,3302.6,3306,3313.1,3320.1,3325.4,3329,3332.6,3341.6,3350.7,3356.1,3369.2,3387.5,3402.5,3421.5,3440.7,3460.1,3483.8,3509.6,3533.7,3562.8,3581.9,3607.8,3631.4,3653.2,3671.2,3689.8,3700.8,3714.3,3720.4,3729,3737.7,3737.2,3741.9,3748.5,3361.2,3368.3,3382.1,3391.7,3410.4,3429.3,3450.8,3934.8,3972.6,4020.7,4052.4,4089.2,4115.4,4139.3,4163.4,4175.9,4197,4217.2,4218.9,4229.2,4242.6,4254.4,4273.2,4284,4298.1,4315,4323.3,4335.3,4347.2,4347,4349.8,4356.1,4356.1,4343.4,4340.7,4331.7,4322.5,4319.5,4313.5,4313.8,4313.8,4320,4326,4341.3,4369,4394.1,4434.9,4470.5,4526.5,4576.5,4621,4680,4745.1,4808,4888.2,4911.6,4913.67,4926.5,4966,0,0,0,0,0,0,0,0,0,0,0,0,0,0,0,0,0,0,0,0,0,0,0,0,0,0,0,0,0,0,0,0,0,0,0,0,0,0,0,0,0,0,0,0,0,0,0,0,0,0,0,0,0,0,0,0,0,0,0,0,0,0,0,0,0,0,0,0,0,0,0,0,0,0,0,0,0,0,0,0,0,0,0,0,0,0,0,0,0,0,0,0,0,0,0,0,0,0,0,0,0,0,0,0,0,0,0,0,0,0,0,0,0,993.2,821,610.875,0,0,0,477.4,0,0,459.6,0,0,446.2,446.2,0,0,0,0,0,0,0,0,0,0,0,0,0,0,0,0,0,0,0,0,0,113.6,113.4,0,0,91.4,91.1,90.8,90.6,181.6,272.6,271.8,271.1,542.3,811.5,809.7,807.9,716.6,894.1,893,891.6,891,890.5,889.2,887.4,885.5,882.9,880.7,878.3,876.1,873.6,871.5,869.8,868.7,868.8,868.5,868.2,868,868.7,869.3,870,870.7,871.3,871.9,873.5,875.2,877.3,878.9,880.4,881.8,883.2,885.7,0,0,0,0,0,0,463,1010.56,1157.88,1716.88,1982.71,1811.6,1804.6,1811.4,2281.25,2316.25,2372,1520.67,1543.33,2350.5,0,0,0,0,0,0,0,0,0,0,0,0,0,0,0,0,0,0,0,0,0,0,0,0,0,0,0,0,0,0,0,0,0,0,0,0,0,0,0,0,0,0,0,0,0,0,0,66.9,268.4,334.9,401.8,401.3,267.4,266.1,259.6,258.2,192.3,318,442.9,439,622.9,619.1,616,552.7,489.4,608.8,606.8,605.2,602.7,598.9,535.5,297.8,238,404.7,569.6,564.3,561.6,559.9,492.7,491.1,489.1,487,269.7,321.9,480.1,477.9,475.5,473.7,471.8,469.5,466.9,412.1,409.4,458,454.2,450.9,397.7,444.4,442,390.2,388.7,435.7,433.7,431.3,381.3,426,375.2,419.4,416.4,414.1,412.2,410.2,408.8,407.9,406.3,405,403.5,401.9,355.6,354.1,352.4,350.5,392.3,390.4,388.9,387,385.6,384.1,382.6,381.1,337,376.9,333.4,331.6,370.7,368.8,326.4,324.4,282.1,240.6,278.9,316.8,354.4,391.2,390,389,388.3,387.5,387.1,386.6,386.1,347.7,347.5,385.8,385.8,347.7,347.6,231.8,0,0,0,0,0,0,0,0,0,0,0,0,0,0,0,0,0,0,0,0,0,0,0,0,0,0,0,0,0,0,0,0,0,0,0,0,0,0,0,0,0,43.5,43.5,0,43.2,43.2,43.1,428.3,427.7,427,426.3,425.8,425.2,424.5,423.7,422.8,422,421.1,420,419,418,417,416,415,414,413.2,412.1,411.2,410.5,409.4,408.8,408,406.8,406.2,405.2,404.5,403.8,403.2,402.5,401.9,401.5,400.8,400.4,400.1,399.9,399.7,399.6,399.5
0,0,0,0,0,0,0,0,0,0,0,0,543.8,1085.2,1352.9,2408.8,2407.5,2406.5,2402.9,2405.3,2406.5,2414.7,2421.9,2430,2443.2,2455.5,2470.1,2474.8,2489.5,2503.2,2512,2520.8,2531,2534.8,2542.6,2545.3,2954.3,2937.2,2928.4,2919.7,2923.1,2923.8,2929.1,2930.5,2933.9,2937.2,2950.9,2965.2,2979.4,2994.9,3001.6,3008.7,3014.4,3021.3,3031.3,3038.5,3048.2,3055.5,3061.5,3075.6,3087.4,3097,3103.7,3117.7,3125,3131.9,3140.6,3146.2,3156.1,3165.6,3177.6,3191.3,3198.5,3216,3221.9,3234.9,3244.8,3254.9,3265,3270,3282,3288.8,3297.3,3302.6,3305.9,3311.1,3318.3,3323.6,3329,3334.4,3343.4,3352.4,3363.6,3378.2,3395,3417.6,3440.5,3454.3,3479.9,3505.5,3533.9,3558.8,3584.5,3608.1,3632.2,3656.9,3677.1,3690.8,3708.4,3717.6,3728.3,3739,3742.8,3751.6,3758,3762.9,3762.7,3779,3791.1,3810.6,3835.4,3865.5,3896,3937.9,3965.8,4006.8,4034.6,4075.6,4098.7,4117.6,4138.9,4160.5,4179.6,4199.1,4204.5,4221.1,4227.9,4241.9,4264.2,4280.8,4289,4308.8,4320.5,4335,4341.1,4341,4344,4340.6,4337.6,4337.6,4334.5,4328.3,4325.6,4316.4,4310.6,4316.6,4320,4332.3,4344.8,4359.9,4387.9,4416.5,4448.3,4481,4536.6,4566.8,4614.5,4673.2,4726.8,4800.3,4876.4,4901.17,4900.67,4887,4966,4966,0,0,0,0,0,0,0,0,0,0,0,0,0,0,0,0,0,0,0,0,0,0,0,0,0,0,0,0,0,0,0,0,0,0,0,0,0,0,0,0,0,0,0,0,0,0,0,0,0,0,0,0,0,0,0,0,0,0,0,0,0,0,0,0,0,0,0,0,0,0,0,0,0,0,0,0,0,0,0,0,0,0,0,0,0,0,0,0,0,0,0,0,0,0,0,0,0,0,0,0,0,0,0,0,0,0,0,0,0,0,0,1241.5,703.714,0,610.875,0,0,484.9,0,0,463,0,0,0,0,0,0,0,0,0,0,0,0,0,0,0,0,0,0,0,226,113.6,226.2,226.4,113.6,113.6,113.4,226,224.2,223.4,112,0,0,92.7,92.5,92.2,374.3,462.9,462.2,639.6,727.4,816.9,723.1,811.2,809.4,896.7,894.9,893.9,892.8,891.5,889.7,886.8,884.1,881.8,879.1,876.7,873.7,871.5,869.9,869,868.4,868.3,867.6,867.6,868.2,868.8,869.9,870.5,871.1,871.8,873.3,875.1,877.3,878.7,880.9,882.2,884.1,886.6,445.4,0,0,0,0,0,0,466.5,912.7,526.333,1715.12,1980.14,1778.8,1784.8,2239.25,2281.25,2326.5,1898.8,2281,0,0,0,0,0,0,0,0,0,0,0,0,0,0,0,0,0,0,0,0,0,0,0,0,0,0,0,0,0,0,0,0,0,0,0,0,0,0,0,0,0,0,0,0,0,0,0,0,67,0,336.1,336,403.3,397.5,197,194.3,260.4,258.9,260.2,318.6,380.1,502.8,562,558.3,493.1,552.5,610.2,547.3,605.9,603.8,600.7,596,174.4,180.6,292.4,572.1,566.5,497.6,495.8,559.7,492.7,490.8,488.8,432.9,376.8,428.8,480.4,478.3,476.3,474.4,472.4,417.5,362.9,464,460.9,405.9,402.7,399.6,446.6,443.7,392,390.3,437.5,387.9,433.1,430.4,379.4,376.3,373.4,370.8,414.6,412.2,410.6,409.1,407.9,406.7,405.3,404.1,402.7,356.4,399.2,397.3,395.4,393.6,391.9,346.5,388.6,387,385.5,384,382.2,338.1,336.1,376.1,373.9,371.8,369.8,368.1,366,323.9,201.2,200.3,278.2,276.8,392.2,390.7,389.4,388.4,388,387.5,387,386.7,386.2,386.3,386.3,386.1,347.7,347.7,347.8,0,0,0,0,0,0,0,0,0,0,0,0,0,0,0,0,0,0,0,0,0,0,0,0,0,0,0,0,0,0,0,0,0,0,0,0,0,0,43.6,43.6,87.3,435,347,432.6,388.4,172.4,343.7,428.8,428.3,427.6,384.1,425.9,425.5,424.4,423.7,422.8,421.8,420.8,419.7,418.8,417.6,416.7,416,414.7,414,412.8,411.8,411,410.1,409,408.1,407.7,406.5,405.7,404.9,404.2,403.6,402.9,402.4,401.6,401.3,400.8,400.4,399.9,399.7,399.5,399.3,399.2
0,0,0,0,0,0,0,0,0,0,0,0,0,268.9,1075.7,1604.3,2139.8,2404.1,2403,2401.9,2405.3,2411.2,2420.6,2430,2440.8,2452.9,2463.7,2473.5,2487,2499.5,2509.3,2516.9,2528.5,2534.9,2539.9,2545.2,2553.1,2946.8,2932.8,2927.1,2928.4,2929.8,2937.7,2944.2,2949.1,2957,2589.1,2593.2,2598.7,2605.7,3022.2,3024.9,3033.5,3036.5,3042.3,3052.6,3061.3,3066.9,3076.9,3088.7,3093.4,3102.3,3112.9,3119.9,3127.3,3133.7,3137.7,3144.7,3151.2,3161.2,3169.5,3181.5,3193.7,3206.1,3212.1,3225.1,3234.5,3242.7,3251.1,3263,3271.6,3281.6,3288.6,3295.4,3300.7,3306,3311.2,3316.4,3321.8,3327.2,3332.6,3347,3358,3372.7,3389.5,3408.2,3429.1,3450.4,3473.7,3497.6,3525.8,3552.6,3580.3,3604.3,3630.8,3653,3673,3686.8,3704.7,3720.1,3728.8,3739.6,3750.1,3758.9,3765.6,3772.6,3779.1,3793.1,3805.2,3822.4,3844.8,3869.5,3897.1,3925.2,3961,3992.2,4026.6,4053.5,4081.8,4099.4,4123,4147.5,4172.5,4189.9,4192.2,4214.5,4227.7,4235.5,4261.3,4278.3,4283,4299.9,4317.5,4329.1,4332,4337.9,4335,4338,4334.8,4328.9,4328.8,4322.5,4316.6,4319.5,4322.8,4325.8,4332,4347.5,4360.1,4385.4,4413.4,4445.4,4474.7,4517.4,4547.1,4590.8,4639.2,4694.8,4748.9,4804.3,4892,4895.6,4849,4906.5,4966,4966,0,0,0,0,0,0,0,0,0,0,0,0,0,0,0,0,0,0,0,0,0,0,0,0,0,0,0,0,0,0,0,0,0,0,0,0,0,0,0,0,0,0,0,0,0,0,0,0,0,0,0,0,0,0,0,0,0,0,0,0,0,0,0,0,0,0,0,0,0,0,0,0,0,0,0,0,0,0,0,0,0,0,0,0,0,0,0,0,0,0,0,0,0,0,0,0,0,0,0,0,0,0,0,0,0,0,0,0,0,0,0,827.667,703.714,0,488.7,0,0,0,0,0,0,0,0,0,0,0,0,0,0,0,0,0,0,0,112,0,223.4,336.4,336.6,668.4,449,449.2,559,671.6,671.6,781.6,892.4,557.6,555.2,443,329,219.8,108.6,106.2,195.4,94,476,469.2,846.5,738.4,734.2,640.8,820.6,816.9,813.7,901.4,898.3,896.5,895.4,893.7,891.4,887.8,885.6,882.8,880.2,877.4,874.7,871.8,870.3,869.3,868.8,868,867.4,867.3,868,868.7,869.3,870.3,871,871.9,873.1,875.2,877.5,879.4,881,882.6,884.6,887.4,712.7,88.6,0,0,0,0,0,0,470.1,477.4,1169.5,1243.71,1456,1753.2,1765.8,2231.75,1827.2,977.4,0,0,0,0,0,0,0,0,0,0,0,0,0,0,0,0,0,0,0,0,0,0,0,0,0,0,0,0,0,0,0,0,0,0,0,0,0,0,0,0,0,0,0,0,0,0,0,0,0,67.2,0,67.6,337.5,405.5,470.3,402.4,332.2,201,334.3,265.3,388.3,384.3,444.3,503.9,623.7,618.6,554.1,490.2,488.4,546.4,604.2,601.3,597.5,416.5,240.4,294.1,574.8,568.9,565,562.7,495.8,494,492.2,490.3,488.2,486.3,430.4,428.7,373.5,372.3,371.1,422.4,420.5,417.7,415,463.6,409.1,405.4,402.7,399.2,397.1,345.1,343.6,342.4,437.3,386.4,432.4,381,330.4,374.7,325.5,415.4,413.1,411,409.5,408.1,407.2,405.8,404.5,358.9,401.9,400.4,398.3,396.7,394.8,393,391.6,346.2,345.4,386.9,385.4,383.7,381.8,338,377.7,375.4,373.4,371.2,369.4,367.4,325.6,242.3,160.7,238.6,198.2,393.2,391.5,390.2,350.6,350,387.7,387.3,386.9,386.6,386.4,386.4,386.3,386.2,347.9,348,232,0,0,0,0,0,0,0,0,0,0,0,0,0,0,0,0,0,0,0,0,0,0,0,0,0,0,0,0,0,0,91.4,226.8,315.5,314.5,44.6,355.8,441.2,175.6,262.3,305.4,435,433.8,432.6,431.8,430.8,429.9,429.1,428.6,427.5,427,426.2,425.5,424.6,423.7,422.6,421.7,420.6,419.3,418.6,417.1,416.2,415.4,414.1,413.3,412.1,411.2,410.6,409.3,408.7,407.9,407,406.1,405.4,404.7,404.1,403.4,402.9,402.2,401.6,401.4,400.9,400.2,400,399.7,399.3,399.3,359.3
0,0,0,0,0,0,0,0,0,0,0,0,0,271.3,537.8,1074.5,1862.8,2398.5,2401.8,2399.5,2401.9,2408.7,2418.3,2428.7,2437.1,2449,2460,2470.8,2483.1,2493,2506.7,2790.78,2525.8,2531,2536.1,2543.9,2551.6,2558.3,2559.6,2566.2,2568.9,2575.6,2578.4,2581.1,2586.5,2587.8,2591.8,3013.5,3023.5,3039.4,3043.9,3049.6,3052.8,3054.3,3058.4,3062.8,3071.6,3078.9,3088.7,3097.6,3106.3,3109.1,3116.6,3122,3129.8,3134,3136.5,3137.8,3141.9,3153.1,3158.1,3175,3182,3194,3201.8,3214.8,3224.5,3237.7,3247.6,3257.9,3261.1,3271.3,3283.4,3290.1,3295.4,3298.9,3304.2,3309.5,3312.9,3321.9,3329,3341.6,3352.6,3363.6,3378.3,3404.4,3425.1,3444.4,3465.9,3493.6,3521.8,3544.6,3576.1,3600.3,3622.4,3644.5,3667,3678.5,3700.4,3710.7,3726.4,3737.3,3745.9,3759.2,3765.9,3779.7,3786.1,3800.3,3826.7,3430.8,3856,3880.6,3902.4,3928.2,3953.3,3984.2,4010.4,4039.6,4063.2,4085.2,4103.4,4119.9,4147.7,4167.9,4178.9,4198.8,4212.6,4232.3,4252.7,4266,4286.3,4294.1,4308.7,4323.3,4332.4,4326.3,4332.1,4331.9,4332,4326,4325.9,4316.9,4319.8,4323.1,4326,4335.1,4354,4369.1,4391.5,4416.4,4451.8,4478,4511,4548.1,4594.9,4629.2,4674.5,4734.8,4793.5,4853.4,4893.43,4887.67,4887,4966,0,0,0,0,0,0,0,0,0,0,0,0,0,0,0,0,0,0,0,0,0,0,0,0,0,0,0,0,0,0,0,0,0,0,0,0,0,0,0,0,0,0,0,0,0,0,0,0,0,0,0,0,0,0,0,0,0,0,0,0,0,0,0,0,0,0,0,0,0,0,0,0,0,0,0,0,0,0,0,0,0,0,0,0,0,0,0,0,0,0,0,0,0,0,0,0,0,0,0,0,0,0,0,0,0,0,0,0,0,0,0,0,0,551.778,547.333,0,492.6,492.6,0,0,0,0,0,0,0,0,0,0,0,0,0,0,0,0,0,329.2,438.3,880.4,992.2,993.8,887.6,998.4,1000.2,1001.2,1002.2,1002.2,1002.6,1002.4,888.2,775.6,773,878.4,765.7,761.7,647.2,530.2,422.4,100.5,394.8,683.2,766.3,850.6,843.5,738.8,925.2,917.7,911.5,906.4,902.9,899.8,897.7,895.8,892.3,889.1,886.3,883.5,880.9,878.4,875.3,872.6,870.8,869.6,869.1,868.2,867.6,867.1,867.4,868,869.3,870,870.7,871.5,872.8,875,877.2,879.4,880.7,882.6,884.8,887.8,802.1,357.1,178,93,94.6,95,0,0,0,0,0,0,0,534.5,0,0,0,962.2,0,0,0,0,0,0,0,0,0,0,0,0,0,0,0,0,0,0,0,0,0,0,0,0,0,0,0,0,0,0,0,0,0,0,0,0,0,0,0,0,0,0,0,0,0,0,0,0,67.7,67.7,67.7,135.5,204.5,407.5,544.5,337.7,272.6,270.4,336.1,334.1,266.4,391.6,449.4,381.2,502.3,560.1,432,429.6,549.4,547.1,604.8,602.5,598.7,476.9,239.5,180.6,291.8,571.7,567.6,564.5,497.3,495.6,493.6,491.7,489.9,487.9,486.3,484.6,482.7,481,425.9,371.4,369.8,368.1,365.4,310.6,360.6,307.1,354.1,351.7,299.7,347.2,345.2,392.3,390.7,290.3,288.4,287,379.6,376.4,373.2,416.9,414.2,412,410.2,408.7,407.6,406.4,405,404.3,402.7,401.1,399.5,397.7,396,394.3,392.8,391.2,389.7,388.2,386.7,342.3,340.4,339,337.1,334.8,290.8,330.8,329.3,369.1,367.1,283.8,321.6,239.5,278.2,237,392.4,352.2,351.3,350.5,388.4,387.7,387.4,387,386.9,386.7,386.8,386.8,348.3,348.3,348.5,193.5,0,0,0,0,0,0,0,0,0,0,0,0,0,0,0,0,0,0,0,0,0,0,0,0,0,0,46.5,46.5,91.7,91.3,271.2,359.9,313.4,356.8,399.3,440.9,438.7,436.9,436.1,434.8,433.7,432.6,431.9,431,430.3,429.6,428.7,428.1,427.3,426.5,425.5,424.5,423.6,422.5,421.6,420.4,419,418,416.9,416.1,415.1,414,413,412,411.1,410.1,409.1,408.2,407.7,406.6,406,405.3,404.6,404.1,403.4,402.5,402.4,401.6,401.3,400.8,400.2,400,399.5,359.5,359.4,40.4
0,0,0,0,0,0,0,0,0,0,0,0,0,0,0,1065.2,2397.1,2398.3,2399.5,2399.5,2402.9,2406.4,2415.8,2427.5,2434.7,2444.2,2453.8,2467.1,2478,2489.1,2499.2,2788.11,2799.44,2806.56,2815,3026.2,3005.3,2989.2,2972.8,2963.5,2963.6,2575.5,2579.7,2583.7,2995.5,3006.7,3028.2,3042.3,3051,3061.3,3067.8,3070,3074.6,3072.7,3072.6,3076.5,3080.9,3088,3089.1,3103.5,3108.7,3116,3123.2,3126.6,3127,3131.4,3132.4,3132.9,3136.9,3148,3155,3161.9,3177.4,3184.2,3195.2,3203,3219.2,3229.3,3239.1,3249.1,3259.2,3267.8,3274.5,3283.1,3286.5,3291.8,3293.5,3298.8,3307.5,3316.5,3323.7,3330.8,3347.1,3358.1,3376.3,3398.8,3417.7,3438.6,3459.9,3483.5,3509.7,3536.4,3561.3,3588.9,3615.5,3635.4,3655.6,3667,3687,3697.7,3706.1,3723.5,3736.9,3747.8,3761.4,3777.2,3784,3802.3,3824,3435.5,3865.3,3882.4,3904.2,3926.7,3954.6,3975.1,4000.4,4020.8,4039.3,4060.5,4082.1,4101.2,4123.9,4143.7,4166.4,4183.5,4209.1,4229.4,4246.3,4260.5,4286,4294,4308.7,4320.6,4332.4,4332.4,4332.6,4329.7,4323.5,4320.6,4317.4,4314.3,4326.4,4335.5,4350.6,4360.1,4378.9,4410.3,4432.9,4449.1,4488.4,4521.8,4558.1,4585.3,4622.8,4664.2,4706.6,4767.7,4819.8,4858.88,4936.5,4906.5,4926,0,0,0,0,0,0,0,0,0,0,0,0,0,0,0,0,0,0,0,0,0,0,0,0,0,0,0,0,0,0,0,0,0,0,0,0,0,0,0,0,0,0,0,0,0,0,0,0,0,0,0,0,0,0,0,0,0,0,0,0,0,0,0,0,0,0,0,0,0,0,0,0,0,0,0,0,0,0,0,0,0,0,0,0,0,0,0,0,0,0,0,0,0,0,0,0,0,0,0,0,0,0,0,0,0,0,0,0,0,0,0,0,0,0,0,496.6,492.6,496.6,0,0,0,0,0,0,0,0,0,0,0,0,0,0,107.7,216.6,217.4,327.8,654.3,873.7,984.5,987.2,989.4,991,993.6,995.2,885.6,997.6,998.2,998.2,997.4,883.6,771.8,877.6,873.6,868.6,862.8,743.7,737.5,630.6,413.5,605.4,691.6,684.7,672.3,860,845.5,838.4,736.8,824.3,911.4,906.4,903.2,900.6,897.2,893.4,890,886.8,883.8,881.7,878.6,875.5,873,871,869.9,869.1,868,867.1,866.6,867,867.5,868.9,869.5,870.2,871.2,872.7,875.1,877.1,879.2,880.8,882.7,885,888,891.1,537.9,538.1,368.1,549.6,643.7,644.6,460.6,181.5,270.8,269.3,266.3,176.9,89.4,0,0,0,0,0,0,0,0,0,0,0,0,0,0,0,0,0,0,0,0,0,0,0,0,0,0,0,0,0,0,0,0,0,0,0,0,0,0,0,0,0,0,0,0,0,0,0,0,0,0,0,0,0,68.1,0,68.3,273.8,547.3,477.9,615.4,545.1,543.5,473.5,537,532.9,461.7,456.6,449.3,506.7,438.3,434.1,369.7,488.9,486.9,485.6,603.4,600,595.7,415.9,353.8,342.8,403.5,570.1,566.5,564.1,496.9,495.2,493.1,491,489.5,488.1,486.2,484.7,483.3,481.5,480,478.3,423.1,420.6,417.6,362.2,360.3,356.6,303.4,351,299.4,346.7,394.2,440.9,438.9,338.9,191.4,286.3,283.4,328.1,372.4,416.3,413.7,411.4,409.8,408.3,407,405.6,404.5,403.2,402,400.3,398.4,396.9,395.2,393.8,392.4,390.9,389.4,388.1,386.5,342.2,340.1,295.6,251.7,250.4,290.2,288.7,329,368.9,326.1,323.6,201,318.7,237.8,275.9,353.4,352.3,351.3,389.3,388.7,388,349.2,387.3,387.1,386.9,386.9,386.9,387.1,386.9,77.6,0,0,0,0,0,0,0,0,0,0,0,0,0,0,0,0,0,0,0,0,0,0,0,0,46.6,46.6,46.5,46.5,91.5,227,360.9,314,313.3,400.9,442.8,440.5,438.7,437,436.1,434.9,433.8,432.7,432.1,431.4,430.5,429.9,429.4,428.6,427.7,426.7,425.8,424.8,423.8,422.8,421.7,420.3,419,418,416.9,415.9,414.5,413.6,412.3,411.3,410.5,409.4,408.8,408,407.2,406.3,405.7,405.1,404.7,404.1,403.4,402.7,402.2,401.5,401.2,400.8,400.2,399.8,359.6,359.5,80.3,40.4
0,0,0,0,0,0,0,0,0,0,0,0,0,0,0,1064,1062.8,2395.9,2395.9,2397.2,2401.7,2405.2,2412.2,2420.4,2431,2439.4,2451.4,2462.1,2473.1,2485.3,2495.3,2502.9,2792.22,2800.89,2809.33,3034.1,3017.6,3005.8,2996.2,2987.9,2993.3,2994.5,3006.6,3013.8,3027.1,3042.6,3055.4,3071.6,3078,3086.4,3091.6,3093.7,3094.5,3090.8,3089.7,3097,3096.2,3100,3105.6,3114.2,3119.1,3124.4,3130.3,3131.9,3133.3,3128,3128.8,3131,3133.6,3143.3,3148.4,3155,3167.1,3174.4,3188.5,3197.8,3209.1,3224,3232.2,3240.4,3250.7,3259.2,3267.5,3274.5,3283.1,3282.9,3289.9,3291.7,3298.8,3307.5,3316.5,3325.5,3341.7,3348.9,3370.9,3387.5,3410.2,3430.8,3453.9,3477.5,3501.4,3526,3551,3571.8,3595.8,3624.4,3644.3,3655.6,3669,3688.9,3703.7,3712.3,3729.4,3740.3,3753.9,3768,3779.2,3799.9,3814.3,3840.3,3862.1,3884.1,3903.3,3918.1,3945.8,3971.5,3991.7,3593.5,4024.9,4038.3,4056.8,4078.6,4106,4131.4,4151,4170.6,4196.4,4217.1,4241,4257.2,4274.5,4297.4,4305.8,4311.3,4323.8,4317.9,4318,4312,4311.9,4309,4308.9,4314.7,4317.9,4332.6,4347.8,4376.4,4398.2,4423.5,4455.9,4482.1,4505.4,4539.3,4575.7,4603.1,4651.2,4682.7,4728.6,4786.7,4820.56,4868.25,4919.83,4939.33,4966,0,0,0,0,0,0,0,0,0,0,0,0,0,0,0,0,0,0,0,0,0,0,0,0,0,0,0,0,0,0,0,0,0,0,0,0,0,0,0,0,0,0,0,0,0,0,0,0,0,0,0,0,0,0,0,0,0,0,0,0,0,0,0,0,0,0,0,0,0,0,0,0,0,0,2483,2463,2463,2483,0,0,0,0,0,0,0,0,0,0,0,0,0,0,0,0,0,0,0,0,0,0,0,0,0,0,0,0,0,0,0,0,0,0,0,0,496.6,496.6,0,0,0,0,0,0,0,0,0,111.2,219.2,0,109.6,109.4,109.2,109,216,216,539.7,865.5,975,977,979.7,982.3,984.3,987,989.4,1098.8,992.4,993.4,993.8,881.2,771.2,878.2,875.6,983,868.1,863,1067.9,954.2,944,830.8,615,703.7,794.6,689.6,777.3,675.7,849.9,843.5,741.6,736.3,823.2,910.1,905.4,902.5,898.8,894.4,890.4,887,884.5,881.8,878.7,875.5,872.7,871.1,869.9,868.7,867.6,866.9,866.2,866.5,867,868.2,869.1,870.1,871.3,872.7,875,876.9,879.2,880.9,883.1,885.1,887.5,890.6,804.5,445.6,273.5,274.3,364.4,453.8,453.9,272.4,357.7,445.1,528.6,523.9,607.4,605.6,687.1,345.2,0,0,0,0,0,0,0,0,76,0,0,0,0,0,0,0,0,0,0,0,0,0,0,0,0,0,0,0,0,0,0,0,0,0,0,0,0,0,0,0,0,0,0,0,0,0,0,0,0,0,0,0,0,207.3,619.3,687.1,617.7,547.4,545.3,542.7,606.5,535.9,465.3,460.5,390.6,383.2,441.4,313.2,370.1,550.5,548.2,606.5,604.1,601.2,597.1,418.4,240.7,352.4,406.7,515.5,568.7,565.8,498.5,496.7,494.7,492.5,491,489.2,487.8,486.6,485.2,483.6,482,480.2,478.4,423,420.3,260.6,361.6,409.5,304.7,403,400.1,397.8,445,442.7,391.8,340.8,339.1,335.7,141.9,235.7,233.9,372.2,415.7,413.4,411.3,409.5,408.1,406.5,405.4,403.9,402.7,400.9,399.3,397.6,396,394.7,393.3,391.9,390.6,389.2,344.7,343.4,256.1,254.6,210.8,251.2,332.8,331,329.8,369.8,326.8,283.9,201.2,200.8,279.2,317,315.1,353.4,352.3,390.1,389.4,350.2,349.9,349.2,387.6,387.3,387.2,387,387,386.9,193.3,0,0,0,0,0,55.1,55.1,55.1,0,0,0,54.9,0,0,0,0,0,0,0,0,0,0,0,0,46.7,46.6,91.6,183,227.9,361.9,405.2,313.8,312.4,400.5,442.3,440.2,394.8,436.9,436,434.8,433.8,432.9,432.3,431.7,431,430.3,429.5,428.9,428.2,427.4,426.4,425.4,424.1,422.9,421.8,420.4,418.9,417.8,416.9,415.4,414.3,413.3,412.3,411.2,410.2,409.3,408.4,407.9,407,406.2,405.7,405,404.7,404.1,403.5,402.7,402.2,401.5,401.2,400.9,400.3,360.1,80.4,40.4,40.5,40.5
0,0,0,0,0,0,0,0,0,0,0,0,0,0,0,0,1060.6,2392.4,2395.9,2397.1,2399.3,2400.4,2410.9,2419.1,2428.6,2438.2,2448.9,2458.5,2468.1,2479.2,2489,2496.6,2786.44,2795.11,2805.11,2534.9,2541.3,2549.1,2558.2,2564.8,2571.5,2579.5,2583.5,3045.2,3060.8,3077.2,3089.9,3095.3,3104.8,3111.8,2910.56,3119,3119.5,3113.7,3112.6,3108.4,3115,3117.1,3119.1,3124.1,3135.5,3137.7,3143.1,3140.1,3134.2,3132.6,3130.3,3126.4,3128.9,3133,3136.7,3148.5,3155.4,3164.3,3176.6,3189.4,3200.9,3215.4,3220.3,3228.5,3238.6,3252.3,3260.6,3269.1,3272.7,3274.4,3281.2,3286.4,3291.6,3298.6,3311.1,3318.3,3331,3341.7,3361.9,3383.9,3402.6,3421.5,3448.1,3471.6,3491.5,3517.4,3538.1,3559.3,3588.8,3611.1,3629,3648.8,3666,3675.1,3694.7,3710,3718.3,3733.2,3749.3,3762.9,3778.8,3792.5,3818.4,3834.9,3866.4,3876.4,3902.9,3917.9,3940.3,3963.1,3976.1,3998.7,4006.2,4019.4,4045.6,4061.8,4094.8,4111.2,4130.4,4150.7,4173.3,4205.8,4226,4245.7,4265.9,4288.9,4294.5,4300.5,4306.4,4312.5,4312.7,4300.8,4300.9,4300.6,4300.5,4312.2,4315.3,4333.3,4354.8,4382.8,4404.6,4433.9,4459.3,4482.7,4519.6,4546.4,4586.5,4617.1,4648.2,4697.1,4744.3,4780.11,4811.88,4873.38,4895,4958,4966,0,0,0,0,0,0,0,0,0,0,0,0,0,0,0,0,0,0,0,0,0,0,0,0,0,0,0,0,0,0,0,0,0,0,0,0,0,0,0,0,0,0,0,0,0,0,0,0,0,0,0,0,0,0,0,0,0,0,0,0,0,0,0,0,0,0,0,0,0,0,0,0,0,1655.33,1642,2424.5,2424.5,2443.5,2443.5,2483,0,0,0,0,0,0,0,0,0,0,0,0,0,0,0,0,0,0,0,0,0,0,0,0,0,0,0,0,0,0,0,0,0,0,0,0,0,0,0,0,0,110,110.4,218.1,0,325.2,429.9,538.5,107.5,322.6,642,642,854,856.1,964.7,967.8,970.3,972.6,974.9,1085.1,1087.5,1090.5,1092.2,1093.1,1094.5,1095.4,988.1,875.7,546.1,872.1,759.4,865,968.9,961.1,1058.7,946.8,937.1,1025.4,605.9,701.3,695.5,688.6,778.2,768.8,760,845.7,743.9,738.8,918.6,912.9,908.4,904.2,899.8,895.3,891,887.8,884.7,882.3,879,876.1,873.4,872,870.6,869.6,868.6,867.3,866.8,867.1,867.9,868.5,869.4,870.4,871.6,873.6,875.6,877.7,880.3,881.8,884.1,886,888.2,889.8,446.9,177.3,182.4,183,273,184,272.8,271.5,88,268,435.2,606,689.6,255.1,257.7,258.7,87,86.5,0,0,0,0,0,714.5,703.6,694,687.8,451.1,524.7,523.7,747.6,746.6,746.2,670.5,744.9,743.4,742.2,738.8,663.4,658.6,431.7,356.3,350.3,279.5,416,413.5,274.9,273.8,476.8,338.7,541.3,202.5,135.3,134.4,138.2,214.5,67.7,68.4,0,0,0,71.4,0,0,69,138,69.7,208.2,207.9,414.8,622,689.8,688.8,686.7,615.6,680.8,609.7,605.6,534.3,331.6,458.4,387,257.1,314.5,249.5,551.6,610.3,607.3,605,602.5,599.3,537.1,357.7,296.6,236,405.2,514.8,446.9,444.8,498.8,496.2,494.2,492.1,490.9,489.3,488,486.6,485.1,483.3,481.6,480.1,424.5,474.5,470.9,363.5,463.2,459.2,353.9,451.7,448.8,446.3,443.6,441.8,439.6,389.1,338.1,287.6,284.8,235.5,374.4,371.9,415.7,413.6,411.2,409.5,407.7,406.3,404.8,403.1,401.7,400.2,398.3,396.9,395.5,394.1,392.8,391.4,390.3,389,344.6,343.2,298.3,339.5,252,250.4,331.9,330.4,370.4,368.6,325.4,241.9,241.3,280,278.6,356.2,315.1,353.6,352.5,351.9,351.2,350.5,350,349.3,387.6,387.4,387.2,387,386.8,386.9,116.1,0,0,0,55.1,55.1,55.1,164,109.5,109.3,109.7,163.5,163.5,0,0,0,0,0,0,0,0,0,0,0,46.7,46.6,91.7,228.5,272,406.4,404.7,403.5,445.9,444.1,442.1,440.3,438.5,437.2,436.1,435.2,434.1,433.2,432.5,432,431.2,430.7,430,429.2,428.7,427.7,426.6,425.6,424.4,423,421.8,420.3,419,417.9,416.2,415.2,414.2,412.7,411.9,411,409.7,409.1,408.4,407.5,406.9,406.2,405.6,405,404.5,404,403.5,402.7,402.2,401.8,200.8,361,240.7,40.5,40.5,40.5,40.5,40.5
0,0,0,0,0,0,0,0,0,0,0,0,0,0,0,0,1327.2,2389,2392.4,2394.8,2399.3,2399.4,2409.7,2415.6,2426.2,2434.5,2445.3,2452.5,2462.2,2475.4,2484.1,2494.1,2779.56,2790.89,2803.67,2815.11,2823.78,3044.4,2555.6,2564.7,2568.8,2576.7,3059.6,3075.2,3088.3,2890.11,2891.78,2894.78,2903.89,2911.56,2914.89,2918.11,2926.22,2931.11,3136.2,3132.1,3130.6,3137.1,3137.4,3140.7,3149.1,3154.5,3153.4,3147.3,3139.5,3131.6,3125.3,3127.7,3125,3131.5,3135.1,3138.7,3147.2,3157.6,3170.1,3183,3192.3,3205.3,3213.3,3221.7,3230,3243.7,3254,3259,3264,3269.1,3272.5,3277.7,3286.5,3295.2,3300.5,3314.7,3323.7,3339.9,3358.2,3372.9,3395,3415.8,3440.4,3461.8,3481.6,3507.3,3527.9,3553,3578.5,3600.2,3615.6,3635.7,3653.1,3659.2,3681,3696.3,3711.5,3722.3,3737.9,3753.5,3769.2,3794.7,3813.4,3834.5,3858.7,3878.5,3893.2,3915.1,3940.1,3955.6,3960.4,3983,3998.3,4011.2,4021.9,4042.9,4072.7,4099.8,4116.4,4139.3,4164.7,4194,4220.5,4245.8,4265.9,4286,4283.6,4301,4298.5,4292.6,4290,4296,4290.9,4293.2,4292.6,4298.6,4310.7,4328,4352.6,4371.2,4405.3,4437.3,4460.1,4493.2,4522.9,4563.3,4597.3,4631.2,4680,4715.3,4739.78,4775.25,4836.25,4871.43,4903.2,4942.2,4926,0,0,0,0,0,0,0,0,0,0,0,0,0,0,0,0,0,0,0,0,0,0,0,0,0,0,0,0,0,0,0,0,0,0,0,0,0,0,0,0,0,0,0,0,0,0,0,0,0,0,0,0,0,0,0,0,0,0,0,0,0,0,0,0,0,0,0,0,0,0,0,0,0,4926,4887,4811,2405.5,2424.5,2424.5,2443.5,1655.33,0,0,0,0,0,0,0,0,0,0,0,0,0,0,0,0,0,0,0,0,0,0,0,0,0,0,0,0,0,0,0,0,0,0,0,0,0,0,0,320.3,533.1,848.2,641,639.2,639.2,847.8,745.2,744.1,531.3,955.6,955.5,957.3,958.7,961.5,963.3,965.9,1075.3,1077.8,1079.9,1081.8,1084,1084.7,1085.7,1085.5,1085.7,1084.7,971.6,650.6,646.7,857.4,963.4,848.5,1055.6,1047.5,937.8,929.7,819.8,812.4,598.3,693.3,591.7,872.9,770.8,765,755.2,746.1,740.9,921.2,915,909.9,905.3,901,895.6,891.4,888,885.1,882.4,879.8,877.2,874.8,873,872.1,871.2,870,868.7,868.2,868.2,869.2,869.8,870.6,871.4,872.8,874.6,876.5,879,881.3,883,885.3,886.8,888.3,889.5,890.1,801.8,447.1,708.6,705.7,883.1,528.4,698.8,697.3,869.9,865.3,861,857,853.5,850,676.1,592.3,589.2,585.1,333.3,164.3,0,0,159.1,629.9,702.9,228.2,228.2,532.9,759.1,754.6,754.2,677.5,674.7,674.1,676.4,674.3,671.7,742,587.5,437.1,285.2,354.8,637.1,632.2,486.4,483.2,619.1,615.3,611.9,473.8,201.9,268.6,268.2,334.5,200.6,267.3,133.5,66.6,0,0,0,68.1,207.8,274.3,207.3,208,277.4,347,485.7,692.3,691.7,690.2,688.2,685.6,682.8,679.4,674.9,536,465.2,459.4,261.2,258.2,129.4,374.5,553.2,612,609.1,606.7,604.2,601.1,539.2,593.4,356.5,354.2,466.3,575.6,449.8,503.9,501.1,498.4,495.7,493.5,491.7,490.2,488.9,487.1,485.7,484.1,482.7,480.9,478.6,476,472.5,312.8,413,409.6,355,402.7,450.2,447.7,445,442.9,441,438.8,436,385.4,287,284.4,282.3,280.5,418.1,415.6,413.5,411.4,409.5,407.8,406,404.3,402.6,401,399.1,397.5,396.2,394.7,393.5,392.3,347.5,390,388.8,344.3,257.5,256.4,297.1,294.5,332.7,289.1,329.3,327.9,285.2,364.6,241.6,281.1,279.8,318.1,316.7,354.9,314.5,352.9,352.1,351.2,350.5,350.1,388.1,387.6,387.2,387.3,386.9,386.9,193.5,0,0,0,55.1,55,163.8,273.1,218.2,163.4,326.7,435.5,380.5,271.4,0,0,0,0,0,0,0,0,0,46.7,46.7,46.6,183.2,272.8,361.5,360.3,359,356.9,444.7,443.1,441.3,439.8,438.5,437.1,436.3,435.4,434.4,433.4,432.7,432.2,431.7,431.1,430.6,429.7,429,428.4,427.1,425.8,424.7,423.2,421.9,420.2,419,417.4,416.3,415,413.6,412.6,411.6,410.7,409.6,409,408.3,407.6,407,406.1,405.6,405.2,404.5,404.2,403.6,402.8,402.2,362,361.3,120.7,40.5,40.5,40.5,40.5,40.5,0
0,0,0,0,0,0,0,0,0,0,0,0,0,0,1064,1592.6,1326,2124.7,2394.7,2394.8,2397.1,2401.7,2407.3,2418,2425.1,2432.2,2441.7,2452.5,2463.4,2474.3,2480.5,2491.6,2779.56,2788,2799.44,2809.44,3034.1,3032.6,3034.1,3039.5,3041.2,3049.2,3058.5,3071.3,3086.9,2890.11,2896.22,2899,2906.78,2914.56,2920.78,2923.89,2931.89,2938.33,2653.1,2658.7,2667.8,2676.6,2684,3154.4,2706.3,2714.9,2725.4,2732.7,2740.3,2746.3,3123.6,3120,3122.4,3127.4,3130,3136.8,3142.3,3151.3,3165.2,3174.9,3185.6,3195.3,3206.8,3215,3225.1,3237,3247.2,3255.5,3257.1,3258.8,3264,3272.5,3277.8,3288.2,3295.2,3311.2,3320.2,3330.8,3352.7,3371,3391.4,3410.1,3432.6,3463.6,3483.5,3507.1,3527.6,3550.5,3565.6,3589.6,3604.3,3619.8,3637.5,3648.5,3667.7,3682.8,3696.3,3711.3,3731.5,3747.3,3765.3,3793.1,3816.2,3835.3,3856.6,3883.8,3898,3908,3920.5,3945.5,3960.4,3967.6,3980.4,3995.8,4016.8,4032.6,4059.4,3670,3686.3,3703,4162.3,4197.2,4227,4244.3,4264.1,4278.9,4277.9,4284.4,4287.6,4278.8,4276.2,4273.4,4265.3,4267.8,4273.5,4279.4,4288,4305.4,4332,4353.2,4392.9,4424.8,4460.6,4493,4522.7,4567.1,4611.4,4652.1,4684,4737.1,4756.22,4785.75,4812.71,4849.5,4894.5,4917,4906.5,4966,0,0,0,0,0,0,0,0,0,0,0,0,0,0,0,0,0,0,0,0,0,0,0,0,0,0,0,0,0,0,0,0,0,0,0,0,0,0,0,0,0,0,0,0,0,0,0,0,0,0,0,0,0,0,0,0,0,0,0,0,0,0,0,0,0,0,0,0,0,0,0,0,4926,4849,2387,2387,2405.5,2405.5,2443.5,1642,0,0,0,0,0,0,0,0,0,0,0,0,0,0,0,0,0,0,0,0,0,0,0,0,0,0,0,0,0,0,0,105.4,211,424.3,318.5,422,422.5,422.7,421.1,526.7,736.9,733.6,945.3,945.4,945.6,946,946.5,947.9,949.1,950.5,951.3,952.3,954.4,1062.8,1064.7,1067,962,1071,1072.5,1074,1075.3,1076.1,1075.7,1075.4,1074.2,967.6,1070.6,850.2,849.8,847.1,1055.3,1048.7,1041.6,830.2,824.6,815.2,809.4,902,694.6,786.8,685,776.6,864.8,858.2,757.3,751,837.1,923,916.3,910.8,906.3,901.5,895.6,891.5,888.4,885.4,882.8,880.2,878.3,876.3,874.6,873.4,872.5,871.6,870.3,869.6,869.7,870.4,871,871.5,872.2,873.1,874.9,877.4,880,881.9,884,886,886.9,888.1,888.2,888.1,887.3,886,883.6,880.4,876.7,873.7,871.9,867.8,865.4,861.7,857.6,853.7,767.2,759.7,844,758,836.2,832.8,826.5,818.1,650.2,564.5,402.9,714,389.4,230.2,382.9,536.1,687.2,606.8,683.7,527.4,598.4,678.9,601.4,677.8,676.5,593.6,587.8,581.1,215.9,214.1,572.7,638,632.8,628.4,623.5,687.1,682.7,678.7,675.1,673.1,670.8,535.3,333.7,133.1,0,0,0,0,0,134.2,68.2,205.1,138,207.1,277.5,347.8,486.6,693.9,693,691.6,689.2,686.6,683.6,680,675.8,604.5,400.3,199.1,197.3,195.6,193.8,438.7,556,553,611.7,608.7,606.2,603.3,534.4,472,352,232.5,469,514.4,510.4,507,503.8,500.4,497.5,495.1,492.7,490.7,489.4,487.7,486,484.4,482.8,481.3,479.1,476.6,473.4,365.9,414.2,410.8,407,403.6,451.2,448.6,446.1,444,442.1,440.1,437.6,434.6,431.9,381.4,284.2,329.3,327.3,418,415.5,413.5,411.5,318.6,407.4,360.4,403.8,402.1,400.2,398.7,397,395.5,394.3,393,391.8,390.7,389.7,388.3,215.4,256.5,255.7,379.1,293,331.6,329.9,328.2,326.7,365.1,323.2,281.8,241,358.7,357.2,356,354.9,354.2,313.7,352.2,351.2,389.1,388.6,387.9,387.6,387.3,387,386.9,193.5,0,0,0,54.9,54.9,163.4,272.4,435.4,380.8,380.2,488.7,433.8,379.5,269.8,107.5,53.3,53.2,53.1,53,0,0,0,46.7,46.7,91.7,182.8,272.2,360.8,404.1,223.1,311.5,444,442.6,441,439.9,438.7,437.5,436.6,435.7,434.8,434.2,433.4,432.6,432.3,431.8,431.1,430.4,429.7,428.6,427.6,426,424.6,423.3,421.8,420,418.8,417.2,416.1,414.5,413.6,412.5,411.6,410.6,409.6,408.7,408.3,407.8,406.9,406.1,405.8,405.2,404.8,404.4,403.6,403,362.2,321.9,281.3,120.7,40.5,40.5,40.5,40.5,0,0
0,0,0,0,0,0,0,0,0,0,0,0,0,0,267.7,799.7,1860.3,2390,2392.4,2394.8,2396,2400.7,2408.6,2415.7,2423.8,2433.4,2441.8,2451.3,2459.8,2470.7,2478,2488,2496.7,2784,2793.78,3018.6,3016,3018.7,3027.7,3034.5,3045,3054.2,3058.2,3073.9,3092.3,2888.67,2897.56,2902.11,2912.78,2920.56,2926.56,2934.44,2645.4,2948.78,2661,2665.5,2676,2686.1,2693.6,2699.7,2711.8,2720.7,2726.5,2737.3,2744.8,2747.9,3120.6,3118.9,3118.8,3124.3,3129.6,3130.2,3142.1,3148.1,3158.7,3173.1,3180.9,3191.9,3203.6,3213.4,3221.8,3232,3242,3248.7,3252,3253.7,3262.3,3271,3277.8,3283,3293.5,3305.8,3320.3,3334.6,3354.5,3369.2,3387.8,3412,3432.8,3457.9,3477.5,3501.2,3521.5,3542.3,3565.6,3578.9,3592,3607.1,3622.5,3639.8,3654.5,3667.3,3687.1,3705.4,3723,3740.7,3756.5,3788.9,3807.6,3829,3855.3,3872.4,3891.9,3906.2,3923.7,3941.2,3955.9,3960.8,3983.5,3993.8,4016.9,4035.2,4059.4,4083.8,3683.8,3703.2,4159.6,4192.4,4215.8,4235.9,4246.9,4261.4,4267.1,4269.8,4267.7,4262.9,4250.5,4248.6,4242.4,4248.6,4247.9,4254,4265.3,4282.3,4311.5,4341.5,4375.1,4415.8,4450.9,4483.1,4519.4,4559.5,4603.9,4645.2,4691.1,4737.2,4780.6,4795.38,4802.43,4805.83,4862.83,4888,4907.5,4926.33,4946,4966,4966,0,0,0,0,0,0,0,0,0,0,0,0,0,0,0,0,0,0,0,0,0,0,0,0,0,0,0,0,0,0,0,0,0,0,0,0,0,0,0,0,0,0,0,0,0,0,0,0,0,0,0,0,0,0,0,0,0,0,0,0,0,0,0,0,0,0,0,0,0,4926,4811,2387,2368.5,1591.33,1603.67,808.167,821,0,0,0,0,0,0,0,0,0,0,0,0,0,0,0,0,0,0,0,0,213.8,213.5,319.2,422.2,421.5,420.9,314.7,207.6,314.9,210.2,315.1,209.6,418.3,523.5,523.2,728.1,831.6,728.4,623,831.3,727.6,833.2,938.6,834.8,939.8,836.6,941.9,943.7,945,946.1,947.7,948.3,950.3,1058.3,1060,1061.6,1062.7,1064.1,1065,1065.8,1066.9,1067.2,1066.5,1064.4,1061.6,1058.8,948,846.3,736.2,1042.5,826.4,925.1,1025.7,617.1,814.3,804.2,699.8,794.5,786,878.5,873.1,867,862.6,857.9,945,844.2,931.2,924.2,917.4,911.4,906.6,901.4,895.7,891.7,888.2,885.5,883.2,881.3,878.9,877,875.5,874.9,873.3,872,870.5,869.8,869.9,870.2,871,871.7,872.1,873.6,875.5,878.4,880.8,882.7,884.5,886.2,887.3,887.7,886.5,884.9,882.2,879.4,876,871.3,867.5,864.9,862.3,860.4,771.8,854.7,853.5,849.9,758.8,844.3,841.5,838.5,834.4,831.1,824.4,816.3,810.1,644,720.5,637,709.7,704.7,700.3,621,697.4,544.3,468.2,543.6,542.5,539.7,536.5,305.7,458.3,230.5,226,148.4,145.5,144,503.1,354.9,635.4,701.2,695.4,690.4,685.6,681.2,676.9,674.2,671.2,669.6,667.2,599.1,199.3,132.8,0,0,0,267.8,135,67.7,137.6,414.5,485.3,625.9,695.7,695.2,694.2,692.6,690.3,687,683.6,679.8,676.1,404.4,269,133.7,132.9,258.5,194.1,378.6,559,555.7,614.7,611.8,609.2,605.9,536.9,533.2,354.2,351.5,290.7,461,513.5,510,506.4,503.1,499.6,496.6,494,491.7,490.1,488.2,486.1,484.5,482.9,481.5,479.3,477.1,474.2,366.5,311.4,412,459.6,404.7,452.4,449.5,397,444.7,442.7,440.9,438.7,436.5,433.8,431.2,380.8,330.8,422.9,420.1,278.2,415.3,367.4,320,408.8,407,314.7,358.2,401.4,399.3,397.8,396.2,394.9,393.5,392.6,391.5,390.4,389,387.3,300,213.6,212.3,294.2,290.5,330.6,328.9,327.2,324.8,324,363,321.7,320.6,319.3,357.7,356.4,355.3,354.1,352.9,351.9,389.7,388.8,388.4,387.8,387.5,387.2,386.9,309.5,0,0,0,54.9,54.8,108.8,271.7,379.7,541.7,541,540.4,485.8,431.5,377.4,107.1,53.1,53,53,0,52.9,0,0,46.7,46.7,91.5,182.4,226.8,315.3,268.8,133.8,355.7,443.9,442.4,440.8,440,438.8,437.8,436.8,436.2,435.6,434.5,434.1,433.3,432.7,432.2,431.7,431.2,430.1,429.1,427.8,426.1,424.8,423.2,421.6,419.9,418.6,417.1,415.7,414.6,413.5,412.4,411.7,410.5,409.7,409,408.5,407.8,407,406.6,406,405.4,405.1,404.6,404,322.8,322.2,281.7,80.7,40.5,40.5,0,0,0,0,0
0,0,0,0,0,0,0,0,0,0,0,0,0,0,268.9,800.8,2128.1,2392.4,2393.6,2394.8,2394.8,2404.1,2409.7,2416.8,2423.9,2433.4,2444.2,2450.2,2458.6,2470.7,2475.7,2485.5,2495.5,2501.8,2511.9,2523.4,2532.4,2540.1,3010.8,3019.8,3030.2,3041.6,3053.2,3073.9,2882.67,2889.89,2899.11,2908,2914.22,2629.6,2638,2643.6,2652,2662.1,2670.7,2678.2,2685.5,2698.8,2704.8,2714,2721.9,2732.5,2734,2746.3,2747.8,2755.1,2758.2,3119.8,3119.7,3125.4,3131,3137.8,3142,3149.7,3157.2,3173.1,3180.9,3192.2,3200.4,3208.5,3220.4,3233.8,3240.6,3247.2,3252.2,3252.1,3262.4,3265.8,3274.4,3284.8,3297.1,3307.8,3318.4,3336.4,3354.6,3367.4,3387.7,3410.4,3431,3450.1,3475.6,3495.3,3513.5,3532.1,3548.8,3570.4,3589.7,3596.2,3611.7,3626.7,3639.4,3647.6,3673.7,3696.5,3709.4,3729.3,3747.4,3777.9,3796.2,3822.6,3844.5,3871.2,3893.2,3902.8,3927.7,3932.2,3952,3969,3973.6,3996.4,4006.3,4027.5,4045.8,3654.2,3675.3,3686.6,4146.2,4181.4,4199.7,4215,4227.8,4245.1,4245,4247.7,4251.2,4240,4230.9,4220.8,4220.7,4212.1,4223.5,4229.1,4240.2,4259.2,4282.4,4317.7,4353.3,4399.8,4437.7,4466.9,4503,4552.9,4600.3,4651.8,4672.8,4729.9,4777.3,4798,4809.12,4802.29,4839.86,4867.43,4821.25,4869.5,4888.67,4888.5,4849,4887,4887,4926,4966,0,0,0,0,0,0,0,0,0,0,0,0,0,0,0,0,0,0,0,0,0,0,0,0,0,0,0,0,0,0,0,0,0,0,0,0,0,0,0,0,0,0,0,0,0,0,0,0,0,0,0,0,0,0,0,0,0,0,0,0,0,0,0,0,0,821,687.286,676.714,676.714,592.125,477.4,534.556,543,0,0,0,0,0,0,0,0,0,106.2,105.8,0,0,106.9,105.1,0,104.9,104.9,212,317.6,317.6,317.3,420.8,520.6,622.9,622.1,516.8,720.7,719.4,414.8,619.1,620.1,416.2,617.1,924.7,925.5,926.5,825.4,826.5,723,826.4,930.7,932,933.2,933.9,935.2,936.2,938.1,940.2,942,1050.5,1051.3,1052.9,1054.7,1056.2,1057.1,1057,1057.2,1057.4,1056.6,1056.8,1055.1,1052,1048.5,1044.9,940.2,831.1,931.3,823.1,714.7,917.4,704.1,1009.4,905.9,801.9,894.7,988.4,981.9,779,872.4,868.2,863.3,859.6,947.9,943.3,937.9,931.2,924.4,917.9,911.8,906.3,901.5,895.9,891.6,888.2,885.7,883.4,881.7,879.4,877.9,877.1,875.8,874.8,872.8,871.4,870.9,871.3,871.6,871.9,872.4,873.1,874.3,876.1,878.8,881.4,883.3,885.1,886.6,887.4,886.6,885,882.6,791.5,874.9,870.5,777.4,862.2,859.1,856.9,855.2,768.3,850.1,848.2,757.4,843.4,840.9,838.2,835,831.5,827.7,821.4,813.9,806.9,802,796.6,790.4,705.6,699.9,773.6,693.5,692.2,691.5,691.2,688.6,763.3,610.9,761.9,759.9,681.5,302.2,376.3,148.3,221.1,437.6,290.2,215.4,142.3,211.2,419.2,416.1,618.7,683.4,678.9,675.5,672.1,670,667.3,665.5,664.2,662.8,529.5,397.3,398.5,466.8,470,136.2,205,690.3,625.9,696.3,696.2,696.1,695.5,693.3,690.4,687.4,683.5,679.8,675.2,470.4,268,198.8,197.2,195.5,257.2,254.3,562,558.7,556,553.6,484.8,549.2,480.2,536.5,474.3,470.7,467.2,463.8,517.4,513.2,509.4,393,502,498.8,495.7,493.2,491,488.9,486.6,484.7,482.8,481.2,479.4,477.1,474.5,419.3,312.4,412.7,409.2,406,402.9,450.6,447.7,445.3,443.4,441.6,439.3,437.4,435.2,432.7,430.2,427.8,424.9,375.2,419.6,324,322.4,412.9,318.8,408.2,360.9,404.2,402.3,400.3,398.6,396.8,395.3,394.2,393.1,392.1,391.2,389.9,388.2,300.8,214.1,169.7,379,291.4,331.3,329.4,327.8,366.7,365.2,363.9,362.8,361.4,360,398.1,357.3,395.5,355.1,353.5,391.1,390.2,389.6,388.6,388,387.7,387.5,387.2,309.6,0,0,0,0,54.5,162.6,324.9,432.3,539.7,538.8,538.1,483.4,482.9,428.8,320.5,106.5,52.9,52.9,52.8,52.7,0,0,46.7,46.6,91.4,136.2,181.3,224.6,268.3,178,400,443.3,442.3,441.1,440,439.1,438.4,437.5,436.8,436,435.3,434.8,434.1,433.3,432.9,432.3,431.5,430.8,429.3,428,426.1,424.5,422.8,421.1,419.5,418.1,416.8,415.6,414.5,413.1,412.3,411.6,410.5,409.8,409,408.7,408,407.5,407,406.3,406,405.4,323.9,363.8,282.4,282.2,161.2,0,0,0,0,0,0,0,0
0,0,0,0,0,0,0,0,0,0,0,0,0,0,266.6,1069.9,1603.1,2394.8,2395.9,2398.3,2398.3,2404.1,2409.7,2420.3,2425.1,2434.6,2441.8,2450.2,2461.1,2469.5,2475.7,2483.1,2494.4,2501.8,2509.4,2520.8,2527.2,2538.8,2547.9,2555.6,2562.3,2570.1,2578.2,2587.6,2595.6,2601,2902,2909.44,2626.7,2636.7,2646.3,2648.9,2659,2664.7,2677.7,2686.5,2695.4,2707.5,2712,2719.8,2729.1,2735.3,2743,2747.8,2756.9,2758.2,2764.1,2770.2,3122.2,3127.9,3135.1,3137.8,3143.5,3153,3162.2,3173.3,3182.7,3192.3,3202.1,3208.7,3220.5,3228.8,3237.4,3239.1,3250.9,3252.5,3259.3,3269.6,3278.3,3288.6,3299.2,3309.6,3320.4,3336.6,3354.7,3371.2,3387.8,3406.7,3431.2,3450.2,3469.7,3489.5,3507.5,3524.2,3542.5,3561.7,3572.1,3580.9,3593.9,3610.7,3621.4,3634.4,3656.4,3671.7,3689.1,3706.8,3729.3,3756.6,3785.2,3810.1,3836.6,3858.2,3874.3,3899.4,3914.1,3925.8,3940.5,3954.1,3962.8,3975.1,3992.8,4003.1,4024.4,4043,4062,3659.2,4118.4,4142.5,4167.9,4183.6,4200.6,4206.2,4211.5,4219.9,4214.7,4206.2,4192.2,4187.4,4176.2,4184.7,4183.7,4190.1,4194.2,4216.2,4248,4276.4,4320.2,4372,4409.5,4441.2,4476.9,4523,4569,4620.1,4658.2,4715.1,4748.1,4756.78,4797.89,4749.86,4786.29,4819,4813.67,4821,4831.75,4899.75,4737,4737,4774,4811,4849,4887,4966,0,0,0,0,0,0,0,0,0,0,0,0,0,0,0,0,0,0,0,0,0,0,0,0,0,0,0,0,0,0,0,0,0,0,0,0,0,0,0,0,0,0,0,0,0,0,0,0,0,0,0,0,0,0,0,0,0,0,0,0,0,0,0,0,0,0,0,0,0,0,0,0,0,0,0,0,210.4,210.4,210,209.8,209.1,104.2,208.7,208.4,311.9,312.3,312.8,313.1,516.1,415.8,416.1,520.7,725.5,825.2,926.8,927,822.3,821.5,820.1,716.6,715.9,817.5,818,716.3,818.8,715.8,919.9,921.1,922.4,821.1,923.3,924,924.3,925.3,926,1035.9,928.2,1037.9,1040,1041.6,1043.6,1045.1,1045.9,1048.2,1050,1049.7,1049.5,1047.6,1046.3,1044.5,1042.1,1039.7,1036.6,1032.5,927.5,924.4,920.9,1016.5,1012.5,1009.1,903.4,795.9,793.6,895.5,893.1,890.7,982.9,978.4,973.2,773.5,771.4,959.9,955,856.8,945.8,941.5,936.5,930.4,924.2,917.2,911.7,906.4,900.9,895.5,891.7,888.1,885.6,883.7,882.3,880.5,879.2,877.9,877.2,875.9,874.3,872.9,872.5,872.7,872.9,873.1,873.8,873.9,875.3,877,879.7,882.1,884.2,885.8,887,887.2,886.6,884.6,794.6,877.5,872.9,780.2,862.4,859.3,771,769.6,852.5,850.9,848.7,847.1,844.5,841.8,839.6,836.9,833.2,829.3,824.7,819.1,812.3,806.3,801.5,796.6,791.4,785.4,780.8,777.1,774.8,696.5,771.6,770.3,691.7,767.2,689.4,688.6,535,609.5,528.5,673.8,668.4,588.7,584.4,581,576.6,571.9,567.7,281.3,69.3,205.3,341.8,611.1,675.3,671.9,669.1,666.9,665.1,663,661.5,660.2,659.5,528.2,464.1,400.5,672.6,611.2,617.1,691,693.6,695.2,695.9,695.5,693.6,690.5,687,682.7,678.6,674.3,535.8,332.7,525.2,455.4,195.6,446.8,444.8,628.2,561.7,559.2,556.4,487.4,485.1,482.7,480.1,536.1,532.6,529,525.5,463.4,459.8,512.8,338,337.7,501.5,498.4,495.4,492.8,490.2,487.8,485.2,483,481.3,479.8,477.3,475,472.2,261.2,414.1,307.6,355.9,353.3,451.8,448.8,446.2,444.1,442.2,440.2,437.9,436.1,433.9,431.6,429.2,426.7,424,421.1,418.8,416.6,414.3,412.1,409.7,407.5,360.8,403.4,356.8,399.7,397.7,396.2,394.8,393.7,392.7,391.7,390.4,389,344.4,300.1,255.2,337.4,251,290.5,288.7,328.5,367.6,366.2,365,363.9,362.8,361.3,399.2,398,396.2,394.8,393.3,391.9,390.7,389.8,388.8,388.5,387.9,387.8,387.4,348.8,38.7,0,0,0,54.4,162.5,378,485.5,537.8,536.8,536.1,535.3,534.7,480.3,318.9,212.2,105.7,52.8,52.7,52.7,52.6,0,46.7,46.5,91.2,181.4,44.8,0,312.1,445.5,444.3,443.1,442.1,441.2,440.2,439.8,438.8,438,437,436.8,435.9,435.2,434.8,434.2,433.6,432.9,432.2,431.4,429.9,428.2,383.6,424.5,422.6,420.8,419.4,417.9,416.6,415.4,414,413,412.2,411.7,410.7,410,409.5,408.8,408.4,367,407.6,406.8,406.2,405.8,202.6,121.2,80.7,0,46.5,46.5,185.4,231.6,138.7,184.7,46.1,0,0
0,0,0,0,0,0,0,0,0,0,0,0,0,0,265.4,1343.4,1608.9,2136.3,2397.2,2398.3,2399.4,2404.1,2412.1,2419.1,2427.5,2435.8,2440.6,2450.2,2459.9,2467.2,2472.1,2483.2,2490.7,2502,2510.7,2520.9,2528.5,2537.5,2546.5,2554.5,2562.3,2568.9,2578.3,2587.7,2592.9,2602.3,2897.44,2907.89,2626.8,2639.2,2647.5,2653.1,2664.7,2674.6,2686.5,2693.8,2705.7,2713.2,2722.4,2731.8,2738.1,2744.4,2749.1,2757,2761.6,2766.1,2770.4,3122.5,3127.8,3130.6,3138.2,3142.5,3147.1,3154.6,3165.5,3176.7,3182.7,3194.4,3203.9,3208.9,3220.7,3232.7,3237.6,3246.3,3249.5,3251.2,3263.1,3271.6,3282,3294.4,3306.6,3315.3,3324.2,3336.8,3357,3369.5,3390.1,3404.9,3427.6,3440.9,3466,3483.7,3503.6,3520.2,3532.4,3547.2,3561.7,3570.5,3579.1,3593.5,3606.2,3619.2,3636.5,3649.7,3669.3,3682.5,3713.8,3744.2,3777.6,3795.3,3822.2,3843.4,3862.4,3878.8,3898.2,3915.2,3928.5,3934.5,3940.6,3959.7,3979.8,3579.4,3997.9,3608.4,4035.4,3627.2,4079.7,4106.8,4132.6,4148,4164.8,4173.3,4179.3,4179.7,4179.3,4162.9,4154.8,4138.8,4127.8,4137,4124.2,4132.2,4137,4160.9,4185,4219.2,4267.8,4314.2,4356.7,4396.5,4438,4489.6,4535.9,4586.2,4630.7,4679.5,4722.8,4720.89,4741.11,4749.11,4749.25,4763.25,4786.75,4761.4,4784.8,4795.25,4862.25,4815.5,4737,4737,4774,4849,4926,4966,0,0,0,0,0,0,0,0,0,0,0,0,0,0,0,0,0,0,0,0,0,0,0,0,0,0,0,0,0,0,0,0,0,0,0,0,0,0,0,0,0,0,0,0,0,0,0,0,0,0,0,0,0,0,0,0,0,0,0,0,0,0,0,0,0,0,101.1,101.5,101.8,0,204.6,102.5,206.5,103.5,207.1,207.1,207.3,307.5,406.5,406.5,404.7,506.9,507.6,508.7,610.5,713.8,715.6,717.5,920,819.7,923,924.1,923.5,923.3,922.8,922.1,921.2,919.1,917.1,915.9,812.3,915.6,1024.7,915.3,915.5,1023.9,1023.9,1024.1,1024.2,1024.5,1024.7,1024.6,916.5,1025.7,1026.7,1028.1,1029.9,1032.3,1034.4,1036.3,1038.3,1039.6,1040.8,1040.4,1039.5,1036.5,1033.4,1029.9,1026.7,1022.7,1018.7,1015,1011,1007.1,900.4,704.6,694.7,893.2,891.4,888.8,886.7,782,780.5,779.3,777.9,775.9,869.4,866.5,864.7,957.8,953.7,855.7,944.8,941.2,937.4,932.2,926.9,920.8,914.8,909.3,904.6,899.3,894.6,890.9,887.9,885.2,883.6,882.3,880.9,880,879.2,878.4,877.3,876.2,874.7,873.8,874.1,874.3,874.8,874.9,875.5,876.6,877.8,880.2,882.8,884.9,886.5,887.7,887.8,886.7,884.3,706.5,788.5,696.1,866.4,860.5,856.8,854.2,767.4,850.1,848.1,846.1,844.6,841.9,839.7,837.3,834.7,830.6,825.9,821.2,815.1,808.6,803,798.4,794,789.5,784.8,781.6,779.4,777.8,777.2,775.9,774.8,695.7,694.7,770.4,768.6,613.6,763.2,681,676.5,672,745.5,662.7,658.5,653.5,648.5,572.1,425.3,490.9,415.7,412.7,474.1,607.9,672.2,669.3,666.7,664.4,662.2,660.3,659,657.8,657.8,659.7,530.5,601,606.4,680.7,685.8,689.6,691.3,693.2,693.3,691.9,689.3,685.3,680.9,676.2,603.3,532.4,595.6,654.8,584.2,578.3,574.4,633.7,563.1,559.8,556.8,491.9,489.6,365.8,424.8,482.9,539.8,536.4,532.6,529.1,525,462.9,459.5,398.8,394.8,449.2,501.5,498.1,495.1,492,489.4,486.6,484.1,481.9,479.7,477.5,475.3,472.6,313.5,363.3,360.2,408.4,405.8,453.5,400.2,447.6,445.3,443.1,441.1,439,436.8,434.9,432.7,430.2,427.8,425.2,422.8,420.2,417.8,415.7,367.4,365.4,408.9,361.8,404.5,357.7,400.5,398.7,396.9,395.5,394.1,393.2,392,390.9,389.5,344.8,342.8,340.6,296.2,293.2,291.2,289.5,370.8,368.8,367.2,365.9,364.6,363.3,362,400.1,398.6,357.4,395.5,394,392.6,391.3,390.3,389.6,388.9,388.3,388.2,387.8,310.1,38.7,0,0,0,161.9,270.1,377.1,537.7,536.5,535.3,534.2,532.7,531.9,423.9,263.6,158,52.7,52.7,52.6,52.6,52.5,0,0,0,0,0,0,44.9,445.9,445,444.1,442.9,442.2,441.2,440.3,439.9,439.1,438.5,437.6,437.1,436.5,436,435.6,434.8,434.4,433.6,432.9,432.1,430.3,428.5,426.3,424.4,422.3,420.5,419.2,417.6,416.6,415.3,414.1,413.1,412.5,411.7,411,410.3,409.9,409.2,408.6,408.3,407.9,407.4,325.3,162.4,0,0,46.5,232.4,464.3,464.1,463.8,370.4,416.1,416,415.4,92.1,0
0,0,0,0,0,0,0,0,0,0,0,0,0,273.7,809.2,1612.4,2143.3,2402.9,2402.9,2400.6,2402.8,2407.6,2411.1,2419.1,2427.5,2433.4,2440.6,2450.2,2459.8,2466,2473.4,2483.3,2493.2,2502,2512.2,2522.2,2531,2537.5,2549.2,2557.1,2565.1,3027.2,3040.5,3066.2,3092.3,2893,2903.67,2911.22,2920.33,2932.44,2649.1,2654.7,2666,2679,2690.7,2699.6,2709.9,2722,2731.5,2737.8,2750.4,2752.2,2757,2766.1,2772,2773.8,2776.5,2782.5,2787.2,2791.5,3144.8,3147.2,3153.6,3157.7,3165.5,3176.8,3186.6,3196.1,3202.7,3207.5,3219.4,3231.2,3238.1,3248.3,3253,3256.5,3261.7,3275.6,3291.5,3298,3314,3324.6,3331.8,3348.2,3362.5,3379.3,3390.4,3407,3426.2,3443.2,3460.5,3480.1,3502.4,3516.4,3531.2,3547.7,3562.6,3565,3575.6,3586.1,3594.4,3617.9,3629.1,3655.3,3668.7,3684.4,3707.4,3744.3,3771.9,3347.2,3813.6,3836.6,3859.7,3871.3,3892.5,3907.2,3912.1,3921.6,3936.9,3948.8,3962.7,3977.6,3990.9,4004.2,3592.8,3603.5,4059.6,4082.2,4099.8,4115.1,4124.6,4136.2,4147.4,4149.2,4142.8,4133.1,4112.2,4105,4077.8,4080.1,4073.8,4079.2,4077.4,4100.6,4126.8,4162.2,4203,4263,4298.5,4349.8,4399.3,4443.7,4502.3,4562.2,4603,4644.4,4680.2,4709.2,4697.11,4704.89,4721.33,4718,4740.62,4777.88,4752.33,4809,4838,4827.33,4665,4665,4737,4774,4849,4966,0,0,0,0,0,0,0,0,0,0,0,0,0,0,0,0,0,0,0,0,0,0,0,0,0,0,0,0,0,0,0,0,0,0,0,0,0,0,0,0,0,0,0,0,0,0,0,0,0,0,0,0,0,0,0,0,0,0,0,100.5,100.3,100.5,100.5,99.6,99.6,200.1,200.6,301.9,302.2,202.4,101.8,199.8,501.8,502.6,403,599.2,599,698.9,598.4,599,898.2,798,701.2,702.3,806.4,908,909.8,912.2,915.1,917.1,1027.7,919.8,1029.3,1028.8,1028.5,1027.3,1026.4,1025,1022.8,1020.5,1019,1018.8,1018.6,1017.8,1017.3,1016.6,1016.2,1016.6,1015.8,1016.1,1015.7,1015.4,1015.5,1016.6,1016.8,1018.8,1021.3,1023.8,1026.6,1028.1,1030.2,1031.6,1031,1029.5,1027.1,1022.2,1017.1,1012.3,1007.6,804.8,902,994.9,889,988.2,784.8,390.5,586.5,780.4,875.2,874.7,866.3,965.1,765.5,859.1,856.9,854.1,851.2,847.5,845,936.7,933.4,930.5,927.3,926.1,924,921.5,918.8,914.4,909.7,905.6,901.2,897.3,893.4,890,887.1,884.8,883.7,882.8,881.8,881.2,881,880.2,879,877.9,876.5,875.8,875.4,875.5,875.8,876,876.7,877.7,878.8,881.3,883.6,885.5,887.2,888.6,888.1,887,884.5,530.8,611.6,783.9,865.7,859,855.2,852.1,850.3,848.7,845.8,844,842.5,840.2,837.8,835.1,831.8,827.3,822.4,816.5,810.2,803.6,798.4,634.4,789.6,786.5,783.4,781.4,779.9,779.4,778.8,778.4,777.8,776.4,775.1,773.2,771,768,765.1,761.6,757.3,752.8,748.3,744.2,739.7,659.1,582.5,648.6,642.4,565.2,418.8,482.8,478.1,610.2,672.4,669.3,666.5,664.1,661.9,659.7,658.2,657.3,656.9,658.5,660.9,398.8,670,675.1,680.3,684.4,687.1,688.8,689.2,688.4,685.9,682.2,677.9,673.2,600.4,663.8,658.2,653,580.7,511.3,638.1,568.5,565.1,562.3,559.4,556.8,492.5,429,366,485.5,542.8,539.3,535.9,532.5,528.6,524.4,462.4,401.2,455.1,451.7,449.1,501.2,497.9,494.6,491.4,488.4,485.5,483.1,480.7,478.4,476.1,473.4,470.6,416.1,464.8,358.7,407.1,404.8,401.4,449.3,446.9,444.6,442.2,440.3,438,435.8,433.6,431.3,428.9,426.3,423.9,421.5,419.3,417.1,415.1,412.7,410.3,362.7,405.8,403.6,401.3,399.3,397.5,395.9,394.6,393.3,392.3,391.2,389.8,388,343.4,384.1,296,294.1,292.3,290.4,371.7,369.7,368.3,366.9,365.6,364,362.7,400.8,399,397.7,396.1,394.6,393,391.7,390.6,389.8,389.2,388.8,388.4,388.2,349.2,193.9,0,0,0,161.5,375.5,428,480.6,532.7,531,529.6,527.9,526.5,419.3,312.2,259.5,52.3,52.3,52.2,52.1,52,0,0,0,0,0,0,312.3,445.4,444.6,443.7,443.1,442.3,441.2,440.8,440.2,439.6,438.9,438.3,437.6,437,436.4,436.1,435.7,435.2,434.4,390.2,432.2,430.8,342.8,426.1,424,422,420,418.8,417.6,416.6,415.3,414.3,413.5,412.6,412.1,411.6,410.9,410.1,409.8,409.2,408.8,408.4,407.9,81.4,0,92.9,139.4,371.5,324.7,464,463.7,463.4,462.7,462.1,461.5,415.3,414.9,92
0,0,0,0,0,0,0,0,0,0,0,0,551,1356.6,1618.4,2150.4,2412.2,2409.8,2406.3,2404.1,2404,2410,2414.5,2420.3,2425,2432.2,2441.8,2449,2457.3,2465.9,2472.1,2482.1,2489.7,2503.4,2510.9,2521,2529.8,2536.2,2545.3,2558.5,2566.4,2571.7,2583.5,2591.6,2598.3,2894.67,2906.67,2624.2,2633.9,2640.7,2650.4,2657.5,2667.4,2680.6,2690.7,2702.5,2715.8,2726.6,2736,2742.3,2753.1,2758,2762.9,2771.9,2779.8,2779.5,2780.9,2785.5,2793.1,3138.2,3146.1,3148.9,3158.4,3161.2,3169.2,3177,3186.4,3194.7,3199.7,3208.2,3219.7,3228.1,3236.7,3244.9,3250.3,3257.1,3270.7,3280.7,3289.6,3311,3321.4,3328.6,3339.3,3350.1,3365.1,3377.7,3389,3402,3426.6,3440,3457.5,3482.8,3503.1,3517.6,3534,3542.7,3561.6,3569.9,3576.5,3585.1,3590.8,3603.3,3623.5,3639.7,3657.7,3678.1,3701.3,3732.8,3756.8,3325,3818.6,3832.4,3853.1,3866.8,3874.7,3891,3907.3,3911.1,3920.5,3934.2,3945.1,3962,3974.8,3980,3995.8,3580.5,4028.7,4052.1,4061.3,4085,4096.8,4105.8,4120.5,4119.6,4115.9,4110.1,4086,4070.8,4051,4049.4,4042.9,4041.4,4045.8,4068.5,4085.7,4119,4167.1,4228.9,4277.6,4322.2,4384.1,4427.8,4492.4,4546.2,4596.4,4648.7,4673.3,4699,4717.6,4685.78,4693.56,4721.56,4723.62,4756.38,4716,4759.5,4800.4,4825.75,4854,4630,4701,4774,4849,4926,4966,0,0,0,0,0,0,0,0,0,0,0,0,0,0,0,0,0,0,0,0,0,0,0,0,0,0,0,0,0,0,0,0,0,0,0,0,0,0,0,0,0,0,0,0,0,0,0,0,210.8,209.4,207.9,101.3,204,203.1,404.2,605.3,604,703.1,804.8,802.7,699.4,800.2,798.8,598.8,497.9,696.9,498.5,497.9,396.5,395.7,491.7,493.2,692.7,688.5,891.3,891.4,787,990.9,992.1,791.4,996.7,999.6,899,901.5,802.6,905.8,1015.9,1018.5,1020.4,1021.1,1023.3,916.1,1023.1,1022.7,1021.9,1021,1020,1017.8,1016,1014.4,1013.2,1012.4,1011.3,1010.9,1009.5,1008.4,1008.3,1007.8,1007.4,1007.6,1007.9,1008.1,1008.6,1010.1,1012.2,1014.6,1017.3,1019.8,1021.2,1022.4,1023.3,1021.2,1017.8,1012.9,909.2,610.8,508.9,892.5,886.2,686.1,779.9,778.1,771.3,860.7,762.4,853.7,850.2,849.1,849.2,746.6,941.1,837.8,931.7,831.7,830.4,828.5,921,918,916.5,914.3,912.3,910.8,909.9,909.9,909.7,908.2,906.2,903,900.4,897.8,895.1,892.1,889.5,886.5,884.8,883.9,883.5,883.2,882.7,882.5,882.2,881.2,880.2,878.8,878.3,877.9,878,877.6,878,878.3,878.7,880.3,882.2,884.4,886.4,888.3,889.1,888.9,888.1,885.9,618.6,700.8,784.9,867.6,860.5,856.8,853.3,851.4,849.3,847.3,845,842,838.5,835.5,831.1,826,820.6,731.2,725.9,720.6,715.3,790.6,786.2,783.8,781.7,779.8,777.8,776.3,775.3,774.5,773.6,772.4,770.8,768.8,766.3,764.4,761.7,759.2,756.7,753.5,750.2,747.5,744.7,741.8,738.7,662.6,581.1,646.6,569.2,211.2,415.1,548.7,609.3,673.4,669.9,667,664.1,661.8,659.8,658.2,657.6,657.2,657.6,659.8,662.6,600.1,671.4,675.7,679.2,681.5,683.3,683.9,683.1,681.1,677.6,673.9,669.6,665.3,660.8,656.1,650.8,580,576,572.7,570,566.8,564,561.8,559.1,556.6,554,551.5,548.4,545.5,542,478.7,535.3,531.5,527.6,465.4,519.8,515.8,512.1,508.4,504.3,389.7,497.5,493.9,490.7,487.7,484.9,482.4,479.7,477.4,474.9,472.2,469.5,466.6,411.6,408.8,406.5,403.4,451.3,448.6,446.3,443.8,441.4,439.2,436.7,434.4,431.9,429.6,427.2,377.4,422.7,420.3,418.3,416.4,414.1,365.9,317.9,361.6,359.8,402.2,400,398,396.4,394.9,393.7,392.3,391.3,389.9,388.4,386.7,342.1,297.4,253.8,335.4,291.4,373.1,371.1,369.4,367.9,366.2,364.9,402.7,401.1,399.7,398,356.8,395.1,393.5,392.3,391.4,390.5,389.6,389.3,388.7,388.5,349.6,194,77.5,0,0,0,105.9,264.7,422.6,421.6,420.2,523.8,521.4,519.5,465.5,307.8,205.1,102.6,51.7,51.5,51.3,51.2,0,0,0,0,0,0,401.4,445.1,444.6,443.8,443.3,442.7,441.7,441.2,440.5,440,439.4,438.8,438,437.6,437,436.6,436.1,435.7,435.2,434.1,432.6,387.6,342.7,383.3,381,421.5,419.6,418.6,417.5,416.6,415.5,414.6,413.7,413,412.7,412.1,411.7,410.9,410.2,409.9,368,409.4,122.5,0,92.9,324.7,324.8,463.8,463.7,463.4,463.2,462.8,462.3,461.8,415.1,460.8,460.5,414.1
0,0,0,0,0,0,0,0,0,0,0,0,554.7,1086.5,2431.1,2424,2418.1,2419.2,2411,2407.5,2407.5,2409.8,2413.4,2418.1,2427.4,2429.8,2439.4,2445.3,2453.7,2461.1,2467.1,2478.3,2490.9,2500.8,2509.5,2519.7,2528.5,2533.8,2546.8,2555.8,2565.1,2575.6,2583.6,2591.6,2598.2,2607.8,2618.8,2624.4,2634,2642.1,2650.7,2660.5,2669,2682.1,2695.1,2705.5,2715.9,2726.5,2740.3,2746.7,2756.2,2760.8,2770,2773.3,2784.1,2784,2788.5,2789.9,2797.7,3142.6,3148.8,3155.4,3158.5,3166.1,3172.5,3179.1,3186.8,3196.8,3201.8,3205.2,3213.3,3226.6,3235,3243.8,3250.7,3254.1,3272.6,3286.5,3298.9,3314.8,3327.2,3334.6,3341.5,3350.6,3367.2,3380.1,3391.4,3406.2,3423.3,3442.6,3458.1,3478,3503.9,3520.7,3535.6,3550.1,3556.1,3564.6,3579.5,3580.9,3585.2,3595.3,3609.4,3629.6,3644.3,3664.8,3683.5,3716.4,3745.2,3772.4,3804.9,3824.7,3840.7,3854.1,3866.5,3881,3892.3,3898.8,3907,3917.5,3934.9,3939.3,3953.6,3963.6,3982.3,3989.9,4007.1,4021.7,4035.6,4054.4,4069.1,4088.2,4094.9,4103.5,4102.5,4091,4068.5,4042.8,4021.8,4027.9,4010.3,4006.4,4010.9,4019.1,4046.8,4081.9,4131.8,4191.6,4245.7,4298.4,4349.5,4418.5,4473,4538.9,4586.5,4642.7,4666.6,4689.5,4696.6,4689.2,4674.11,4698.56,4679.62,4724.38,4720.86,4728.5,4791.33,4759.5,4845.25,4798,4665,4737,4811,4887,4966,0,0,0,0,0,0,0,0,0,0,0,0,0,0,0,0,0,0,0,0,0,0,0,0,0,0,0,0,0,0,0,0,0,0,0,0,0,0,0,0,0,0,0,0,0,210.4,317.5,316.2,414.9,610.2,709.3,811.3,911,908.5,906.3,904.2,903,901.3,900,999.7,997.7,895.5,894.3,894,992.1,891.9,791.6,790.7,890,788.7,788.2,887.5,883,684.6,885.3,982.3,885.8,883.6,885.1,887.1,990.5,993.6,894.1,896.9,899.4,902.3,1010.1,1012.1,1014.1,1015.8,1017.2,1017.4,1017,1017.6,1017.1,1016.1,1014.8,1012.7,1011.2,1008.9,1007.8,1006.6,1005,1004.5,1003.5,1002.1,1001.3,1001.1,1001.6,1001.8,1002.1,1002.8,1003.8,1004.2,1005.4,1007.2,1009,1010.2,1010.4,1010.9,1007.7,1003.7,808.4,804.9,596.9,293.3,384.1,675,764.6,853.4,942.6,937.7,933,929.5,925,920.8,917.5,816.2,817.5,819.2,816.1,815.4,813.7,906.2,905,810.8,810.7,809.8,900.3,898.9,897.7,896.7,896.5,897.3,898.2,899.3,898.4,897,895.5,894.1,892.9,890.8,888.9,886.1,884.3,883.8,883.2,883.3,883.2,882.8,882.4,881.9,881,880.3,879.5,879.4,879.1,879.1,878.7,879,880.1,881.1,882.5,884.4,886.4,888,889,889,888.5,888,444.9,613.1,698.7,871.8,864.9,860.4,683.7,854.8,851.4,849.1,845.5,841,836.1,831.1,824.8,817.8,726,720.8,397.8,394.6,627,780.9,778,776.3,775,773.5,771.3,769.6,768.4,767,765.9,764.7,762.6,760.2,758.6,756.9,754.5,752.5,750.6,748.3,746,744.3,742.5,739.9,737,733,727.1,575.3,499.4,491.2,416.6,546.8,542.3,673.4,670.1,667,664.6,662,660,658.3,657.4,657,657.7,658.7,660.8,664.2,534.2,671.3,674,675.9,677.1,677.7,677.5,675.6,672.6,669.6,599.5,662,590.5,653.4,583.2,579.5,576.3,573.4,571,568,565.5,563.7,561.2,558.7,556,553.5,551,547.9,544.6,481.4,537.8,534.1,530.4,526.5,464.4,519,515,511.6,507.8,504.2,444.9,497,493.2,489.9,486.9,483.9,481.5,478.9,476.3,473.8,471.4,468.5,413.5,410.9,408.6,405.8,402.9,450.8,448.1,395.9,443.1,440.5,438,435.3,433,430.3,428,425.8,423.6,421.5,419.4,417.4,415.3,413,410.4,407.9,360.8,403.2,400.9,354.2,396.9,395.2,394,392.9,391.6,390.3,388.8,387.2,342.6,383.3,338.5,336.4,334.5,374.3,372.2,370.4,368.7,367.2,365.4,403.3,401.5,400,398.3,357.3,395.8,394,392.8,391.6,390.7,390.2,389.6,389.5,389,388.7,349.6,116.3,38.7,0,0,0,0,51.9,155.9,52.1,103.9,411.4,409.9,254.6,252.8,151.7,51.1,50.9,50.6,50.4,0,0,0,0,0,0,179.5,401.3,445.4,444.8,444.2,443.6,442.9,442.3,441.5,440.8,440.3,439.8,438.9,438.6,437.9,437.2,436.9,436.4,436,435.3,434,389,387.2,299.5,255.3,423.1,378.9,419.3,418.4,417.4,416.7,415.7,414.9,414.4,413.8,413.3,412.7,412.3,412,369.5,369,410.6,327.3,0,46.4,462.8,462.9,462.9,463,463,462.9,462.9,462.3,462,461.1,460.9,460.8,460.1,459.8
0,0,0,0,0,0,0,0,0,0,0,0,276.1,1363.9,1901.7,1895.6,2429.9,2428.6,2418.1,2412.2,2412.1,2411,2415.7,2418,2422.7,2429.8,2434.6,2440.5,2451.4,2458.6,2463.5,2475.9,2484.5,2499.6,2505.8,2515.9,2526,2532.5,2544.1,2557.2,2565,2576.9,2585,2594.3,2602.5,2613.3,2624.3,2631.3,2636.9,2645.2,2652.2,2662,2670.6,2682.2,2692.2,2698.1,2714.5,2726.5,2738.7,2747.9,2755.8,2762,2766.7,2771.3,2777.5,2785.1,2788.1,2789.7,2794.2,3141.2,3152.5,3155.6,3156.8,3164.7,3166.3,3172.3,3182.2,3191.9,3195.5,3204.1,3210.1,3221.9,3228.8,3235.7,3249.2,3252.7,3273.3,3288.9,3295.5,3315.1,3331.3,3338.7,3349.3,3360.2,3375.2,3382.4,3395.4,3409.1,3430,3445.4,3465,3484.9,3501.1,3519.8,3534.2,3547.2,3557.2,3559.1,3566.1,3567.4,3573.5,3580.9,3594.9,3606.4,3625.2,3639.6,3229.5,3694,3726.2,3762,3653.56,3675,3694.89,3839.6,3855.2,3867.4,3878.9,3882.6,3888.3,3907.3,3914.3,3920.7,3935.3,3943,3953.2,3971.5,3980.4,3998.8,4011.4,4023.7,4044.4,4061.6,4075.5,4079,4080.2,4059.6,4049.8,4022.6,3997.5,3980.9,3974.9,3965.8,3961.6,3975.1,3995.7,4028,4075.3,4139.3,4196.9,4251.2,4316,4371.5,4438,4483.9,4534.2,4595.2,4622.5,4630.4,4641.2,4637.5,4647.9,4184.2,4676.89,4624.86,4670.43,4669.17,4719,4704.75,4769.25,4792.33,4778,4701,4774,4849,4926,0,0,0,0,0,0,0,0,0,0,0,0,0,0,0,0,0,0,0,0,0,0,0,0,0,0,0,0,0,0,0,0,0,0,0,0,0,0,0,0,0,0,0,99.3,313.5,313.6,313.4,412.1,608.1,905.4,801.1,801.6,802.1,902.5,901.4,900.1,1004,1001.8,897.4,997.2,894.5,992.8,990.5,990.3,988.7,987.7,985.3,983.9,982.1,980,978.9,977.3,975.2,974.5,878.5,974.1,974.3,975.1,976.5,978.4,980.7,983.5,886.9,889.9,892.6,998.4,1001.5,1003.9,1006.4,904.4,1009.7,1010.6,906.6,907.2,1010.7,1010.1,1009.1,1008,1005.6,1004.1,1002.8,1001.6,1000.7,999.5,998.3,997.5,997,996.7,997.4,997.1,998.4,997.8,997.3,997.3,997.7,996.4,995.7,993.1,993.1,991.1,892,879,670,476.5,380,659.2,940.3,933.8,926.8,920.5,915.6,910.9,906.1,902.6,898.7,895.9,893.7,793.5,794,795.6,891.3,708,794.5,711.5,885.2,885.2,615.9,449.2,362.5,362,272.6,89.4,528.8,710.8,622.8,617.7,711.2,800.3,889.4,889.5,889.2,888.8,887.5,885.4,883.4,882.9,882.5,882.6,882.5,882.2,881.5,881.2,880.8,880.3,879.8,879.7,879.8,879.4,879.6,879.8,880.5,881.5,882.7,884.1,886.1,887.7,888.6,888.9,889.3,888.3,356.9,703.6,526.4,347.3,517.6,513.7,512.2,510.8,853,762.8,843.5,756.1,665.8,740.2,816.2,804.8,474.7,550,155.2,390.7,619,693.1,768.6,768.2,767.7,766.6,764.5,762.7,761.3,760.4,759.3,757.9,756,754.1,752.5,750.8,749.4,747.9,746.1,744.2,742.7,740.4,737.7,735.2,731,726.3,645.5,498.7,424.7,488,620.6,613.3,471.7,536.7,534.9,666.6,664.3,662.2,659.8,658.4,657.3,656.7,656.8,657.5,658.8,661.1,663.4,666,668.5,669.5,670.8,670.9,671.2,536.7,468.1,598.5,661.6,658.3,655,585.1,647.6,643.8,640.3,637.4,634.8,568.9,566.6,564.5,562.6,560.2,557.8,555.2,552.8,549.7,546.5,483.2,480.1,536.3,532.8,529,525.2,521.8,518,514.8,511,450.9,503.5,389.2,495.9,492.3,489,432.1,483.1,480.5,478.2,476,473.1,470.7,467.9,464.9,461.9,408.1,455.7,352.1,450.1,447.5,346,442.3,439.5,437,434.1,431.8,429.3,426.8,424.8,422.6,420.7,418.6,416.4,414.1,365.7,363.2,406.3,358.7,401.3,354.6,397.6,395.6,394.3,393.2,391.9,390.4,389.1,387.5,343,341.4,339.3,380,377.6,375.5,373.5,371.7,329,367.8,366.2,364.3,362.7,361.2,359.7,358.3,356.9,394.5,393.4,392.2,391.3,390.6,390.1,389.5,389.3,389.1,349.9,155.3,0,0,0,0,0,0,0,0,152.9,51.1,302.3,250.4,299.3,298.1,148.1,49.7,49.3,0,0,0,0,0,0,0,179.6,446.5,445.7,445.3,444.5,444,443.2,442.6,441.7,441.1,440.6,439.9,439.6,438.8,438.1,437.6,437.1,436.8,436,435,433.7,388.7,214.9,171,297.6,422.6,420.8,419.3,418.3,417.3,416.7,416.1,415.6,415,414.7,414.3,413.6,413.3,413.1,370.3,369.9,369.2,45.2,230.4,461.8,462,462.2,462.8,462.8,462.7,462.4,462.2,461.9,461.6,460.9,460.7,460.4,459.8,459.8
0,0,0,0,0,0,0,0,0,0,0,0,823.8,1093.8,1904,2440.6,2435.8,2431,2421.5,2416.9,2415.7,2416.9,2418.1,2419.3,2425.1,2425.1,2431,2439.3,2445.3,2452.6,2458.6,2469.7,2480.7,2490.7,2500.7,2512,2521,2528.7,2541.6,2556,2566.6,2575.8,2587.8,2599.9,2609.5,2617.6,2630.2,2635.8,2641.2,2648.2,2655.3,2660.8,2669.2,2680.8,2689.5,2699.6,2711.4,2720.3,2734,2743.3,2754.1,2761.8,2768,2769.5,2775.6,2781.8,2784.8,2789.2,2793.8,2798.7,2801.8,2803.2,3160.1,3160.3,3165.1,3169.5,3176.1,3182.7,3191.1,3196,3200.9,3210.9,3222.8,3232.7,3243,3253.1,3268.7,3287.5,3303.2,3323.3,3337.4,3342.7,3350.1,3362.7,3375.5,3377.4,3392.2,3405.8,3422.8,3432.8,3454.4,3478.3,3494.3,3507,3521.5,3542.9,3546.4,3550.8,3554.7,3560.6,3565.9,3567.9,3579.5,3591,3613.6,3634.9,3652.7,3691.5,3717.7,3754.2,3639.22,3653.78,3675.56,3690.11,3715,3729.78,3870.1,3871.7,3874.8,3880.2,3894.6,3908.1,3912.1,3924.2,3936.7,3947.6,3955.9,3594.3,3606.4,3619.7,3632.4,3647.8,3664.5,3670.9,2848.5,3243.7,3637.4,3617.8,3594.3,3579.7,3568.2,3556.7,3553.7,3557.4,3579.1,3603.1,3641.5,3693.2,3750.4,3402.1,3021.8,3046.3,3080.8,3116,3142.7,2730,3190,3177.4,3656.1,3648.1,4114.6,3649.4,3660.5,4105.89,4136.67,4695.12,4677,4685,4713.25,4797.25,4739.5,4815.5,1579,969.8,703.714,709.429,0,0,0,0,0,0,0,0,0,0,0,0,0,0,0,0,108.6,107.7,107.5,107.3,0,106.5,106.4,106.2,0,0,0,0,0,0,0,0,0,0,0,0,0,0,0,97.3,195.5,195.5,404,405.3,302.5,399.5,502.4,492,786.1,890.3,889.9,890.3,889.9,995.2,994.7,994.7,891.4,992.2,990.8,990,988.3,985.6,983.9,980.5,978,974.6,972.4,970.1,967.8,966.4,965.1,963.9,963.9,964.1,964.4,964.6,965.4,966.7,967.9,970.4,875.6,878.9,881.4,884.5,988.5,991.4,893.1,895.7,999.1,1000.4,1001.8,1002.8,901.4,1004,1003.8,1003.1,1002.4,1001.7,1000.3,998.9,998.3,996.8,996.7,995.1,994.3,993.7,993.5,993.4,993.8,994.1,993.3,992.3,991.6,990.1,987.4,983.1,978.9,978.6,684.1,583.6,765.2,470.3,558.3,735.4,922.1,817.4,811.1,898.5,789.3,784.9,782.5,792.1,877.9,702.4,531,445.7,356.2,355.7,437.5,351.3,599,599.3,683.1,686,867.3,686.9,686.1,774.1,686.6,774.9,690.5,785.4,872.5,788.1,790.6,791.4,533.5,533.9,710,886.1,886.6,886.6,884.9,883.1,882.9,881.9,882.2,881.9,881.4,881,880.5,880.5,880.4,880.3,880.3,880.1,880,880.3,881,881.1,881.9,883.1,884.2,886.2,887.8,888.7,888.9,889.1,889.8,357.6,265.1,263.3,266.4,264.6,256.7,349.3,607.4,593.9,673.4,585.5,747.4,740.2,648.1,481.6,320.7,0,81.5,231.8,385.5,685.4,684,759.3,758.3,757.7,756.5,755.7,754.6,753.6,752.2,751.3,671.2,669.7,746,744,741.7,739.1,736.7,734.3,731.7,729.7,728.7,727.1,724.4,644.3,717.2,711,563.7,347.7,206.5,480.9,611,674.9,671.2,668.4,665.9,663.6,661.4,659.6,657.7,656.6,655.2,655.3,655.5,656.2,657.1,658.6,660.4,661.4,596.2,597.1,597.3,530.8,596.8,661.1,659.3,657.2,654.8,652.2,649.1,645.6,642.1,639,636.5,571.1,568.9,566.5,564.6,562.6,560.7,558.3,556.2,553.6,551.1,548.1,545,541.7,478.9,534.7,531,527.3,523.8,520.6,517.4,513.5,509.8,449.8,502.4,443.4,494.8,437.1,379.7,485.1,482.6,480.1,477.8,475.4,473,470.4,467.3,464.4,461.4,458.4,455.4,402.1,399.7,446.7,394.6,441.4,438.7,387.4,433.2,430.6,428.2,426,376.8,422,420,417.9,415.4,412.8,318.8,316.5,404.5,401.8,399.8,398.1,396.2,395.1,393.8,392.4,390.9,389.8,388.1,386.5,341.9,298.1,296.3,337.3,376.6,374.7,372.9,330,328.4,367.2,365.1,363.3,361.6,360.1,358.8,357.3,356.3,393.8,392.9,391.8,391,390.3,389.9,389.6,389.3,389.1,272,0,0,0,0,0,50.7,200.8,301.1,300.1,299.2,298.1,395.1,294.3,342.3,340.4,338.2,288.7,238.8,94.6,93.5,46.4,0,0,135.5,179.8,447.1,446.2,445.5,444.9,444.2,443.4,442.8,442.1,441.4,440.6,440.3,439.8,439.1,438.4,437.7,437.1,436.6,435.9,434.4,433.1,345.4,257.5,298.9,424.4,422.5,420.8,419.3,418.6,417.6,417.1,416.5,416.3,416.1,415.8,415.7,415.3,414.8,414.7,414.6,288.6,0,274.8,460.1,460.7,461.2,461.5,461.6,461.7,461.8,461.8,461.6,461.2,460.8,460.3,460,459.8,459.5,459.1
0,0,0,0,0,0,0,0,0,0,0,0,0,546.2,1367.5,2177.7,2443,2435.7,2429.9,2421.6,2419.4,2418.2,2419.3,2422.8,2424,2425.1,2428.7,2435.7,2442.9,2446.6,2455,2463.5,2474.6,2485.8,2498.2,2504.4,2513.4,2522.3,2536.7,2549.5,2564.1,2574.7,2588.1,2601.5,2612.5,2624.8,2634.6,2638.7,2645.4,2651.1,2656.6,2663.8,2669.3,2677.9,2688.1,2699.7,2709.9,2720.4,2727.9,2744.7,2749.3,2758.5,2761.6,2769.3,2770.8,2776.8,2779.8,2782.9,2787.6,2792.2,2798.5,2796.8,3148.3,3157.8,3154.3,3162.2,3165.2,3168.6,3173.7,3176.8,3185.1,3198.2,3208.3,3218.5,3232.1,3249.2,3267.9,3283.4,3304.4,3318.4,3331,3336.2,3346.6,3351.8,3359.2,3368.6,3374,3391,3404.1,3415.7,3439.1,3456.7,3470.7,3487.8,3508.4,3521.1,3523,3532.3,3541.5,3546.7,3548,3557.8,3566.5,3582.9,3594.6,3613.3,3636,3671.2,3707.3,3737.2,3617.78,3630,3651.67,3663.67,3688.44,3703,3847.5,3847.5,3858.8,3862.3,3871.7,3496.5,3505.8,3134.7,3137,3146.6,3159.6,2765.7,3179.1,2323.7,1921,1925.9,1948.6,2338.1,1930.4,1525.8,2300.7,2286.7,2270,2267.8,2261,2258.9,1895,1122.3,753.5,765,777.1,397.3,841.8,433.7,433.7,433.7,436.7,439.9,439.9,439.9,443,446.2,443,909.2,909.1,905.6,1339.7,1346.2,1363.1,1370.1,1387.7,1405.6,514.444,522.333,530.444,0,0,0,0,0,0,0,0,0,0,0,0,0,0,0,0,0,0,0,108.4,108.6,215.9,215.7,215.3,214.8,106.7,317.9,317.3,316,209.1,208.6,0,0,0,0,0,0,0,0,0,0,0,0,194.7,194.5,194.4,390.7,288.4,288.6,477.6,777.4,672.9,673.5,674.3,875.7,875.3,875.3,876.2,875.8,980.7,980.9,878.1,878.5,878.4,977.4,975.3,972.9,970.9,967.7,964.7,961.6,958.6,957,954.8,953.4,952.3,951.6,952.1,952.7,953.5,954.3,955,956.6,958.2,960.4,867.3,870.4,873.9,976,979.8,982.8,886.4,988.7,989.5,991.5,993,993.7,995.6,895.4,997.5,997.5,997.3,998.1,997.3,996.1,994.6,994.3,993.6,992.6,991.2,990.7,990.4,990.1,990.6,990.5,989.7,987.6,986.7,985.2,684.9,581.1,486,389.8,192.9,191.9,449.8,543.1,710.3,794.8,707.8,428.9,684.7,683,594.5,592.7,592.3,759.6,758.1,672.6,603.4,770.6,851.2,850.5,669.9,669.6,669.6,671.4,671.5,672.2,761.4,761.8,761.8,762.1,762.6,762.8,763.4,859.5,860.9,863.1,781.3,784.3,609.5,443.8,880.1,882.4,884.6,885.9,884.8,882.9,882.6,882.1,882.1,881.6,881.4,881.6,881.5,881.6,881.9,881.3,881.7,881.6,881.7,881.6,881.9,882,882.7,883.3,884.3,885.6,887.4,888.3,888.7,889.2,889.9,448.8,177.7,359.6,359.5,358,358.2,530.9,527.3,348.4,429.7,333,171.6,84.7,84.2,84,158.9,231.4,378.1,600.3,755,528.7,751.9,676.4,676.4,676.5,749.3,748,746.8,744.7,743.2,742,740.8,660.3,657.9,732.8,730.3,726.7,724.1,721.8,718.3,716.6,638.7,638,636.5,634.7,631.5,701.8,484.9,275.9,205.2,542.8,673.7,671,668,665.9,663.9,661.8,659.9,658,656.9,655.5,654.4,653.6,653.2,653.1,653.1,654,654.2,654.5,654.4,654.7,655.1,655.3,654.9,654.1,652.9,651.7,650.2,648.8,646,578.5,640.4,637.4,572.3,570.2,568,566,564,562.1,560.1,558,555.9,553.6,551.6,548.8,546,542.9,480,536.2,532.5,469.8,525.3,522.1,518.9,515.3,511.8,508,504.3,500.5,496.8,493.3,490,487.3,484.6,482.1,479.7,477.3,475.2,472.6,417.6,467.2,464.1,460.9,458.1,404.1,401.7,449.1,347.4,443.3,391.8,437.8,435.1,384,430,427.7,425.7,376.2,374.2,372.4,370.4,367.7,364.7,362.3,359.9,402.7,400.5,398.6,396.9,395.6,394.5,393.2,392,390.3,389,387.2,342.9,298.8,339.9,379.8,377.8,375.6,373.8,289.4,329.3,326.7,365.8,323.1,362.1,360.5,359.2,318.2,356.6,394.5,393.2,392.3,391.3,390.7,390.3,389.8,389.4,389.2,389,38.8,0,0,0,49.7,198.1,248.2,246.9,394.2,442.7,392,390.6,387.8,434.4,432.1,333.9,285.3,189.1,140.3,232.5,138.6,0,0,225.6,359.4,447.6,447,446.1,445.3,444.8,444,443.3,442.6,441.8,441,440.4,440.1,439.3,438.5,437.9,437.1,436.4,435.5,390.4,389.1,430.7,428.5,383.5,424.2,422.5,420.8,419.7,418.8,418,417.5,417.1,417.1,416.9,416.8,417.3,417,417,418,42.9,0,318.7,457.5,458.9,459.7,460.3,460.5,460.7,460.7,461.1,460.8,460.7,460.4,460.1,459.5,459.4,459,458.9,458.3
0,0,0,0,0,0,0,0,0,0,0,0,0,1918.7,2181.5,2449.1,2446.6,2439.5,2433.6,2424.1,2421.8,2422.9,2419.3,2424.1,2422.9,2426.4,2428.6,2434.6,2438.1,2445.3,2448.9,2458.6,2467.1,2477.1,2485.8,2497,2507.1,2516.1,2531.7,2545.8,2560.3,2573.6,2589.7,2600.5,2612.6,2626.3,2634.6,2638.7,2646.9,2649.7,2655.3,2662.3,2666.5,2676.4,2685.2,2698.2,2705.6,2714.4,2726.5,2735.6,2744.7,2749.2,2755.3,2764.5,2766,2770.5,2776.8,2776.7,2778.2,2784.4,2786,2789.1,2793.8,3147.2,3146.9,3143.5,3146.5,3152.8,3153.1,3161.3,3166.3,3181.3,3196.4,3213.1,3225,3243.8,3257.2,3276,3289.8,3310.6,3324.6,3331.2,3336.4,3341.5,3346.9,3352.2,3354.3,3367.2,3385.8,3395.4,3414.7,3434.4,3458.3,3476.7,3495.7,3512.3,3517.7,3521.4,3533.7,3536.8,3540.1,3543.4,3552.4,3568.7,3585.2,3600.1,3620.6,3649.7,3687.9,3574.89,3593.78,3610.33,3625.11,3644.33,3666.11,3278.11,3454,3465.1,3465.3,3106.5,2742.7,2355.8,1974.8,1974.8,1536.2,1148.7,751.2,753.6,756,0,0,0,0,0,0,0,0,0,0,0,0,0,0,0,0,0,0,0,0,0,0,0,0,0,0,0,0,0,0,0,0,0,446.2,443,470.1,923.6,934.9,496.6,0,0,0,0,0,0,0,0,0,0,0,0,0,0,0,0,0,0,0,0,0,108.2,108.2,215.7,215.3,215.1,537.3,530,528.9,630.3,628.7,627.2,519.4,517.7,311.9,206.9,204.2,101.6,101.1,100.5,99.8,99.3,98.8,98.4,194.6,291.5,193.4,292.2,386,478.9,470.9,565.1,661.2,663.7,566.4,667.7,861.2,861.2,860.8,861.4,862.6,967.3,862.8,863.5,965,864.8,962.9,962.1,960.5,958,955.7,953.5,950.6,948.2,946,944.2,943.1,941.9,941.8,941.6,941.8,943.1,944.3,945.1,946.3,947.8,949.8,953,955.7,863.5,867.3,870.3,970.5,973.8,977.4,978.8,979.4,981.6,982.7,887.1,985.6,988,989.9,991.5,992.7,994.2,994,992.3,992.6,992.2,990.6,989.7,988.8,988.3,988,987.6,987.8,987.1,881.1,686.9,684.7,577.7,287.2,0,174.6,349.1,517.2,512.2,682.9,513,697.4,679,675.8,755,753.8,752.3,250.3,583.9,663.6,664.5,745.1,662.4,659.4,742,740.8,740.7,740.8,741.4,742.8,658.9,658.7,659.5,660.1,663.9,664.1,664.4,750.5,663.9,664.9,848.2,849.8,852,772.8,776.9,604.8,350,875.6,879.3,882.3,884.8,884,882.8,881.9,882,881.8,881.9,881.5,882.1,881.8,882.3,882.5,883,883,882.7,882.4,882.6,882.6,882.5,882.8,883.5,884,885.6,886.8,887.8,888.2,889.2,890.8,448.7,177.8,270.1,363.2,452.6,629.1,710.4,525.8,258.3,172.4,85.5,85.1,84.7,84.4,84.1,156.8,378.3,677.2,667.7,746.8,670.4,595.6,595.2,669.3,596.9,594.6,668.5,742.5,740.7,738.7,737.9,735.5,655.8,652.4,726,722.6,718.8,715,711.6,708.3,705.8,558.2,557.8,486.3,276.8,273.8,339.4,268.9,540.1,671.6,600.1,665,663.3,662.5,661.1,660.1,659.1,657.7,656.2,655.3,654.3,653.4,652.6,651.1,650.3,649.6,649.3,649,648,452.8,646.1,646.2,646.5,647,646.5,580.9,580.4,645.5,644.4,578.3,576.6,638.2,635.8,570.7,568.5,566.3,564.2,562.2,560.3,558.7,556.6,554.4,552.7,550.7,548.4,545.8,543.1,540.3,537,533.3,529.9,526.4,523.2,519.8,516.3,512.7,509,505.6,502.3,498.6,495.2,491.9,489.2,486.6,484,481.6,479.6,477.3,475,472.3,417.2,466.7,463.5,460.5,457.4,454.4,451.4,448.4,445.6,393.9,439.8,437.4,434.6,383.9,429.6,427.4,424.9,375.9,327,371.6,368.9,274.5,363.6,360.9,403.3,401.2,399.5,397.7,396.2,395.1,394,392.4,391,389.4,387.7,343.4,341.7,297.2,338.1,379,376.6,333.3,290.6,371,327.5,407.1,364.3,322.3,361.1,359.5,358.3,357.2,394.7,393.8,392.9,391.8,390.8,390.5,390.1,389.9,350.3,272.4,116.6,0,0,0,0,49.2,146.7,389.8,388.5,483.6,434.4,384.6,287.7,381.8,333.1,378,376.2,374.6,372.4,277.8,322.3,45.8,0,450.8,449.4,448.2,447.1,446.5,445.7,445,444,443.3,442.6,441.7,440.9,440.4,440.1,439.2,438.4,437.7,436.9,436,434.8,389.9,388.5,429.7,427.7,425.7,423.7,422.4,420.9,419.7,418.9,418.7,418,417.9,417.7,417.7,418,418.5,419.6,294.5,42.6,42.9,405.4,452.8,411.3,457.4,458.5,459,459.7,459.8,460.1,460.2,459.9,459.9,459.7,459.2,458.8,458.7,458.4,457.9,136.7
0,0,0,0,0,0,0,0,0,0,0,0,0,1097.6,2457.6,2452.7,2449.1,2443.2,2436,2428.8,2426.5,2426.6,2427.8,2426.5,2426.5,2428.8,2429.9,2434.6,2439.3,2440.5,2444.1,2451.4,2462.4,2469.7,2479.5,2488.3,2500.9,2508.7,2522.8,2539.3,2556.4,2572.2,2583,2598,2609.9,2622.2,2633.3,2638.7,2644,2648.2,2650.9,2659.5,2665.1,2672.1,2682.2,2692.5,2695.3,2707,2716,2727.9,2734,2743.1,2747.6,2758.2,2759.8,2764.4,2768.9,2770.5,2773.6,2776.7,2779.8,2776.7,2778.3,2780.1,3131.6,3130,3131.2,3134.2,3134.3,3141.1,3150.7,3162.1,3177.2,3190.2,3205.1,3223.5,3247,3262.4,3274.4,3297,3310.7,3317.1,3324.2,3329,3336.2,3341.1,3350.7,3358.1,3375.3,3386.9,3405.7,3425.7,3452.3,3472.6,3497.5,3511.9,3523,3522.9,3532.5,3534.5,3532.7,3542.7,3552,3143.5,3151.5,2803.4,2811.5,2819.6,2836.2,2484.3,2145.1,1800.1,2177.8,2188.4,1835.1,1848.1,1861.4,1512.9,1519.8,737.6,739.9,366.6,366.6,366.6,0,0,0,0,0,0,0,0,0,0,0,0,0,0,0,0,0,0,0,0,0,0,0,0,0,0,0,0,0,0,0,0,0,0,0,0,0,449.5,449.5,449.5,916,923.6,934.9,496.6,0,0,0,0,0,0,0,0,0,0,0,0,0,0,0,0,0,0,0,0,0,108.2,108.2,215.3,426.8,634.4,632.5,835.9,930.3,925.1,818,915.3,710.3,707.1,509.5,302.9,397,298.3,99.2,99,98.7,98.4,98.1,193.8,193.2,385.3,478.6,384.8,569.9,565,564.3,654.7,843.7,751.1,566.5,751,658.1,843.1,843.5,657.8,751.7,950.3,949.8,847.8,848.3,948.5,849.1,947.1,945.5,943.4,941.9,939.5,937.5,935.7,748.5,837.1,931.8,932.1,931.8,931.4,932.8,934.1,935.6,936.9,938.7,940.8,942.8,945.6,948.7,950.3,856.9,858.9,862.2,960,961.4,961.7,767.6,865.8,774.8,872.2,780.7,976.3,787.2,595.5,693.4,990.4,790.4,792,891.3,990,890.3,495.9,592.8,101,101.3,102,586.4,486.9,97,76.5,79,337.4,598,518.2,584.7,582.8,668.6,666.5,843.3,844,764.6,763.7,663.4,657.8,740,572.6,489.2,733.3,730.8,728.5,728.1,727.2,725.9,724.6,723.5,724.1,723.1,724.8,725.5,726.1,644.6,645.1,563.6,652.3,652.8,653.4,657.9,658.2,741.9,743.9,746.9,844.3,850.2,678.7,683,344.6,784.9,877.5,881,884.5,884.5,883,881.9,882,881.8,882.1,882.1,882.2,881.9,882.4,882.9,883.4,883,883,883.3,883.1,882.4,882.9,882.4,882.8,883.1,884.4,885.9,886.6,887.7,888.1,890.5,537,268.8,89.1,179.1,266,182.7,183.2,182.8,182.3,85.9,85.4,85.1,310.3,158.1,379.8,452.8,450.7,448.6,514.8,665.9,739.6,739.7,664.4,441.2,293.9,151,148.1,515.6,586.3,657.8,656.8,654.6,651.3,647.7,567.9,564.9,568.2,426.4,493.9,490.6,419.5,272.8,272.3,269.9,335.5,535.1,599.6,596.5,662.8,659.8,657.2,655.2,654.1,654,654.2,654.1,653.9,653.3,652.8,652.7,652.2,652.1,651.1,649.7,648.1,645.8,644.8,643.1,641.1,575.5,573.8,637.4,637.4,638.2,574.3,574.6,575.2,575.8,575.9,575.2,574.2,572.4,570.3,568.6,566.5,564.3,562.2,560.1,558,556.4,554.4,552.7,550.9,549.1,547.3,545.3,542.8,540.3,537.3,533.8,530.4,527,523.6,520,516.5,513.1,509.5,506.2,503.1,499.8,496.5,493.4,490.5,488.2,486,483.5,481.4,479.2,477.1,474.5,472,416.9,466.1,463,459.9,457.1,453.7,450.4,447.9,445,442.5,390.7,437.1,386.2,432.1,429.5,427.3,424.8,422.1,372.6,323.8,274.8,318.6,271.4,404.2,401.9,400.3,398.7,397.3,395.9,394.7,393.5,391.9,390.2,388.6,386.9,342.1,340.3,338.6,379.6,377.5,334.4,291.2,330.4,328.5,367.6,324.5,322.6,362,360.2,358.7,396.4,395.4,394.3,393,392.1,391.2,390.8,390.1,389.9,389.3,389.2,77.7,38.8,0,0,0,0,97.5,290.9,289.8,336.6,430.3,380.5,474,378.3,376.6,375.3,374,372.7,370.7,323,321.2,182.5,181.2,226,449.3,448.2,447.1,446.2,445.6,444.7,443.9,443,442.4,441.7,440.8,440.4,439.6,438.9,438.1,437.2,436.4,435.3,433.9,432.3,430.7,428.9,427,425.4,423.8,422.3,421.3,420.1,419.7,418.9,418.8,418.6,418.6,418.8,418.9,419.8,421.3,296.9,128.5,437.7,445,449.5,452.3,454.3,455.8,456.8,457.7,458.3,458.9,459,459.3,458.6,458.4,458.2,457.7,457.5,457.3,227.7,44.6
0,0,0,0,0,0,0,0,0,0,0,0,0,274.9,1096.3,2182.6,2448,2445.6,2437.2,2432.5,2427.8,2430.1,2430.2,2428.9,2432.5,2430.1,2433.5,2434.6,2437,2440.5,2445.3,2451.4,2457.5,2465.9,2473.4,2484.4,2490.8,2502.1,2517.4,2531.6,2547.3,2561.7,2574.9,2592.5,2607.3,2620.7,2628.9,2638.4,2638.3,2643.9,2648.1,2653.6,2658,2666.4,2670.7,2682.1,2691,2699.8,2708.7,2719,2727.9,2735.3,2738.5,2743,2747.5,2750.6,2755.3,2761.3,2762.8,2763,2762.9,2766,2766.2,2763.3,2761.9,2761.9,3111.5,3114.5,3117.4,3114.4,3126,3137.1,3153.3,3169.5,3186.3,3202.7,3227.6,3251.6,3268.2,3281.9,3298.7,3305,3315.5,3316.6,3325.6,3330.5,3334.6,3347.4,3360.8,3374.3,3393.5,3422.5,3442.9,3466,3490.5,2739.9,3163.4,3170.8,3176.5,2418.1,2771.8,2429.7,2429.7,1733.7,1739.7,1741.7,695.9,697.8,697.8,701.8,701.8,0,0,0,0,0,0,0,0,0,0,0,0,0,0,0,0,0,0,0,0,0,0,0,0,0,0,0,0,0,0,0,0,0,0,0,0,0,0,0,0,0,0,0,0,0,0,0,0,0,0,0,456.2,456.2,0,459.6,0,0,0,0,0,0,0,0,0,0,0,0,0,0,0,0,0,0,0,0,0,108.6,108.4,107.7,107.3,524.8,623.1,719.6,716.1,817.1,907.6,902.6,898,795.5,694.7,787.9,688.9,589,585.3,387.5,385.7,384,288.9,191.2,191.4,191.1,285.7,378.7,562.1,651.9,651.1,740.2,648.4,740.1,829.5,644.5,643.9,736.7,736.6,827.4,827.2,828.2,829.9,645.3,831.6,933.9,840.1,840.6,840,746.2,746.4,837.2,835.3,649.6,371.8,831.8,827.1,922,826.7,922.1,922.7,923.1,924.3,926.5,928.4,930.2,931.6,933.1,934.6,841,938.2,938.3,845.9,561.6,566.6,380.6,378,470.1,378.7,375.1,563.8,372.3,571.7,290.9,294.5,393.6,199.9,294.5,99.2,0,201,0,100.8,100.1,0,0,0,0,154.2,319.7,230.9,412.4,402.9,409.6,406.7,574.6,490.1,414.4,569.3,489.7,491.9,566.2,643.8,481.4,560.9,641.9,559.2,642.1,718.6,717.6,716.1,714.5,713,712.4,711.8,710,709.3,708.9,709.1,710,711.4,712.3,634.2,635.9,639.2,647.3,648.2,649.8,655.8,738.8,740.9,838,840.1,843.5,848.9,855.8,594.3,428.8,702.5,876,794.6,884,884.3,882.5,881.8,881.6,882.2,881.9,882,882.4,882.1,882.3,883.3,883.4,883.5,883.1,882.9,882.9,882.9,882.5,881.6,882.1,881.7,883,884.6,885.8,886,886.9,889.5,535.9,449.1,89,271.7,180.6,181.4,183.5,86.6,86.4,85.9,85.5,85.2,84.8,84.2,376.2,374.2,372.8,290.2,370.5,369.5,513.9,586.7,438.3,292,291,219.3,147.4,577,432.8,506.2,145.9,147.2,145.9,216.3,140,279,553.6,619.1,546.2,475.6,608.3,604.2,600.7,530.4,527.6,587.4,519.6,517.5,582.4,581.1,647.1,582.1,645.6,645.9,646.9,647,647.4,647.2,647.6,647.9,648.4,648.5,648,647,644.9,642.5,640.8,638.2,635.7,633.7,631.7,630.5,630.2,630.8,631.9,569.9,570.5,571.8,572.3,572.4,571.3,569.6,567.9,566.3,564,561.9,559.7,557.7,555.7,553.7,551.9,550.4,548.9,547.4,545.8,544.1,542.1,539.9,537.4,534.2,531,468.8,465.9,520.2,516.5,513.1,509.5,506.4,503.4,500.4,497.5,494.8,492.1,489.9,487.7,485.4,483.1,481.1,478.9,476.6,421.6,471.2,363.8,413.3,461.9,458.9,456,452.8,450.1,447.6,445,442.4,439.9,437.5,386.6,432.5,429.6,427,424.2,374.4,370.8,321.8,410.4,362,360.2,403.1,401.4,399.9,398.6,397.1,395.9,394.7,393.1,391.3,389.7,387.8,385.8,340.9,339.2,380.1,378.4,376.5,374.7,331.3,329.4,327.7,325.4,405.1,362.8,400.5,398.6,397.3,396,394.4,393.4,392.4,391.5,391,390.3,390,389.6,389.3,77.7,38.8,38.8,0,0,0,0,48.2,240.6,287.4,333.6,473.1,470.9,468.7,466.8,465.3,463.4,461.6,368.4,412.9,410.8,363.3,226.2,45.2,269.5,447.7,446.7,446,445,444.2,443.3,442.5,441.8,441.1,440.5,440,439.2,438.6,437.6,436.7,436,434.7,432.8,431.6,429.9,428.3,426.4,425.1,423.8,422.4,421.5,420.5,419.7,419.5,419.4,419,419.5,419.8,419.8,421.3,423,298.5,343.7,303.9,307.8,444.4,404.1,450,451.7,453.2,454.2,455.3,456.4,457.2,457.9,457.8,457.7,365.5,181.4,319,181.4,44,44
0,0,0,0,0,0,0,0,0,0,0,0,0,0,0,2179.1,2448.1,2446.9,2439.7,2436.2,2431.4,2435,2434.9,2433.6,2432.5,2435.9,2437,2439.4,2440.5,2444.1,2445.4,2449.1,2456.3,2463.6,2468.4,2478.2,2485.7,2495.8,2507.3,2523.8,2538.1,2552.5,2568.1,2580.2,2597.5,2613.7,2624.5,2631.2,2632.5,2639.4,2642.1,2642.2,2650.8,2656.5,2666.4,2673.7,2678,2686.7,2696.9,2705.6,2714.5,2719.1,2725.2,2728.1,2734.2,2738.6,2741.6,2747.9,2751,2750.9,2750.9,2750.9,2747.9,2748,2749.6,2749.6,3096.1,3096.1,3104.1,3099.2,2760.9,3118.7,3133.4,3149.4,3165.8,3190.8,3212.3,3230.6,3247.4,3265.8,3273.7,3290.5,3298.5,3299.9,2955.2,3307.9,3315.1,3326.2,2996.8,3011.9,3032.6,2668.1,2686.1,2700.7,2722.9,2032.1,2039.6,1708.7,1712.4,1718.3,1378.1,1381.9,344,0,0,0,0,0,0,0,0,0,0,0,0,0,0,0,0,0,0,0,0,0,0,0,0,0,0,0,0,0,104.2,104.4,104.4,209.5,105.4,0,0,0,106.2,0,106.5,106.7,106.9,106.9,0,0,0,0,0,0,0,0,0,0,0,0,0,0,459.6,446.2,912.5,922.6,929.5,936.6,481.1,484.9,492.6,0,0,0,0,0,0,0,0,0,0,0,0,0,0,0,0,0,0,0,105.3,208.6,314.9,512.4,508.8,797.3,698.5,600.9,790,886.4,882.5,782.9,683.1,775.1,582.3,480.9,478.3,380.1,377.5,467.3,556.8,463.6,464.7,373.7,644.5,554.6,553.6,552.5,551.8,728.2,819.6,729.1,725.8,725,723.8,723.3,722.9,722.2,812.7,813.8,814.8,815.2,816.3,817.2,917.3,818.8,824.9,824.6,823.7,822.8,822.2,731,912,816.5,910.7,911.2,911.4,911.8,913.5,914,916.5,822.5,921.7,825.7,826.4,826.6,826.6,827.5,828.7,827.9,461.4,358.3,353,90.6,268.6,88.1,269.9,635.8,369,177.9,361.5,182.3,0,180.9,182.7,0,0,0,102,0,0,0,0,0,101.8,0,230,305.8,230.2,230.2,308.5,399.4,308.1,629.7,630.7,558.2,401.1,557.2,634.5,468.6,472.1,551.9,471,550,708.4,707.3,707,706.3,705.5,704.7,703.7,704.2,704.4,703.7,703.7,703.5,704,705.2,706.1,628.6,630.1,631.7,477,479,567.4,568.4,656,571.9,574.1,500.2,763.8,847.2,852.8,858.4,774.8,429.1,621.9,878,881.8,885.7,885.6,796.2,795.4,882.5,882.9,882.5,882.4,882.2,882.3,882.4,883.1,883.2,883.3,883.2,882.6,882.3,881.7,881.2,880.7,880.3,879.9,881.6,883,883.9,884.8,886.1,888.5,445.3,357.8,271.2,88.7,88.2,87.5,87.1,86.7,86.4,86,85.5,85.3,84.7,84.4,84,155.6,299.1,288.8,216.8,289,217.6,290,431.3,143,0,210.2,414.5,346,414.1,348.1,348,279.9,485.4,271.5,346.7,542.9,610.2,607.1,603.6,600.5,595.8,591.3,588.1,584.4,578.6,573.2,570.9,569.7,508.2,444.6,571.6,574.4,574.7,638.8,575.3,640.1,577.8,640.9,641.1,641.8,642.5,579.8,642.8,642.1,640.3,510.7,635.5,569.2,629.6,627.6,625.7,624.4,624.1,624.6,626,627.2,628.9,630.4,631,568.8,568,566.7,565.1,563.1,561.2,559.1,556.9,554.6,552.5,550.8,549.4,548,546.8,545.6,544.1,543.1,541.5,539.3,537.1,534.3,531,527.4,465.8,520.1,516.2,512.6,509.1,506,503.2,500.4,497.6,495.2,493.1,490.8,489,486.9,484.7,482.7,480.8,478.5,476.1,473.2,470.1,414.8,412.2,460.9,457.9,454.9,452,449.7,447.1,445.1,393.8,390.9,388.9,387,288.4,382.7,332.1,375.6,279.6,322.6,411.3,362.8,361,359.3,402.7,401.3,400,398.7,397.5,395.8,394.3,392.7,390.6,388.8,343.4,384.7,339.9,380.9,379.2,335.6,375.8,374.1,330.4,328.9,327.1,324.4,364.1,362.4,360.5,397.8,396.7,394.9,394,392.7,392,391.3,390.7,390.1,390.1,389.5,350.5,38.8,38.8,38.8,0,0,0,48,95.8,47.8,330,375.1,467.2,465.3,463.5,461.8,460.1,458.9,457,319.6,453.9,452.1,450.5,449,447.9,446.8,445.5,444.8,444.3,443.3,442.5,441.5,441,440.5,440,439.2,438.6,437.8,436.8,436.3,434.9,390,388.7,387.5,428.8,427.4,425.7,424.3,423.4,422.3,421.4,420.8,420.3,419.8,419.6,419.6,420.1,420.4,420.8,422.1,381.8,341.5,300.8,172.9,217.6,307.3,442.1,444.8,446.6,448.2,404.4,450.8,406.8,271.1,228,181.3,89.4,43.7,43.7,43.6,43.6,43.5,43.4
0,0,0,0,0,0,0,0,0,0,0,0,0,0,277.4,818.8,2175.6,2445.7,2442.1,2437.4,2436.2,2439.9,2437.3,2440.8,2440.7,2442,2441.8,2442.9,2445.3,2446.5,2446.7,2449.1,2452.7,2457.7,2463.7,2470.9,2478.2,2487,2500.8,2514.7,2527.5,2544.4,2557.5,2571.9,2589.1,2601.2,2613.4,2620.1,2624,2628.2,2633.8,2636.7,2642.3,2645.4,2652.5,2661,2668,2675.4,2682.5,2691.1,2698.4,2705.6,2713.1,2716.2,2720.9,2725.3,2732.9,2738.9,2738.9,2737.4,2743.3,2743.5,2740.4,2742,2737.7,2737.7,2740.7,3085.5,3082.6,3085.4,2745.3,2757.7,2765.6,2778,3155.2,3171.6,3198.5,3218.6,3238.9,3253.6,2894,2902.5,2568.5,2573.1,2578.1,2583,2588.2,2269.2,2279.6,2622.9,1962,1970.8,1657.4,1668.1,1342.5,1349.8,680.5,342.1,0,0,0,0,0,103.7,103.5,0,0,0,0,0,111.2,111.4,111.8,111.8,111.6,110.8,110,109.4,108.4,107.8,107.3,106.5,0,105.4,0,0,207.3,312.1,312.3,416,416.6,417.3,312.9,313.5,314.1,314.4,314.8,315.2,315.6,316,210.2,210.4,106.2,106.4,106.5,106.7,106.7,0,0,0,0,0,0,0,0,443,439.9,433.7,433.7,886.8,889.9,896.1,902.6,912.4,922.6,929.5,936.7,944.1,948.3,492.6,496.6,0,0,0,496.6,496.6,488.7,488.7,481.1,477.4,477.4,477.4,473.7,0,0,0,0,102,202.2,201.1,100.3,205.6,202.5,198.6,296.3,297.5,487.5,678.5,388.5,483.6,481,570.6,377.5,190.9,373.8,370.5,456,548.1,548.8,637.9,725.2,635.7,635.9,636,723.8,634,544.6,810.7,809.5,808.4,807.4,805.7,804.5,803.6,801.9,800.9,800.5,801.3,802.1,802.2,802.8,803.3,803.8,804.7,805.3,902,901.4,805,898.8,896.8,895.3,895,895.3,802.1,895.6,803.1,803.7,805.4,813.1,718.8,719.4,718.7,625.6,714.5,622.7,708.3,713.8,627.9,351.3,261.7,346.6,435,338.8,520.5,522.7,172.7,354.5,351.3,174,88,84.4,83.9,0,0,0,0,0,0,0,0,0,0,0,153.1,305.4,380.7,457.6,305.1,229.8,533,533.9,457.7,541.4,232.1,312.2,467.9,619.1,542.6,464.2,543,698.6,698.6,698.7,698.8,699.5,699.8,699.7,699.9,699.6,700.6,700.7,700.1,700,699.6,699.9,701.1,702.1,546.1,390.9,394.1,477.2,321.1,400.9,402.6,493.5,578,582.9,587.7,499.8,422.8,591.4,507.9,599.1,343.6,355.7,884,621.6,801,800.1,797.4,796.1,796.3,883.6,883,882.7,882.8,882.3,882.2,882.8,882.5,882.1,882,881.6,880.7,879.8,879.2,878.3,877.3,877.2,878.5,879.8,881,881.6,882.9,885.4,799.4,712.8,447.5,271.1,266.4,268.6,87.1,86.9,86.5,86,85.6,85.3,84.8,84.6,84.2,83.6,82.7,81.7,153.2,71.8,72.5,0,0,71.4,0,140.9,140.9,76,76,76.1,76.3,76.4,76.4,0,0,197,327.8,460.1,391.4,390,452.9,514.7,575.4,572.6,569.3,567.2,565.6,564.2,564.5,564.3,564.2,630.4,631,631.5,631.9,569.2,633.5,382.2,572.2,572.9,573.5,635.8,635.6,572.8,571,630.7,566.5,564,622.9,621.1,619.5,618.4,618.1,618.2,619.8,620.9,622.9,624.1,624.7,624.9,562.4,561.3,559.7,558.1,556.4,554.5,552.8,551,549.4,547.7,546.5,545.1,544.1,543.3,542.2,541.5,540,538.8,536.5,533.8,530.6,527.2,465.5,519.8,515.4,511.9,507.9,504.7,502.3,499.5,497.1,495,493.1,491.1,489.5,487.7,485.8,483.9,482,479.9,477.6,474.7,471.9,312.7,361.7,462.7,459.8,457.2,454.4,452,449.7,447.4,396,344.3,391.1,341.1,290.1,336.3,333.9,424.7,374.5,323.1,320.8,273.1,361.9,360.6,359.2,402.6,401.4,400.1,398.9,397.2,395.6,393.9,348.6,389.9,388,385.7,383.7,381.9,380,336.5,335.3,292.4,332.3,330.8,286.8,284.5,324.4,323.1,361.5,398.7,397,395.5,394.2,393,392.2,391.5,391,390.6,390.1,390,389.8,38.9,38.9,38.9,38.9,0,0,0,0,140.6,233.3,464.7,462.7,461.5,459.7,458,456.6,455.2,453.5,452.3,451.1,449.8,448.3,447.1,445.8,444.6,443.7,443.1,442.6,441.7,441,440.5,440,439.5,439,438.3,437.3,436.8,436,435,433.6,388.9,387.9,386.6,385.5,426.4,425.3,424.1,423.1,422.2,421.6,421.1,420.5,420.3,420.2,420.3,420.6,420.8,421.4,422.6,339.8,426.5,343.2,345.2,303.4,304.8,86.9,263.1,307.8,265,87.7,43.6,43.6,43.6,43.5,43.4,43.3,43.3,43.2,43.1,43.1,0,42.9
0,0,0,0,0,0,0,0,0,0,0,0,0,0,277.4,277.4,1914.9,2448.3,2444.6,2439.8,2439.8,2441,2443.3,2444.4,2444.3,2443.1,2444.3,2445.4,2447.9,2447.9,2447.9,2450.3,2450.3,2455.2,2462.4,2467.2,2474.6,2484.4,2493.3,2505.8,2519.6,2535.2,2546.8,2561,2573,2586.5,2595.6,2603.8,2611.9,2613.2,2616.1,2614.9,2623.1,2628.7,2638.6,2641.4,2652.5,2658.3,2666.9,2675.3,2685.2,2694.1,2698.3,2707.3,2711.9,2719.4,2725.4,2726.8,2728.3,2731.4,2731.3,2734.5,2733,2731.7,2731.5,2422.2,2725.5,2728.7,2731.6,2731.8,2738,2744,2443.6,2453,2468.5,2482.5,2495,2188.4,2202.8,1899.4,1581.2,1585.9,1278.1,1279.7,1281.3,1284.6,1286.3,1291.3,972.4,975.8,981,988,327.6,329.3,0,0,0,103.8,104,103.8,103.8,103.7,103.5,103.2,102.8,102.6,210.5,210.9,211.3,211.7,212.1,110.2,110.2,110,211.9,210.8,108.2,107.7,106.9,106.5,208.6,207.9,207.4,206.9,206.7,206.2,412.3,412.5,310.9,516.4,517.4,518.6,416.9,312.2,313.1,313.5,314.4,314.8,315.2,316,316.2,316.6,210.4,106.4,106.5,106.7,106.7,106.7,106.7,0,0,481.1,473.7,466.5,459.6,452.8,449.5,443,439.9,436.7,892.9,899.2,909.1,912.4,922.6,929.5,936.7,947.9,492.6,496.6,496.6,0,0,0,0,496.6,492.6,488.7,484.9,481.1,481.1,477.4,477.4,477.4,481.1,484.9,484.9,488.7,492.6,593,0,102.3,0,95.6,283.7,474.6,570.1,567.3,661.5,658.5,561.8,653.2,554.7,646.3,642.1,638.1,634.3,628.9,538.9,629.9,712.3,629.1,624.6,713.3,535.8,711,711.3,801.7,801,799.9,799,797.8,796.9,795.9,794.5,793,792.3,792.1,791.9,791.7,791.5,791.7,791.4,791.7,792.4,792,791.3,789.7,787.2,785.3,782.8,782.3,782.1,781.9,782.1,782.1,783,784.5,786.5,701.3,798,785.7,782.7,518.2,603.2,514.3,510.7,421.9,337.6,338.2,417.1,500.9,496,664.1,502.3,346.9,498,250.8,251.1,351.1,266.1,80.5,179.4,100.5,178.9,178.6,178.7,178.7,178.9,255.6,179.7,255.8,332.4,408,483.3,378.1,603.6,530.9,603.5,603.7,606.1,532.8,529.9,379.7,453.8,607.9,607.5,531,607.3,684.1,684.1,684.8,686.1,688,689.7,691.3,691.8,692.4,693.4,694.3,616.4,693.3,615.3,384.4,383.4,615.1,541.9,386,310.1,235.2,160.6,237.9,162.6,163.1,163.5,164.2,339.7,340.3,429.6,611.7,703.9,709.6,437.7,353.3,540.4,798.1,537.3,716.6,800.8,797.9,709.5,709.1,883.2,882.9,882.3,882,881.8,881.9,882.1,881.6,881.2,881.1,880.3,879.4,878.3,877.1,875.9,874.8,874.3,611.7,788.5,877.7,878.3,791,792.4,883.8,620.3,533.3,446.2,266.4,87.6,87.1,86.9,86.5,86.1,85.8,85.5,85.2,0,0,0,0,0,0,0,0,0,0,77,0,0,76.2,62.8,136.9,139.2,251.9,253.2,318.2,319.7,383.5,383.2,382.9,382.3,382,381.9,380.1,379.2,503.7,501.9,563.4,499.9,561.3,560,558.9,558.5,561.8,623.8,624.2,623.9,624.5,625,563,563.3,377,439.7,627.5,564.8,627.7,626.8,563.8,498.9,620.7,618.7,616.5,614.9,613.7,612.9,612.7,613.3,614.1,615.4,616.9,617.8,617.9,617.9,617.3,616.3,615.4,552,551,549.2,547.9,546.6,545.4,544.3,543.2,541.9,541.2,540.5,540,539.6,538.6,537.1,535.7,532.8,530.1,526.4,464.3,518.5,514.1,510,506.1,503.4,500.8,498.2,496,493.9,492.3,490.7,489.4,488.1,486.3,484.5,482.5,480.9,478.6,476.2,473.3,470.4,207.9,412.7,410.4,407.8,456.6,454.2,452,449.7,447.6,445.3,393.4,391.4,292.3,338.1,335.7,332.5,329.2,279,322.2,274.3,408.9,361.8,405.4,403.9,403,401.8,400.5,398.9,353,351.4,349.9,391.4,389.1,343.7,384.8,383,381.1,379.5,378.2,334.8,292.3,373.4,371.4,287,325.5,323.7,360.8,359.2,397.6,395.9,394.6,393.3,392.4,391.7,391.3,390.8,390.3,390.2,390,311.9,38.9,38.9,38.9,38.9,0,0,0,0,184.5,137.7,458.2,457.5,456.3,455,453.4,452,450.7,449.3,448.4,447.2,445.9,444.3,443.3,442.4,441.6,441,440.6,440.3,439.8,439.1,438.8,438.2,437.6,437.1,436.5,435.9,434.8,433.6,432.4,388.2,386.7,428.4,427.1,425.6,424.4,423.6,422.8,422.1,421.7,421.2,420.7,420.6,420.4,420.5,420.7,421.1,421.6,422.7,423.7,425.3,426.9,428.4,344.4,302.1,432.5,346.7,390.3,43.1,86.4,43.2,43.2,43.2,43.1,43,42.9,412.5,370,205.9,42.7,42.6,42.5
