0,0,0,0,0,246.3,724.6,1207.7,1935,2174.5,2173.5,2168.9,2165.2,2165.2,2164.3,2162.5,2159.6,2399.3,2401.2,2402.9,2402,2402.1,2406,2408.9,2409.8,2411.5,2411.6,2413.4,2413.4,2414.5,2414.5,2410.5,2413.2,2413.1,2412.2,2409.4,2410.5,2412.3,2407.9,2408,2411.8,2414.8,2416.9,2417.2,2417.6,2417,2419.3,2423.6,2423.9,2424.2,2424.1,2426.2,2429.1,2431.2,2435.3,2434.4,2436.6,2437.6,2442,2444,2449.1,2449.3,2449.5,2451.7,2453.1,2454.9,2452.6,2450.9,2446.8,2443.6,2439.6,2437.1,2434.7,2433.3,2430.3,2428.5,2429.2,2430.8,2429.2,2428.9,2427.6,2425.4,2423.3,2422.3,2418.1,2415.2,2411.5,2407.7,2399.4,2397.5,2396.7,2394,2392,2391.1,2391,2389.1,2388.3,2386.3,2382.7,2383.6,2380,2373.4,2365.5,2357.8,2348.8,2338.6,2328.7,2318.5,2307.9,2292.2,2264.2,2220.1,2175.4,2134.9,2097.2,2057.4,2024.1,1993.6,1968,1953.2,1950.8,1946.5,1941.7,1936.1,1934.4,1932.4,1929.6,1928.9,1923.5,1918.7,1920.6,1922.4,1927.4,1930.5,1930.6,1937.5,1943.1,1954.2,1967.3,1786,1408.3,804.2,1452.8,811.6,1072.6,1849.6,1568.4,1094.3,828.7,836.6,1098.5,1122.1,1124.3,1885.6,1125.3,1382.6,2376.7,2383.1,2381.3,2385.2,2390.3,2391.1,2396.1,2408.9,2422.7,1725.3,2464.1,2490.2,2516,2547.1,2332.8,2099.3,2385.5,2404.2,2426.8,2454.1,2766,2814.6,1741.2,1480.9,2990.1,3046.1,3097.9,3137.2,3172.7,3194.1,3213.9,3220.6,3234.2,3242.7,3249.6,3256.5,3265.2,3268.7,3272.2,3272.1,3279.2,3284.6,3281.1,3272.3,3274.2,3272.5,3277.6,3275.9,3274.2,3272.4,3267.2,3263.7,3263.6,3260.2,3255,3254.8,3256.5,3256.5,3258.3,3256.5,3254.7,3253.1,3251.4,3248,3248,3242.8,3232.6,3227.4,3227.4,3225.7,3225.7,3224.1,3227.6,3232.6,3232.6,3244.6,3249.8,3258.4,3272.2,3277.4,3282.9,3286.3,3289.8,3291.7,3295.3,3295.3,3298.9,3293.5,3291.7,3289.9,3289.9,3293.4,3295.1,3284.6,3286.3,3286.4,3286.4,3286.4,3288.3,3291.6,3293.3,3298.6,3303.9,3303.9,3311.1,3316.5,3320.1,3316.5,3318.4,3318.4,3307.6,3300.4,3291.6,3282.9,3272.4,3258.5,3241.4,3226,2886.9,2880.2,2866.9,2217.4,942.7,0,0,0,0,0,344.5,1704.9,1697,1691.9,1685.4,1676.5,1673,1679,1692.8,1708.7,1724.6,1740.8,1757.3,1773,1787.1,1787.6,1782.5,1776.5,1767.7,1761.3,1756.4,1751.8,1747.4,1743.9,1740.7,1739.8,1737.9,1735.9,1732.6,1730.6,1729.6,1728.6,1727.2,1726.2,1725.3,1724.8,1723.8,1722.8,1722.3,1720.8,1722.3,1724.7,1722.7,1723.2,1722.6,1723.1,1725.6,1727,1728.5,1728.1,1729.1,1730.9,1731.8,1733.7,1733.8,1734.8,1736.7,1736.3,1734.8,1732.9,1730.5,1729,1724.8,1721.8,1717.9,1712.1,1706.9,1701.2,1696.4,1690.4,1683.6,1675.8,1667.6,1660.4,1653.1,1646.2,1638.6,1632,1624.6,1619.3,1613.6,1610,1605.6,1603.1,1600.9,1598.8,1598.8,1599.2,1600.5,1601.3,1601.8,1602.2,1605.2,1606.4,1608.1,1610.9,1612.9,1615.9,1619,1623.2,1628.7,1639.1,1654.6,1676.3,1705.6,1739.7,1781.3,1832.4,1881.6,1926.6,1971.4,2009.9,2044.1,1896.9,1913.7,1925.5,1931.5,1939.1,1939.1,2131.7,2119.3,2090.3,2048.3,1996.8,1939.9,1692.7,1825.8,1247.4,1738.3,1707.8,1686.3,1670.6,1658.4,1649.7,1643.4,1636.2,1628.4,1621.8,1616,1609.5,1603.5,1597.1,1591.2,1586.6,1582.2,1578.2,1574.6,1571.4,1569.4,1564.6,1560.6,1557.4,1553.8,1549.8,1547.9,1546,1545.6,1546.4,1547.2,1548,1549.2,1551.9,1553,1556.2,1559.4
0,0,0,0,0,727.4,1699.2,1938.9,2181.3,2177.4,2172.6,2168.9,2168.9,2169,2165.3,2163.3,2163.3,2404.8,2404.7,2406.8,2404.9,2409.8,2409.8,2410.7,2414.4,2413.5,2414.5,2415.4,2417.3,2416.3,2417.2,2414.2,2413.1,2412.1,2413,2414.1,2413.3,2413.3,2412.5,2411.7,2414.7,2416.7,2417.1,2419.2,2418.6,2419.1,2421.5,2421.8,2422.8,2424.1,2425,2426.2,2428.2,2430.1,2433.2,2431.5,2432.5,2434.7,2438.6,2442.5,2446.8,2449.4,2450.6,2450.8,2450.9,2455,2456.9,2451.8,2449,2445.7,2441.4,2440.1,2437.7,2437.3,2433.3,2430.6,2430.1,2430.4,2429.1,2429.9,2429.6,2426.4,2423.3,2419.2,2418.2,2414.4,2409.7,2406.8,2401.3,2399.4,2394.9,2393.1,2394.9,2392.1,2391,2390.9,2389,2391,2387.3,2385.5,2383.7,2376.5,2371.2,2365.1,2353.2,2130.9,2335.6,2325.8,2315.1,2299,2272.5,2225.9,2180.7,2137.9,2097.9,2059.3,2023.5,1991.6,1966.2,1950.8,1948.3,1944.7,1940.4,1934.3,1933.8,1931.1,1929.7,1928.9,1924.7,1919.3,1918.7,1922.4,1926.8,1929.9,1928.8,1936.4,1943.2,1951.9,1968,1786.6,1802.2,804.3,1443.8,811.7,1535.1,2058.6,1554.2,821.8,828.7,835.8,845.1,853.3,860.8,1623.8,1126.9,1624.9,2376.4,2380.9,2381.3,2387,2391.2,2391,2396.3,2178.7,2426.7,1487.8,2225.9,2492.4,2522.3,1812.1,1836.3,1860.1,2138.6,2410.4,2432.9,2464.6,2503.4,1997.3,1465.4,1197.4,3004.6,3056.7,3105.6,3138.8,3172.7,3194.1,3212.2,3218.9,3227.4,3235.9,3241,3247.9,3255,3260.1,3261.9,3260.2,3267.1,3270.7,3269,3265.5,3263.7,3261.9,3258.5,3262,3260.3,3258.5,3251.4,3249.9,3246.5,3244.6,3239.5,3244.6,3244.5,3244.5,3244.5,3241,3237.6,3241,3239.3,3235.9,3232.7,3224.1,3217.4,3214,3215.7,3214.1,3210.7,3214.1,3215.7,3217.4,3224,3232.6,3234.3,3246.3,3254.9,3258.5,3261.9,3265.5,3267.3,3272.5,3274.2,3276,3274.2,3268.9,3268.9,3270.6,3270.7,3270.6,3268.9,3267.1,3263.7,3263.7,3268.8,3268.8,3270.6,3277.8,3277.7,3281.1,3284.5,3288.1,3289.9,3295.1,3300.4,3295.2,3291.6,3289.9,3286.3,3279.3,3274.1,3265.3,3256.6,3241.2,3229.3,2896.7,2883.5,2554.4,1600.4,1580.9,1255.4,311,0,0,0,0,0,1020.1,1697.5,1689.7,1684.4,1677.2,1672.4,1677.1,1689.6,1706,1722.6,1740.3,1758,1773,1787.6,1789.6,1785,1776.5,1770.3,1762.8,1757,1752.9,1748.9,1745.4,1741.7,1740.7,1738.9,1736,1733.1,1731.6,1730.1,1729.1,1727.2,1726.2,1724.8,1723.8,1722.8,1723.3,1722.4,1721.3,1721.8,1723.3,1723.2,1723.7,1723.6,1725.1,1726.1,1727.5,1730.2,1731.2,1731.3,1733.3,1734.3,1737.1,1736.7,1737.2,1738.2,1738.2,1737.2,1735.3,1734.8,1732.5,1728.2,1725.7,1720.4,1714.5,1709.7,1704.1,1698.3,1690.9,1685,1677.3,1668.8,1660.3,1653.5,1646.4,1638.7,1631.8,1625.1,1618.9,1615.2,1609.9,1606,1602.3,1601.5,1599.8,1599.3,1599.7,1600.5,1601.3,1601.8,1605.1,1606.3,1606.8,1609.3,1611.7,1615,1616.8,1620.7,1625.7,1632.8,1646.7,1666.1,1694.1,1727.3,1766.2,1629.3,1862.8,1911.3,1952.7,1993.1,2026,2052.8,1898.2,1909.9,1918.5,1924.6,1932.8,2128.6,2127.2,2117.9,2094.5,2055.7,2007.9,1953.1,1709,1472.9,1614.6,1576.7,1717.9,1694.2,1677.1,1664.3,1652.7,1644,1635.3,1627.1,1620.6,1613.8,1608.3,1603,1597.1,1590.7,1586.6,1582.6,1578.6,1575.4,1571.8,1567.4,1563.4,1558.6,1555.8,1550.6,1546.7,1544.1,1542.6,1542.1,1542.2,1543.3,1544.4,1544.4,1545.6,1547.6,1550.6,1551.8
0,0,0,0,486.9,1212.3,1697.4,1936.9,2180.3,2178.4,2173.6,2172.7,2169.9,2169.1,2168.2,2168.1,2168.1,2409.8,2411.7,2410.8,2412.5,2413.5,2417.2,2415.4,2419.1,2419.1,2419.2,2421,2420.1,2420.9,2419,2417.9,2416.8,2417.8,2415.8,2415,2415.1,2416,2416.2,2417.3,2418.4,2419.7,2418.9,2423.1,2419.5,2419.9,2423.2,2422.6,2426,2425.1,2423.2,2426.2,2424.2,2428,2430.9,2430.9,2433.1,2431.9,2436.1,2441.2,2442.2,2446.7,2450,2451.6,2454.7,2452.7,2453.9,2453.1,2449.8,2446.8,2441.9,2438.3,2440,2435.3,2432.1,2431.6,2429.3,2428.8,2430.1,2430.9,2427.7,2426.4,2423.3,2421.1,2416.4,2412.5,2410.4,2405.7,2401.1,2399.3,2396.7,2394,2394.9,2394,2392,2391.9,2391.9,2391.2,2391.2,2387.5,2385.7,2382.2,2375.1,2369.9,2358.9,2351.3,2343.3,2333,2323.3,2305.9,2280.2,2234.9,2185.4,2141.7,2101.5,2062,2022.7,1990.9,1963.6,1948.9,1945.2,1941.6,1937.3,1933.6,1932.4,1932.4,1929.7,1928.3,1924.2,1919.3,1919.9,1922.4,1925.6,1928.1,1927,1934,1941.4,1951.4,1967.9,1976.3,1801.4,1008.9,1872.1,811.7,813.6,2033.6,1543.3,1595.4,1079,1090.6,1074.1,854.7,1374.1,1873.8,1378.3,2118.4,2374.1,2378.9,2378.2,2385.9,2391.4,2391.2,2400.3,2178.8,2430.7,1489.9,2467.8,2494.1,2281.1,2069.9,2340.9,2366.3,2388.4,2416.6,2444.4,2752.4,2522.8,1450.3,1470.9,2968.4,3017.6,3070.2,3116.7,3148.4,3175.8,3194.1,3210.5,3220.6,3224,3232.5,3234.2,3236.1,3241.4,3246.7,3245,3250.1,3251.8,3251.9,3248.4,3248.5,3245,3246.6,3246.5,3248.1,3241.1,3241.3,3237.9,3234.4,3237.8,3229.3,3227.6,3229.3,3229.2,3232.6,3232.5,3230.8,3232.6,3229.2,3225.8,3219,3214,3208.9,3207.3,3204,3202.4,3202.3,3200.6,3200.7,3207.4,3209.2,3214.1,3217.4,3220.7,3225.9,3239.5,3239.5,3246.4,3246.4,3246.4,3246.6,3251.7,3251.7,3255.2,3253.5,3250,3249.9,3248.2,3249.8,3251.4,3248,3249.6,3246.2,3253.2,3251.4,3253.1,3258.3,3260.1,3263.6,3267.1,3268.8,3270.5,3272.3,3277.6,3274,3272.3,3274.1,3260.1,3256.7,3256.7,3251.4,3242.9,3232.7,3217.4,3209.1,3204.2,3195.8,2232,1574.5,939.7,311,0,0,0,0,347.4,0,1186.1,1693,1686.8,1679.3,1675.7,1680.2,1690.9,1707.4,1554.1,1744.6,1762.7,1777.5,1789.1,1791.2,1786.7,1779.1,1771.3,1765.3,1759,1755.5,1750.5,1745.9,1742.7,1740.8,1738.9,1735.5,1734.1,1731.6,1731.1,1727.7,1726.7,1725.3,1724.3,1723.3,1723.8,1722.8,1721.8,1721.4,1723.3,1723.8,1724.2,1723.2,1724.5,1725.5,1727.5,1729.4,1730.3,1732.4,1733.4,1734.4,1737.3,1737.4,1738.9,1739.3,1738.8,1739.8,1738.9,1737.8,1734.8,1733.5,1731.2,1726.8,1722.3,1716.4,1712.6,1706.9,1700.7,1694.7,1687.3,1679,1669.9,1662.2,1654.1,1647.5,1639.5,1633,1625.8,1619.4,1614.7,1610.6,1605.9,1603.1,1601,1600.2,1599.7,1599.7,1600.4,1601.7,1603.5,1606.3,1607.6,1609.3,1612.2,1614.2,1617.2,1620.7,1624.9,1631.6,1641.9,1658.1,1681.2,1712,1750.3,1793.8,1841,1891.2,1935,1974.1,2006.9,2035.7,2052.9,1891.7,1902.5,1909.7,1915.6,1920.1,2119.1,2118.2,2108.3,2091,2056.5,2013.3,1962.6,1527,1859.4,1808.8,1765.3,1730.9,1705,1686.8,1670.2,1657.7,1646.9,1637,1627.4,1620.3,1613.8,1607.6,1601.3,1595.9,1590.7,1586.2,1582.2,1578.6,1575,1571.8,1567.4,1562.6,1557.4,1553.8,1548.7,1544.1,1541.1,1538.9,1539.3,1539.6,1538.9,1539.3,1539.2,1539.9,1542.1,1543.3,1544.1
0,0,0,0,247.3,725.5,1212.3,1698.2,2181.3,2178.5,2174.7,2172.8,2171.9,2171.9,2171.9,2172.8,2172.8,2175.7,2413.5,2415.4,2420.2,2419.3,2422.2,2423,2426.7,2425.6,2422.8,2424.8,2424.8,2423.6,2424.6,2420.7,2421.7,2419.7,2422.5,2418.6,2419.6,2416.9,2418.9,2420,2422.1,2421.3,2423.6,2421.9,2424.2,2422.6,2423.1,2423.5,2424.6,2424.9,2423.1,2425.2,2425.8,2425.7,2429.7,2428.8,2427.9,2429.7,2432.8,2437.1,2441.4,2446.7,2446.8,2449.9,2451.4,2453.7,2451.8,2450.8,2449,2444.9,2441.9,2439.3,2438,2436.1,2433,2431.3,2429.1,2428.7,2429.1,2429.8,2427.6,2424.5,2421.3,2420.3,2417.3,2411.5,2408.5,2406.7,2402.1,2398.4,2393.9,2393.9,2394,2394.1,2394.1,2395.9,2392.2,2391.3,2391.3,2391.2,2387.7,2382.5,2379.1,2373.1,2366.6,2355.2,2347.8,2341.5,2330.6,2312.9,2289.7,2241.3,2190.2,2145.4,1888.4,2060.1,2022.7,1989,1960.4,1947.1,1943.4,1939.7,1936.6,1933.5,1931.7,1931,1930.4,1929.7,1926.6,1920.5,1919.9,1923,1924.2,1927.5,1927,1933.9,1943.9,1951.3,1968,1789.1,1800.6,1007.5,1648.3,811.7,1039.2,1788.5,1773.4,1074.5,830,837.2,1079.7,1368.7,1373.7,1873,1377.7,1621.9,2369.3,2373.1,2374.3,2382.3,2388.5,2155.3,2165.1,2181.8,2198.4,2204.3,2470,2021.3,1796.1,2072.1,2097.5,2372.1,2144.6,2417.4,2454.6,1952.6,1987.7,1455.6,1187.3,2984,3032.5,3080.9,3122.9,3153.2,3179.1,3199.1,3217.3,3229.1,3229.2,3231,3225.9,3227.7,3233.3,3235.1,3235.1,3231.7,3236.6,3240,3236.6,3231.5,3236.6,3233,3232.8,3234.5,3229.4,3225.9,3224.3,3220.9,3217.5,3215.8,3214.1,3217.4,3219.1,3217.4,3215.6,3217.3,3219,3217.3,3213.9,3209.1,3205.7,3199.1,3194.1,3185.7,3194.2,3194.2,3192.5,3195.7,3204.1,3205.8,3207.5,3210.7,3219.1,3219.1,3222.5,3229.2,3229.2,3226.1,3227.8,3227.8,3231.2,3232.9,3232.9,3231.2,3226.2,3229.4,3229.3,3231,3232.7,3231,3234.3,3229.2,3237.7,3239.4,3241.2,3241.1,3242.8,3246.2,3251.3,3249.7,3249.7,3254.9,3258.3,3253.1,3249.7,3249.7,3246.2,3239.4,3241.1,3237.7,3232.7,3222.4,3214,3207.3,3202.3,3199,2232,633.3,0,0,0,222.3,188.9,532.4,701.9,174.5,1014.6,1523.3,1691.6,1686.4,1683.9,1687.7,1700.9,1715.5,1560.4,1399,1767.2,1782,1792.2,1794,1789.2,1780,1772.3,1765.2,1760.5,1754.4,1752.4,1747.7,1744.4,1741.9,1738.4,1736.5,1734.1,1731.7,1730.2,1728.8,1727.3,1725.3,1724.3,1723.3,1723.4,1722.8,1721.3,1721.4,1722.4,1723.8,1724.2,1725.1,1725.5,1727.5,1728.6,1730,1732.4,1733.4,1734.9,1735.9,1737.3,1737.4,1738.4,1738.9,1740.3,1740.3,1739.4,1737.9,1736.3,1734.5,1732.6,1728.8,1724.8,1720.3,1714.6,1710.7,1704.6,1697.9,1689.4,1682.6,1674.4,1665.6,1657.9,1650.4,1644.1,1636.5,1629.3,1623.7,1619,1614,1609.5,1606.3,1603.8,1602.2,1601.4,1602.3,1602.6,1603.5,1605.5,1607.6,1610.2,1611.8,1613.4,1616.4,1619.8,1624.5,1630.3,1638.2,1652.3,1672.1,1698.9,1733.1,1774.7,1818.1,1863.8,1912.5,1953.7,1985.5,2014.8,2034.7,2050.9,2060.1,2071.8,2082.1,1906.7,1911.9,1917.1,2108.5,2098.3,2082.5,2051.8,2011.2,1772.8,1918.6,1867.8,1820.4,1778.4,1744.2,1718.8,1697.5,1679.8,1664.7,1651.4,1639.5,1629.9,1620.6,1612.1,1605.9,1599.7,1593.7,1589.5,1584.6,1582.6,1578.6,1575.4,1571,1565.4,1561.4,1556.2,1551,1545.6,1540.7,1536.7,1535.9,1535.6,1534.8,1535.1,1534.8,1534.4,1535.5,1535.9,1536.3,1535.5
0,0,0,0,0,1700,1940.6,1937.8,2180.3,2177.4,2175.6,2171.8,2171.9,2172.8,2172.9,2173,2174.9,2181.6,2420.5,2423.3,2422.3,2425.9,2429.7,2430.7,2430.6,2432.4,2431.4,2430.3,2429.4,2429.3,2428.3,2424.4,2424.4,2426.3,2425.3,2425.3,2423.4,2420.5,2421.6,2421.8,2424.8,2423.1,2423.3,2423.6,2423.8,2424.2,2425.6,2424,2424.3,2423.4,2423.5,2424.4,2424.4,2424.4,2425.2,2427.1,2425.4,2428.4,2432.3,2434.8,2440.1,2442.3,2445.7,2447,2451.1,2449.7,2450.5,2449,2445.9,2445,2439.4,2436,2433.8,2433.2,2431.7,2431.3,2430.9,2429.5,2429,2429.8,2426.7,2423.5,2422.3,2419.3,2416.3,2412.3,2408.5,2405.7,2400.2,2398.5,2394.9,2394,2395,2394.2,2397.9,2397.9,2395,2395,2394.1,2393,2388.6,2387.1,2380.2,2375.3,2367.8,2363.9,2355.3,2349.7,2337.7,2320.4,2296.5,2246.3,2194.7,2147.5,1678.8,2061.3,2023.3,1987.7,1958.7,1945.3,1941.6,1938.4,1934.7,1931.7,1932.3,1931.6,1930.3,1929.7,1928.6,1924.1,1923,1924.9,1927.3,1928.7,1742.3,1749.2,1945.7,1953.1,1969.1,1975.7,1801.9,1214,1228.7,811.7,1037.3,1755.3,1299.4,1068.9,1074.1,838.5,1103.8,856.3,1370.6,1609.2,1364.4,1623.4,2366,2369,2370,2377.7,1913,1919.4,1930.9,1708.9,1962.7,1502,1275.9,1293,1307.2,1323.1,1340.5,1357,1372.9,1386.6,1402.9,1419.7,1437.8,1458.2,2955.6,3002.7,3049.1,3094.8,3132.5,3156.4,3180.7,3205.7,3219.1,3229.2,3230.9,3228,3217.7,3214.5,3223.2,3230.1,3225.2,3223.5,3225.2,3228.5,3223.4,3221.4,3222.9,3224.3,3224.2,3220.8,3222.5,3217.4,3209.1,3209,3209,3209.1,3204,3202.3,3209,3212.4,3209,3207.2,3205.5,3203.9,3200.7,3197.4,3197.5,3194.1,3185.8,3182.4,3187.4,3185.8,3187.4,3192.5,3194,3197.4,3204,3205.8,3212.5,3212.5,3215.9,3220.9,3217.6,3214.3,3210.9,3216.1,3219.5,3219.5,3219.5,3216.2,3212.8,3214.3,3214.2,3220.8,3220.8,3215.6,3215.7,3217.3,3222.3,3225.7,3229.2,3227.5,3227.5,3232.7,3239.4,3234.3,3234.3,3236,3241.2,3236.1,3236.1,3234.4,3229.3,3220.8,3225.8,3225.8,3224.1,3210.6,3207.3,3204,3204,2236.9,2233.5,954,0,0,0,200.6,180.1,710.9,706,700.3,1192.4,851.1,1700.4,1698.4,1698,1702.3,1714.5,1730.6,873.3,703.4,1777.5,1788.6,1797.5,1795.9,1790.9,1782,1772.8,1766.8,1760.9,1754.9,1752.7,1747.8,1744.3,1741.8,1739.6,1736,1733.1,1732.7,1732.2,1729.8,1728.3,1727.8,1726.8,1724.9,1724.4,1723.9,1722.8,1722.3,1722.8,1723.4,1723.3,1724.6,1724.1,1727.1,1729,1730.5,1732.5,1733,1736,1736,1737.5,1738.4,1738.3,1738.8,1740.3,1739.9,1738.5,1738,1737.1,1734.5,1733.1,1731.7,1727.8,1723.3,1718.8,1714.4,1709.8,1702.2,1695.5,1687.3,1679.4,1671.2,1663.8,1656.3,1648.4,1641.9,1635.8,1628.8,1624,1620.3,1617,1613,1610,1607.5,1606.7,1606.7,1606.7,1608,1609.2,1611.8,1612.6,1615.5,1616.4,1620.5,1624.9,1630.3,1637.7,1647.8,1663.4,1686.8,1715.8,1042.3,1795,1835.4,1879.1,1924.1,1961,1990,2013.2,2030.3,2044.6,2054.2,2062.8,2071.3,2080.5,2088.9,2097.5,2097.7,2090.7,2072.3,1846.9,2008.5,1967.7,1349.2,1878.3,1831.9,1792.8,1758.3,1731.5,1709.8,1691.3,1673.9,1659.2,1646.5,1633.4,1622.2,1612.2,1603.3,1598.3,1591.7,1588,1583.4,1580.2,1576.6,1573.4,1569.8,1564.2,1559,1553.8,1549.1,1543.1,1536.7,1533.6,1532,1530.8,1532,1532.8,1531.6,1531.6,1532,1531.6,1530.5,1528.2
0,0,0,0,0,727.3,1938.7,1935,2176.4,2174.6,2172.9,2170.8,2170.1,2172.9,2173,2174.9,2177.8,2181.8,2421.5,2425.3,2426.1,2427.9,2433.6,2435.4,2435.3,2435.3,2434.1,2434.2,2434.1,2435,2432,2429.1,2428.1,2430,2427.2,2426.3,2425.2,2424.4,2426.4,2424.6,2424.6,2423.9,2423.3,2425.3,2423.8,2424.8,2424.2,2424.4,2424.6,2423.9,2420,2424,2423.7,2423.7,2424.7,2423.8,2425.2,2426.1,2428.2,2433.5,2434.9,2439.9,2440.3,2442.7,2443,2445.1,2445.5,2443.6,2440,2437.8,2436.5,2433.2,2432.6,2432.3,2427.9,2428.3,2427.9,2428.7,2429.2,2428.8,2426.5,2423.3,2420.4,2416.4,2413.4,2410.5,2407.6,2405.8,2400.3,2397.7,2395.8,2396,2396,2397.1,2396.2,2395.2,2394.2,2393.3,2394.2,2393.4,2389.9,2386.5,2384.1,2379.1,2372.8,2367.8,2361.2,2353.5,2342.3,2325.5,2301.8,2250.3,2197.9,2149.6,1467.2,2059.9,2022.6,1986.5,1956.9,1944.7,1940.9,1937.2,1932.9,1931.7,1932.4,1932.3,1930.9,1933,1928.6,1925.4,1926.1,1928.7,1931.8,1743.7,1746.2,1751.6,1949.8,1957.2,1972.8,1979.9,1990.8,1213.4,1443.2,813.6,815.6,1311.3,1301.9,825.2,831.3,1097.6,1358.7,1111.5,1372.4,1124.3,1365.9,1377.8,2358.3,2361.3,2363.6,2135.1,1909.1,1918.4,1929.9,1943.1,1725.5,1256.5,1275.9,1290.9,1307.2,1323.1,1340.2,1355.8,1372.8,1386.3,1404,1420.7,1158,1460.9,2965,3010,3052.1,3091.7,3129.2,3156.4,3177.5,3200.7,3219.2,3224.2,3224.5,3221.5,3209.8,3213.4,3217.1,3218.9,3217.5,3215.8,3217.4,3215.4,3213.5,3209.9,3208.1,3211.2,3209.2,3207.5,3205.7,3200.5,3199,3195.8,3197.4,3197.3,3194,3195.7,3197.4,3197.3,3195.8,3194.1,3197.4,3197.4,3195.8,3194.1,3194.1,3182.4,3175.8,3175.8,3179.1,3179.2,3174.4,3184.1,3187.4,3192.4,3195.7,3200.7,3202.5,3205.9,3209.3,3214.5,3209.5,3204.7,3202.8,3202.9,3204.5,3206.1,3204.4,3201.1,3202.6,3199.2,3202.3,3202.3,3203.9,3205.6,3204,3205.7,3213.9,3215.5,3224,3217.2,3215.6,3219,3222.4,3219,3219.1,3219.1,3224.1,3217.4,3217.4,3217.4,3214,3205.5,3215.7,3214,3212.3,3207.2,3200.6,3202.3,3200.7,2880,1273,0,0,0,0,194.3,539.2,713.5,709.4,704,1549.8,512.8,1712.2,1711.7,1714.7,1719,1729.6,1745.5,527.4,354.5,1251.6,1796.4,1803.3,1799.6,1792.9,1786.2,1774.7,1767.3,1759.8,1755.8,1751.8,1748.2,1744.8,1740.8,1739,1735.5,1733.1,1732.6,1731.2,1729.8,1728.8,1727.3,1725.9,1725.9,1723.4,1723.4,1721.9,1722.4,1721.9,1721.9,1722.4,1722.2,1724.1,1726.2,1727.6,1730,1730.5,1732.5,1733.5,1734.5,1735.4,1736.9,1736.8,1737.7,1739.3,1738,1738,1738,1737.1,1735,1733.1,1732.2,1729.3,1726.3,1721.8,1718.8,1714.4,1708.8,1704,1695.1,1689,1680.7,1672.6,1666,1658.9,1652.4,1646,1639.9,1635.2,1630.9,1626.6,1623.6,1619.8,1616.9,1615.6,1614.7,1615.6,1615.1,1616,1617.6,1618,1619.7,1621.3,1624.5,1629.4,1636.4,1645.7,1657,1675.8,1701,1732,1409.6,1808.2,1846.6,1887.1,1928.2,1963.3,1986.5,2007.4,2021.9,2036,2044,2053.2,2061.9,2070.7,2077.7,2084.9,2086.4,2080.4,1865.9,1838.6,2003.4,1772.2,1730.4,1883.9,1840.6,1802.6,1770.1,1745.1,1722.3,1702.7,1684.9,1667,1652,1638.4,1624.9,1613.5,1605,1596.6,1590.1,1584.6,1581,1577.4,1573.4,1569.4,1565.8,1561.4,1556.2,1550.6,1546.3,1540,1533.6,1530.4,1527.3,1527.6,1527.3,1528.5,1528.1,1526.6,1526.6,1525.1,1524.3,1521.6
0,0,0,0,0,484.9,1448.2,2173.6,2171.7,2170.8,2169.8,2170.9,2171,2171.1,2172.9,2173.9,2178.9,2181.8,2425.4,2429.2,2430.9,2434.7,2437.4,2438.2,2440,2441,2439,2439,2437.9,2436.9,2434.9,2430.1,2430.1,2431,2429.1,2427.2,2426.2,2426.3,2428.4,2425.5,2428.4,2426.8,2426.8,2425.1,2425.3,2423.6,2424.7,2421.9,2423,2423.1,2421.4,2421.3,2422.2,2420.4,2420.7,2421.6,2421.7,2422,2424,2428,2430.3,2431.8,2434.8,2436.4,2439.7,2439.1,2439.3,2439.3,2437.3,2435.2,2432.1,2430.9,2428.5,2430.2,2427.7,2426.4,2427.8,2429.5,2427.1,2427.8,2424.4,2421.3,2419.3,2414.3,2412.3,2408.7,2405,2402.1,2397.6,2395.8,2393.1,2394.3,2395.1,2395.3,2394.4,2394.3,2393.3,2394.3,2392.8,2392.7,2390.1,2386.7,2383.6,2380.3,2376.5,2371.6,2363.1,2357.3,2346.7,2327.4,2303.5,2251.6,2199.3,2148.8,1043.1,2059,2022.6,1984.6,1956.9,1943.5,1939.6,1936.6,1934.2,1931.1,1932.4,1933,1932.9,1933.7,1932.5,1927.3,1930,1933,1933.7,1936.2,1936.9,1756.4,1954.6,1961.6,1977.2,1982.4,1992.1,1214.1,1650.4,815,817.7,2004.9,1549,1085.2,1332.9,1872.2,1359.1,1856.5,1366.7,1622.6,1367.2,1140.7,2113.6,2357.5,2358.7,2132.3,2142.3,2148.8,2161.1,1461.6,1000.6,1010.9,1024.4,1036.2,1049.5,1063.1,1078.1,1093.7,1107,1118.4,1132.6,1145.8,1159.3,2340.5,2973.7,3016,3056.5,3091.7,3124.5,3146.8,3174.3,3190.6,3214.1,3219.3,3219.4,3213,3205,3205.4,3212.5,3214.4,3211.1,3204.7,3207.5,3209.1,3200.3,3196.8,3198.2,3201.2,3196.1,3192.5,3192.5,3190.8,3187.6,3185.9,3189.1,3185.8,3180.9,3182.6,3187.6,3189.2,3189.2,3187.5,3187.6,3189.3,3185.9,3185.8,3184.2,3175.9,3169.4,3166.2,3167.8,3167.9,3169.6,3174.4,3177.6,3182.5,3187.5,3190.8,3199.2,3197.6,3204.3,3207.9,3204.6,3192.8,3192.9,3192.9,3192.9,3192.9,3192.7,3187.8,3184.6,3186,3186,3192.5,3195.6,3195.7,3192.3,3195.8,3202.3,3207.2,3208.8,3208.8,3205.6,3205.6,3207.4,3205.7,3207.3,3207.3,3210.7,3202.3,3205.7,3204,3199,3195.7,3202.2,3202.3,3202.3,3197.4,3198.9,3197.3,3197.3,3199,1271.4,0,0,0,0,186.6,539.7,715.1,711.9,708,529.9,519.6,1553.5,1726.6,1560.4,1214.9,1748.6,1762.3,889.5,894.1,1799.1,1805.9,1809.2,1802.3,1795.9,1787.2,1775.8,1767.7,1761.8,1756.2,1751.8,1748.8,1744.3,1740.8,1739.3,1736,1733.5,1731.6,1731.3,1729.3,1728.3,1726.3,1725.4,1725.4,1723.9,1722.5,1721,1720.5,1721.5,1720.6,1721.5,1720.8,1723.3,1724.8,1726.7,1729.1,1730,1730.7,1732.1,1733.9,1734.8,1735.8,1735.4,1736.4,1737.3,1737.3,1736.5,1737.6,1737.2,1736.1,1734.6,1732.6,1732.7,1729.3,1726.8,1724.8,1719.8,1715.4,1711.2,1704.1,1697.5,1690.4,1682.6,1677.1,1670.7,1664.3,1657.5,1652.4,1647.4,1642.3,1638.9,1634.4,1631.5,1628.4,1626.2,1624.9,1624.1,1624.5,1624.9,1624.9,1625.3,1626.2,1627,1631.2,1637.2,1645,1655,1667.9,1687.7,1715.2,1746.3,1783.4,1819.5,1854.2,1890,1926.6,1955.5,1979.4,1994.4,2010.2,2021.2,2032.1,2042.4,2049.7,2054.9,2065.4,2072.5,2074.8,1876.5,1858.5,1830,1799.4,1767,1730.4,1888.1,1847.9,1810.7,1780.9,1755.8,1734.4,1715.4,1696.6,1677.1,1659.9,1643.5,1629.2,1615.1,1604.6,1595.4,1588.5,1581.4,1576.2,1573,1569,1565,1561.4,1557.4,1552.2,1547.2,1543.1,1536.2,1530,1526.5,1524,1522.5,1523.6,1523.6,1523.1,1521.6,1520.6,1519.4,1518.1,1515.8
0,0,0,0,0,0,966.1,2168.9,2168.9,2167,2166.1,2166.3,2166.2,2168.2,2170.1,2174.9,2179.8,2183.6,2425.2,2426.1,2427.9,2433.7,2438.4,2440.2,2440.1,2442.1,2439,2438.9,2438.9,2437.7,2437.8,2433.1,2432.1,2431.1,2431,2428,2427.2,2428.2,2429.3,2428.4,2429.4,2428.6,2428.8,2427.9,2427.9,2429,2427.2,2423.4,2423.5,2423.4,2422.8,2421,2421.1,2422.1,2420.5,2423.4,2422.5,2421.7,2421.8,2423.8,2426,2429.4,2429.7,2431.2,2432.3,2433.5,2435.9,2436.8,2432.7,2430.9,2430.6,2429.4,2430.9,2430.6,2427.4,2426,2427.6,2426.2,2427,2424.8,2424.4,2420.4,2418.3,2412.4,2410.5,2407.8,2403,2400.3,2396.7,2396.9,2395.2,2394.3,2395.3,2395.4,2393.8,2395.5,2394.6,2392.7,2394.8,2392.2,2390.5,2387.2,2383.2,2382.6,2378.4,2374.4,2367.5,2359.1,2349.3,2328,2305.7,2251.7,2197.7,2146.5,831.5,2058.2,2020.6,1983.2,1955.6,1943.6,1939.6,1936.6,1932.9,1930.4,1933,1933,1933.6,1935.1,1932.5,1930.7,1933.6,1936.7,1938.5,1749.8,1752.2,1949,1958.9,1966.6,1982.2,1987.9,1995.2,1420,1859,815.7,819.1,2008.8,2030.1,2356.3,2109.3,2117.7,2366.8,2112.8,2111.8,2353.8,1381.5,1626.6,2348.6,2350.2,2352.1,2361.8,2372.6,2377.5,2388.6,1687,996.5,1006.8,1021.2,1033,1047.3,1059.5,1077,1090,1100.9,1115.9,1127.4,1141.7,1156.5,2933.8,2975.1,3017.5,3053.5,3087,3122.8,3143.6,3164.5,3187.3,3204.1,3207.6,3204.4,3198.1,3194.9,3195.1,3203.9,3205.8,3199.3,3192.7,3190.7,3192,3183.5,3180,3181.3,3179.5,3181.1,3182.7,3176,3172.6,3174.2,3175.9,3174.3,3172.7,3171,3169.4,3179.2,3177.6,3172.8,3172.7,3179.2,3180.8,3174.2,3175.9,3174.3,3167.8,3162.9,3161.3,3164.6,3161.3,3158.1,3167.9,3172.8,3172.8,3179.4,3184.3,3187.5,3187.5,3191.1,3192.9,3181.2,3178,3176.4,3176.3,3179.6,3176.1,3176.2,3173,3164.8,3166.4,3172.9,3176.1,3179.2,3180.8,3184.3,3184.3,3189.2,3199,3202.2,3199.1,3197.5,3194.2,3197.5,3194.1,3194.1,3195.8,3195.8,3190.8,3190.9,3194.2,3190.8,3180.7,3190.8,3192.3,3189,3190.7,3189.1,3190.6,3189,3192.6,1268.1,309.5,0,0,0,183.8,539.7,715.1,714.1,710.4,707,529.4,1738.4,1742.4,1749,1056.9,1767.7,1782,1257.9,1804.5,1810.5,1816.1,1815.6,1806,1799.2,1788.8,1777.4,1768.2,1760.6,1755.8,1751.8,1748.4,1744.9,1740.7,1738.7,1736.4,1733.1,1732.1,1731.3,1729.8,1727.3,1726.3,1726.4,1724.4,1723.5,1722,1722,1720.5,1720.5,1719.6,1720.6,1720.4,1722.3,1722.9,1725.8,1727.1,1727.8,1729.3,1732.1,1733,1733.4,1733.9,1734.9,1735.9,1734.9,1736.4,1736,1736.2,1736.7,1736.1,1735.6,1735.6,1734.1,1733.2,1732.2,1730.2,1727.2,1723.1,1719.1,1713.9,1707.8,1702,1695.6,1689,1682.1,1676.6,1671.2,1665.7,1660,1656.4,1652.3,1648.7,1645.3,1641.4,1638.9,1637.1,1635.8,1635.7,1633.9,1633.9,1634.2,1635.1,1636,1641.4,1647,1655.3,1666.5,1680.3,1701.8,1728.9,1758.7,1793.2,1825.3,1857,1888.3,1920.2,1945.5,1964.4,1981.5,1994.3,2005.3,2015.9,2025,2032.3,2039.5,2047.2,2056.8,2060.3,1863.2,2043.5,2020,1796.1,1766.4,1929.5,1893.5,1854,1818.6,1789.8,1766,1744.9,1725.3,1705.4,1685.4,1665.7,1647.9,1630.9,1617.3,1604.2,1594.6,1586.4,1578.2,1572.6,1567.4,1563.8,1561,1557.8,1553.1,1546.4,1541.9,1538.1,1532.4,1527.3,1523.7,1520.2,1519.3,1519.6,1520,1519.9,1517.7,1517,1514.9,1513.9,1510.9
0,0,0,0,0,0,966.1,1688.8,2165.2,2164.3,2165.3,2163.5,2166.3,2165.5,2170.2,2175,2179,2183.6,2425,2427.9,2430.8,2432.7,2437.3,2441.1,2440.1,2441,2441.9,2439.9,2438.9,2437.8,2437.9,2433.1,2431.2,2432.1,2431,2428.1,2429.1,2429.1,2429.3,2428.3,2430.4,2430.4,2429.5,2425.8,2427.8,2427.8,2426,2425.1,2424.2,2424.1,2422.5,2421.7,2421.7,2424.9,2421.3,2424.4,2422.5,2421.5,2421.6,2423.7,2423,2425.2,2425.7,2425.2,2429.2,2429.5,2429.8,2431.8,2429.6,2431.6,2430.4,2428.8,2430.6,2429.5,2427.2,2427.9,2427.5,2429.2,2430.1,2425,2424.8,2422.7,2418.5,2414.4,2409.6,2404.9,2403,2398.6,2398.7,2395.1,2396.2,2395.3,2395.5,2396.6,2397.6,2396.6,2394.6,2394.8,2395,2395.3,2391.6,2390.1,2387.5,2383.3,2381.8,2375.8,2368.1,2359.5,2348.9,2327,2300,2248.1,2195.8,2145,1251.2,2055.6,2019.4,1982.4,1955.6,1944.8,1941,1937.2,1932.3,1932.3,1932.3,1934.3,1933.7,1934.4,1933.6,1931.9,1934.9,1939.8,1942.2,1944,1755.2,1953.2,1963.3,1970.4,1984.6,1990.4,1997.6,1421.6,1863.1,817.1,1047.6,2012.2,2274.6,2351.5,2356.1,2362.9,2364.5,2362.1,2358.7,2353.2,1620.6,1624.6,2344,2345.6,2346.8,2355.6,2367.2,2376.4,1446.5,979.6,991.4,1003.6,1017,1028.6,1041.7,1056.1,1071.1,1086.4,1097.3,1110.7,1124.8,1139.1,1733.5,2936.7,2978,3013,3047.5,3083.8,3111.7,3137.2,3156.4,3174.4,3190.7,3191,3189.4,3179.8,3173.3,3171.9,3178.9,3175.6,3167.7,3161.2,3164.1,3159.1,3155.5,3150.4,3150.4,3156.8,3159.7,3158.1,3158,3158,3156.5,3158.1,3164.6,3164.6,3159.7,3161.3,3164.6,3167.8,3166.2,3167.7,3169.3,3167.6,3169.3,3169.4,3167.8,3166.1,3158.1,3159.7,3158,3153.2,3151.6,3156.4,3164.6,3166.3,3167.9,3171.2,3176.2,3174.6,3179.5,3181.2,3173.1,3166.6,3161.9,3163.4,3165,3164.9,3161.7,3160,3151.8,3153.3,3161.4,3166.3,3171.1,3169.4,3174.3,3179.3,3182.6,3189.1,3187.4,3189.1,3179.2,3182.5,3185.7,3180.8,3182.4,3182.4,3184.1,3182.4,3182.4,3182.4,3180.8,3174.3,3179.1,3184.1,3184.1,3177.7,3179.4,3179.4,3179.4,1903,1266.5,0,0,0,0,185.5,539.2,715.1,714.1,711.4,708.4,880.3,1752.6,1756.1,1765.7,1772.7,1785.2,1797.6,1809.7,1817.7,1822.6,1824.3,1820.5,1811.3,1802.8,1790.8,1778,1768.2,1762.1,1756.3,1751.3,1747.9,1744.9,1740.8,1738.3,1735.4,1733.6,1731,1730.7,1728.3,1727.8,1726.3,1724.4,1723.4,1722.5,1721.5,1721,1721,1720.1,1719.2,1719.6,1720.1,1720.9,1721.8,1723.9,1724.9,1725.9,1726.4,1728.8,1728.7,1730.6,1731.1,1731.6,1732.6,1734,1734.1,1734.6,1735.2,1736.1,1735.6,1737,1737,1736.9,1735.6,1737.1,1735.1,1734.1,1730.6,1727.6,1722.6,1716.8,1712.1,1706.9,1700.7,1695.2,1690.9,1685.5,1680.4,1675.9,1670.3,1667.1,1663.4,1659.9,1656.4,1653.2,1649.6,1648.3,1647.9,1645.8,1645.8,1645.4,1645.7,1647,1652,1658.4,1668.4,1680.3,1695.7,1715.6,1743.2,1770.1,1801,1830,1856.1,1883.1,1911.4,1929.9,1947,1960.7,1974.9,1985.7,1994.7,2004.2,2012.2,2017.1,2026.8,2036,1849,1844.1,2030.7,2008.5,1789.1,1568.5,1929.4,1895.1,1858.5,1825.2,1796.3,1773.3,1753.2,1734.4,1712.9,1691.7,1671.7,1652.3,1633.8,1618.5,1605.1,1594.2,1584.3,1576.2,1569,1563.8,1559,1555.1,1552.3,1546.8,1542.3,1537.3,1532.7,1528.5,1524,1519.9,1518.1,1515.4,1516.6,1516.6,1515.4,1513.9,1513.2,1511.8,1510.2,1506.3
0,0,0,0,0,0,484.9,1204.8,1442.7,2161.5,2161.6,2160.6,2161.6,2164.5,2168.5,2173.1,2176.1,2179.9,2421.3,2428,2429,2431.7,2434.3,2438.2,2437.2,2438.9,2436,2437,2437,2435,2436,2431.2,2430.3,2431.1,2428.1,2430.1,2429.1,2429.2,2431.1,2428.3,2429.4,2428.5,2430.4,2428.4,2427.5,2427.5,2424.8,2425,2423.8,2424.9,2423.1,2421.4,2422.3,2423.6,2423.8,2423.1,2423.4,2421.6,2420.6,2421.6,2421.1,2424.3,2422.7,2424.9,2426.2,2429.2,2429.1,2430.3,2427.2,2429.1,2429.8,2428.6,2427.3,2429,2430.8,2430.5,2430.5,2431,2429,2429,2427,2421.8,2418.7,2412.8,2408.8,2405.9,2403.2,2399.4,2397.9,2397,2397.1,2398,2398.2,2399.2,2400.4,2401.3,2400.3,2400.4,2398.8,2399,2394.5,2392.8,2390.4,2384.9,2383.5,2378.2,2367.7,2360.7,2347.4,2326.5,2297.8,2244.5,2192.6,2140.4,1671.5,2053,2017.9,1982.4,1956.8,1945.4,1942.4,1937.2,1934.1,1933.6,1933.6,1933.6,1935,1933.7,1934.3,1933,1937.9,1942.8,1944.6,1945.2,1948.2,1956.9,1964,1972.9,1987.2,1992.3,1806.6,1423.5,2087.7,818.4,821.8,1771.7,2277.9,2345.6,2354.8,2361.2,2358.6,2358.2,2112.3,2353.4,1614.7,1864.1,2342.9,2342.7,2344.3,2353.8,2363.6,2135.8,1680.4,973.9,987.5,999.4,1012.8,1024.3,1035.1,1050.5,1065.3,1079.3,1093.6,1107,1119.6,1135.2,1727.9,2922.9,2964.9,3002.5,3041.5,3074.6,3102.6,3121.2,3143.6,3164.6,3172.8,3166.4,3164.7,3156.8,3152.1,3150.8,3155.8,3146.1,3138.1,3133.4,3130,3128.4,3126.7,3125,3126.4,3130.9,3134.1,3134.1,3135.7,3138.9,3137.3,3140.4,3145.3,3146.9,3148.5,3146.9,3148.5,3151.7,3150.1,3151.6,3158,3159.6,3156.4,3159.6,3162.8,3159.7,3151.6,3151.6,3148.4,3146.8,3146.8,3153.2,3154.8,3159.6,3159.8,3164.7,3164.7,3166.4,3168.1,2847.5,2839.3,3156.8,3150.6,3150.5,3152.1,3153.5,3151.9,3146.9,3145.3,3142.1,3145.2,3158.2,3158.1,3161.2,3161.2,3166.1,3169.4,3169.3,3175.9,3171,3169.4,3169.4,3172.7,3167.7,3167.8,3169.4,3171,3166.2,3166.2,3167.8,3167.8,3159.6,3169.4,3171.1,3172.8,3167.7,3169.3,3162.8,3166.2,1260,1258.4,0,0,0,0,190.7,542.3,715.1,715.1,712,708.9,1761.2,1762.2,1767.1,1775.8,1784.6,1796.5,1809.1,1821.5,1827,1828.6,1829.6,1823.7,1813.4,1804.4,1790.8,1778.6,1768.2,1761.6,1756.3,1751.3,1748.3,1743.9,1741.4,1738.9,1735.9,1733.5,1731,1731,1729.3,1726.8,1725.3,1724.4,1723.4,1722,1721,1720,1719.6,1719.1,1718.2,1719.1,1719.6,1720.5,1719.9,1722.8,1723.4,1723,1723.5,1726.4,1726.8,1728.2,1728.3,1729.7,1731.2,1731.6,1732.6,1733,1734,1735,1735.5,1738,1737.5,1738,1739.5,1740,1740.9,1739.9,1738,1736,1732.5,1728.5,1723.5,1717.7,1713,1709.3,1705.6,1700.7,1695,1690,1686,1682.6,1680.8,1675.8,1671.5,1668,1665.2,1662.6,1660.8,1659,1658,1656.6,1656.6,1657.5,1663,1670.2,1680.8,1694.7,1709.8,1730.2,1754.1,1778.4,1805.1,1829.8,1851.4,1873.8,1896,1913.2,1928.4,1940.2,1952.4,1963.6,1972.8,1981,1989.2,1994.2,2001.7,2012.7,1821.7,2020.3,2011.1,1993.5,1975.1,1952.1,1926.3,1897.4,1861.8,1829.7,1803.5,1778.3,1758.8,1738.3,1717.4,1695.9,1673.9,1653.9,1634.9,1618.1,1606,1593,1583,1573.8,1567.4,1561,1555.1,1551.9,1548,1542.7,1538.1,1532.7,1528.5,1524.4,1521,1517.7,1515,1513.4,1514.2,1514.2,1514.6,1512.1,1510.6,1509.4,1507.8,1504.2
0,0,0,0,0,0,240.6,965.1,1440.7,2155.9,2158.9,2158.8,2158.7,2161.6,2165.5,2170.2,2174.9,2179.7,2420.3,2424.2,2428,2429.7,2434.4,2436.3,2436.2,2435,2435,2435.2,2434.2,2434.1,2433.1,2430.2,2429.2,2429.1,2428.1,2429.1,2427.2,2427.2,2428.3,2429.2,2428.4,2429.4,2429.4,2429.4,2428.4,2426.6,2424.8,2423.9,2423.9,2421.9,2422,2420.3,2423.2,2422.6,2423.8,2423.1,2423.2,2420.6,2422.6,2423.9,2424,2423.2,2423.5,2424.7,2425.9,2426.7,2427.9,2427.9,2428.7,2428.5,2429.2,2428.2,2427.8,2428.7,2430.5,2430.5,2430.5,2430.4,2429.3,2427.3,2422.3,2420,2417.8,2411.8,2409.6,2406.8,2400.3,2399.4,2397.7,2400.6,2398.9,2400.9,2402.1,2403.2,2405.1,2406,2406.2,2405.3,2403.5,2400,2398.2,2394.8,2392.2,2389.4,2383.8,2376.9,2368.9,2358.3,2345.1,2323.6,2293.9,2239.1,2186.3,1924.2,1877.9,2051.7,2015.8,1981.3,1956.8,1946,1943.6,1937.9,1934.1,1934.2,1934.2,1934.9,1933.7,1933.7,1934.3,1933.6,1938.5,1945.2,1946.5,1948.3,1951.3,1959.4,1967.7,1974.6,1989.2,1993,1805.3,1427.4,2096,819.8,823.2,2027.1,2288.2,2347.8,2099.1,2108.5,2110.4,1865.3,1866.9,2353.6,2103.5,1863.3,2344.2,2344,2342.6,2353.8,2361.9,2371.9,1914.4,1686.2,981.6,995.4,1006.6,1020.2,1033,1048.3,1061.8,1075.8,1088.8,1102.2,1117.2,1132.6,2296.8,2910.7,2953.5,2993.6,3029.5,3064,3088.5,3107.1,3126,3142,3150.1,3142,3140.5,3131.2,3128,3126.4,3125,3115.4,3110.9,3106.1,3102.9,3101.3,3102.9,3101.1,3102.7,3104.2,3108.8,3108.7,3113.4,3116.6,3119.7,3122.9,3129.3,3127.7,3129.3,3132.5,3135.7,3134,3132.4,3132.4,3140.4,3143.6,3143.6,3148.4,3146.8,3146.8,3142,3140.4,3145.2,3143.6,3137.3,3145.3,3146.9,3146.9,3148.5,3151.6,3150,3153.4,3153.4,3158.4,3153.5,3147,3143.9,3142.3,3142.3,3143.7,3140.5,3142.1,3135.7,3134.1,3138.8,3145.2,3145.2,3146.8,3153.2,3153.2,3156.4,3162.8,3164.4,3158,3154.8,3153.2,3158.1,3153.2,3154.9,3158.1,3159.7,3158.1,3161.3,3159.7,3159.7,3154.8,3158,3159.6,3158,3156.4,3153.2,3148.4,3146.8,2516.8,628.4,0,0,0,0,187.7,551,722.6,720.4,714.6,710.9,1591.7,1769.1,1772.7,1782.1,1788.9,1803.4,1814.1,1825.3,1827.6,1828.5,1829.5,1823.7,1814,1803.4,1790.7,1776.6,1767.7,1761.7,1755.3,1750.3,1747.3,1743.4,1740.4,1738.9,1735.1,1733.5,1732.5,1729.5,1729.3,1726.8,1725.8,1723.8,1723.4,1722.4,1720.5,1719.5,1719,1718,1717.6,1719.1,1719.1,1720,1720,1720.8,1722.3,1721.3,1722.3,1723.4,1723.8,1724.8,1726.3,1726.7,1727.6,1728.6,1729.5,1731,1731.5,1732.5,1734,1736,1738.5,1739.4,1741.8,1742.2,1745,1743.7,1743.8,1742.9,1738.9,1737.5,1735,1729.5,1725.6,1721.7,1718.7,1713.9,1711.6,1707,1702.8,1698,1695,1691.9,1686.7,1682.2,1678.9,1676.1,1673.8,1671.6,1670,1670,1669.7,1670.6,1676.7,1684.1,1694.1,1707.4,1724.8,1741.8,1762.9,1782.5,1805.5,1826.5,1845,1862.9,1880.8,1894.4,1907.8,1920.4,1930.2,1939.7,1948.6,1957.1,1965.2,1970.7,1978.2,1987.1,1995.4,1996.5,1990.5,1975.8,1959.7,1941,1919.7,1893.3,1860.1,1828.5,1801.9,1780.4,1759.8,1740.2,1718,1694.6,1673.8,1653.6,1635.8,1619.4,1603.4,1592.2,1581,1572.2,1565,1558.6,1553.1,1549.1,1544.2,1539.7,1534.6,1529.6,1526.7,1523,1518.1,1515.4,1512.3,1511.5,1511.1,1511.5,1510.9,1509.7,1509,1507.1,1504.8,1503
0,0,0,0,0,0,0,962.2,1200.1,2153.1,2155.9,2156.9,2158.7,2159.6,2164.4,2168.3,2172.9,2176.7,2418.2,2419.2,2421.1,2425.8,2431.4,2432.4,2432.3,2434.2,2434.3,2433.2,2433.2,2432.2,2432.1,2429.1,2429.1,2429.1,2427.2,2428.2,2427.2,2426.3,2427.3,2426.4,2426.4,2428.4,2428.5,2427.5,2425.6,2424.8,2422.9,2421.9,2421.9,2419.9,2420.9,2419.4,2421.2,2422.5,2423.8,2424.1,2423.3,2423.5,2423.7,2425.8,2425,2425.5,2428.6,2427.9,2426.9,2428.1,2428.9,2428,2426.8,2427.6,2430.1,2429.9,2429.8,2430.7,2432.7,2434.6,2432.5,2434.3,2434.2,2429.3,2426.2,2423.9,2419.8,2416.5,2412.5,2408.5,2402.1,2402.9,2403.1,2403.3,2404.5,2405.6,2408.6,2410.6,2409.7,2410.9,2410.9,2410.1,2411.2,2406.6,2403.9,2402.2,2397.4,2392,2389.1,2383.6,2371.9,2357.5,2345.1,2320.5,2289.3,2231.6,2181.5,2130.4,2084.6,2046.9,2015.7,1981.3,1958,1947.2,1946,1940.6,1936.1,1934.2,1934.9,1934.3,1933,1933.6,1933.7,1934.3,1939.1,1947.1,1948.3,1950.1,1954.4,1962.1,1968.3,1976,1988.5,1993.7,1805.2,1430.2,2104.2,819.8,822.5,2281,2306.4,2358.7,2364.1,2367,2364.8,2365.3,1872,2118.1,2110.6,2108.7,2350,2347.3,2345.3,2355.9,2364.6,2371.7,2387.2,2404.1,2423.2,2441.6,2460.2,2481.4,2502.1,2529.2,2562.7,2603.5,2645.6,2700.7,2478.4,2796.8,2847.3,2895.3,2939.2,2987.8,3020.5,3052,3073.1,3090.2,3111.8,3122.8,3129.3,3119.9,3116.8,3104.2,3101.1,3101.1,3101.1,3093.4,3087.3,3084.2,3079.5,3081.1,3081,3081,3079.4,3083.9,3088.6,3091.7,3094.8,3096.4,3102.6,3104.3,3109,3110.5,3112,3112,3118.3,3119.8,3116.7,3119.6,3126,3124.4,3129.2,3132.4,3137.2,3137.2,3132.5,3134.1,3132.5,3130.9,3129.3,3132.5,3142.1,3137.3,3138.9,3142.1,3142.1,3142,3145.2,3145.4,3142.1,3139,3134.3,3134.3,3137.5,3138.9,3134.1,3132.5,3129.3,3129.3,3132.4,3138.8,3135.6,3135.6,3142,3143.6,3142,3150,3151.6,3142,3137.2,3140.4,3142,3137.2,3137.2,3142,3143.6,3143.6,3146.8,3150,3153.2,3145.2,3151.6,3150,3146.8,3145.2,3140.4,3135.6,3129.3,3126.1,2175.6,611.5,0,0,0,0,0,0,0,361.2,712.6,1774.2,1772.2,1775.8,1783.6,1789.8,1800.2,1812.4,1821,1824.2,1824.8,1825.3,1820.9,1813,1802.4,1789.8,1776.1,1767.8,1760.2,1753.8,1750.3,1746.8,1744.4,1740.5,1739,1735.6,1734.1,1732.5,1730.5,1728.7,1726.8,1725.8,1724.3,1723.4,1721.4,1720,1719,1719,1719,1718.1,1719.5,1719.5,1719.9,1720.4,1720.9,1720.4,1721.4,1721.2,1721.7,1722.2,1723.2,1722.7,1725.1,1725.1,1726.1,1727.1,1728.1,1731.1,1731.1,1732.6,1735,1737,1740.4,1742.7,1744.6,1746.5,1747.8,1747.4,1747.4,1747.5,1745.3,1743.3,1740.9,1737.4,1734.9,1732.9,1730.4,1726.5,1722.6,1718.8,1715.4,1712.1,1708.2,1703.6,1698.8,1694.1,1690.9,1688.1,1686.7,1685.5,1684.5,1684.5,1685.3,1691.4,1697.8,1708.7,1720.4,1735,1751.5,1768.4,1785.1,1805.5,1821.5,1835.6,1849.8,1864.5,1876.9,1888.5,1898.3,1908.5,1917.8,1926.3,1933.7,1939.8,1947.2,1954.4,1963.1,1970.6,1972,1966,1955.5,1941.2,1927.2,1910.7,1694.7,1856.4,1829.3,1805,1784.1,1763.6,1744.3,1722.3,1699.8,1676.8,1656.8,1638.4,1621.5,1606.4,1592.6,1580.6,1570.6,1562.6,1555,1549.5,1546,1540.8,1536.9,1532.7,1528.5,1524.8,1520.6,1516.9,1513.9,1511.1,1508.9,1509.3,1509.3,1509.7,1508.2,1507.5,1505.5,1503.8,1500.5
0,0,0,0,0,0,0,1200,1676.5,2153,2154.8,2154,2155.8,2160.6,2164.5,2167.3,2173.8,2175.7,2418.1,2418.2,2418.1,2421.9,2424.7,2427.6,2429.5,2429.4,2429.4,2428.5,2428.5,2429.3,2428.2,2426.3,2427.3,2427.3,2426.3,2425.3,2426.4,2424.5,2425.4,2425.5,2426.5,2427.5,2427.6,2426.7,2424.7,2421.8,2421,2419.9,2419.9,2419.9,2416.1,2417.2,2419.3,2422.4,2422.5,2424.8,2426.1,2425.3,2426.7,2426.8,2426.9,2427.4,2428.6,2428.4,2428.6,2429.8,2431.8,2431.5,2429.6,2431.1,2431.1,2431.8,2433.7,2432.6,2433.6,2435.4,2436.4,2435.5,2435.2,2432.2,2429,2424.8,2419.7,2417.6,2413.5,2409.6,2404.8,2405.6,2405.9,2406.2,2408.2,2409.4,2411.6,2411.8,2416.5,2417.6,2417.6,2416.7,2417.8,2414.9,2411.3,2407.4,2404.4,2398.7,2392.2,2383.9,2371.3,2360.5,2342.9,2319.9,2283.3,2228.3,1961.5,2126.7,2081.1,2044.1,2013,1982.6,1959.8,1949,1945.4,1940,1936.8,1933.6,1933.6,1932.3,1932.3,1932.3,1931.6,1934.2,1939.7,1947.1,1949.5,1951.3,1956.8,1963.3,1971,1977.5,1988.5,1991.7,1804.1,1431.5,2107.2,819.8,822.5,2297.5,2320.8,2368.8,2123.1,2123.1,2125.3,2127.9,2127.5,2370.5,2122.2,2111.5,2355.8,2354.9,2353.3,2362.8,2368.7,2374.8,2390.2,2405.2,2422.2,2439.6,2460.1,2481.3,2499,2526.8,2561.2,2602.5,2646.4,2694.7,1382.1,2791.8,2836.8,2885.9,2935,2976.5,3007,3035.5,3055.1,3074.6,3088.5,3096.4,3099.6,3094.8,3084,3076.4,3076.5,3076.5,3076.4,3071.7,3065.7,3062.8,3058.1,3056.6,3059.6,3061.1,3062.6,3064.1,3068.6,3071.7,3076.2,3079.2,3083.9,3088.6,3090.2,3090.2,3091.7,3093.4,3096.3,3096.3,3093,3096.2,3107.2,3108.7,3111.9,3118.2,3121.4,3124.5,3121.3,3122.9,3121.3,3121.3,3118.2,3123,3126.2,3127.7,3129.3,3129.3,3134.1,3132.5,3135.7,3132.6,3132.6,3127.8,3123.2,3123.2,3126.3,3126.3,3124.7,3124.6,3124.7,3119.9,3121.4,3126.1,3126.1,3124.5,3126,3127.6,3127.7,3129.3,3127.7,3122.9,3121.3,3121.3,3122.9,3121.3,3121.2,3126,3127.6,3130.8,3135.6,3138.8,3138.8,3135.6,3138.8,3140.4,3134,3132.4,3127.6,3121.4,3111.9,3104.2,1539.7,1218.2,0,0,0,0,0,0,0,364.9,897.3,1778,1772.9,1773.8,1780.5,1784.6,1794.3,1802.8,1812.4,1815.5,1818.7,1818.7,1817.2,1809.6,1800.8,1788.8,1776.1,1767.3,1760.1,1754.3,1750.8,1746.5,1743,1739.5,1738.5,1736.6,1733.1,1731.5,1730,1728.2,1726.8,1726.3,1723.8,1722.8,1721.9,1719.4,1718.9,1718.4,1718.9,1718.9,1718,1719.9,1719,1719.5,1720,1720,1718.5,1719,1719.4,1719.4,1721.3,1721.3,1722.8,1724.7,1725.7,1726.6,1728.6,1729.6,1731.1,1732.5,1735,1736.5,1739.5,1743.2,1746.1,1747.8,1748.8,1750.2,1751.8,1752.3,1751.2,1751.2,1749.5,1747.8,1746.4,1744.4,1742.9,1740.4,1735.9,1732.4,1729,1726.1,1722.6,1718.3,1714.4,1711.1,1706.9,1705.4,1702.6,1702.1,1700.1,1700.6,1701.2,1706.8,1713.1,1721.8,1733,1744.6,1757.9,1772.1,1786.6,1803.8,1816,1826.8,1839.1,1850.8,1860.1,1870.2,1880.5,1889.7,1897.8,1904.9,1912.5,1919.4,1924.7,1930.3,1938,1946.7,1948.7,1944.5,1937.3,1926.4,1914.4,1713.4,1880.2,1855.9,1832.2,1809.5,1789.3,1772,1753.6,1734.7,1713.3,1690.9,1671.4,1652.1,1633.2,1616,1601.7,1587.6,1574.2,1564.2,1556.2,1548.7,1543.4,1539.7,1535.8,1531.5,1528.1,1523.2,1519.2,1515.8,1513.4,1510.1,1507.9,1507,1507.5,1507.4,1506,1506,1504.6,1502.9,1501
0,0,0,0,0,0,0,241.5,1438.9,2153.1,2157.6,2156.7,2156.7,2158.7,2163.4,2167.1,2171.8,2174.5,2415.3,2415.4,2417.2,2418.1,2420.9,2422.7,2424.7,2425.7,2424.7,2423.7,2424.6,2426.5,2426.4,2424.5,2424.6,2424.5,2423.6,2423.5,2424.5,2424.5,2423.6,2425.5,2423.6,2424.6,2423.7,2422.8,2421.8,2421.7,2417,2417,2416,2416.2,2415.3,2415.2,2418.2,2419.4,2420.7,2423.9,2426.1,2424.3,2426.6,2427.7,2427.9,2429.1,2430.3,2430.6,2429.6,2429.9,2431.8,2432.7,2430.6,2433.3,2433,2432.7,2432.6,2433.5,2435.4,2436.4,2437.3,2436.4,2435.5,2431.3,2431.2,2427,2422.7,2420.5,2414.5,2410.6,2406.7,2405.9,2405.2,2178.4,2407.7,2409.9,2410.2,2412.3,2415,2419.8,2419.8,2419.7,2421.6,2418.5,2416.7,2412,2406.1,2399.6,2393.2,2382,2370.6,2358,2340.5,2316.8,2279.9,2222.7,2170.7,1486.1,2076.9,2040.8,2010.6,1981.9,1960.4,1949.6,1946.6,1941.2,1937.5,1934.2,1934.2,1930.3,1929,1930.2,1930.2,1932.8,1940.4,1947.1,1948.9,1950.6,1956.8,1965.2,1969.2,1976.2,1986.3,1989.9,1606.7,1018.3,2110.9,819.8,821.7,2317.1,2339.5,2385.2,2391.8,2393.4,2389.2,2387,2139.1,2384.6,2132.3,2372.9,2366.6,2364.7,2362.7,2366.8,2379.2,2382.4,2396.1,2410,2424,2444,2462.8,2480.2,2501.6,2528.6,2563.1,2603.2,2647.4,2420.9,2736.1,2782.9,2828.9,2877.8,2924.1,2962.2,2993.7,3019,3037,3047.5,3059.6,3071.7,3073.3,3067.2,3062.6,3055.1,3055.1,3055.1,3052.1,3052.1,3046.1,3044.6,3041.6,3041.5,3043,3044.5,3049,3052,3052,3056.5,3062.5,3064.2,3065.7,3065.7,3067.2,3068.7,3070.2,3070.2,3071.7,3073.3,3071.9,3076.3,3083.9,3091.7,3093.2,3101.1,3102.6,3107.2,3105.7,3105.6,3104.1,3105.7,3104.2,3107.3,3107.3,3113.5,3113.5,3113.5,3111.9,3118.4,3120,3118.4,3119.9,3112,3115.2,3115.2,3115.1,3116.8,3116.7,3115.1,3110.4,3108.8,3108.9,3115.1,3112,3112,3108.9,3107.3,3107.2,3108.9,3110.4,3107.2,3105.6,3107.2,3108.8,3104.1,3108.7,3110.3,3111.9,3115,3118.2,3122.9,3127.7,3126.1,3132.4,3129.3,3127.7,3122.9,3115.1,3107.2,3099.6,3085.6,2134.4,2418.5,588,0,819.7,494.3,0,0,0,0,897.2,1426.7,1771.4,1770.5,1771.4,1772.9,1780.9,1789.6,1795.9,1804.9,1809.9,1811.9,1810.8,1806.1,1797.5,1788.3,1776.5,1768.8,1761.2,1755.7,1751.9,1747.4,1743.5,1741,1738.5,1736,1733.5,1731,1730,1728.1,1726.7,1725.3,1723.8,1723.3,1722.8,1720.8,1719.8,1720.3,1719.4,1718.9,1718.9,1718.5,1718,1717,1717.5,1718,1717,1717.4,1717.9,1718.4,1718.4,1719.4,1720.2,1721.7,1722.2,1724.1,1726.1,1727.5,1730.5,1732.5,1734.5,1737,1739.5,1743.6,1746.6,1749.3,1750.9,1752.8,1753.3,1755.2,1756.6,1756.6,1756.2,1755.2,1753.7,1753.8,1751.9,1750.4,1747.1,1743.2,1740.2,1737.8,1735.9,1732,1727.6,1723.6,1720.8,1719.8,1716.5,1715.9,1715.4,1715.4,1716.8,1721.2,1727.6,1734.9,1743.1,1754.3,1765.3,1777.6,1788.5,1802.7,1810.6,1820.6,1830.9,1839.1,1847.7,1855.4,1864.3,1872.8,1878.7,1886.6,1892.6,1899.2,1904.1,1910.3,1916,1922.8,1926,1923.7,1917.7,1910.1,1899.8,1889.9,1874.4,1853.4,1833.5,1813.8,1795.1,1778,1762.3,1744,1725.2,1706.3,1687.3,1669.1,1650.8,1633.6,1616.2,1600.9,1585.6,1572.2,1562.2,1554.3,1545.9,1541.2,1536.2,1532.3,1528.1,1524.3,1520.6,1516.6,1513.5,1510.8,1507.9,1507.8,1506.8,1506,1505.7,1505.3,1504,1502.9,1500.5
0,0,0,0,0,0,720.8,1195.4,1673.8,2153.1,2155.8,2156.7,2157.7,2161.4,2163.3,2167,2172.7,2173.7,2413.4,2414.3,2416.2,2417.1,2419,2420.9,2422.8,2423.8,2422.8,2421.7,2422.5,2424.5,2423.6,2424.6,2423.6,2422.6,2422.6,2423.5,2423.6,2422.7,2422.7,2422.7,2420.7,2419.8,2420.9,2420.8,2418.9,2417.9,2415.1,2414.1,2416,2413.3,2412.4,2413.3,2415.3,2417.2,2418.5,2420.6,2424.8,2424.2,2424.3,2427.6,2429.6,2429.9,2431.3,2429.5,2429.8,2430,2429.7,2431.6,2430.4,2430,2429.8,2427.4,2428.9,2431.7,2430.7,2431.7,2431.6,2431.5,2430.4,2426.6,2169,2422.4,2168.1,2167.2,2167.2,2405.9,2402.3,2173.7,2177.4,2179.3,2184,2186,2190.8,2192.6,2193.6,2196.6,2200.4,2199.4,2198.3,2198.3,2194.4,2188.8,2404.5,2396.1,2387.7,2379.6,2364.3,2352.1,2334.6,2308.3,2271.2,2215.7,2162.2,1905.1,2072.1,2037.5,2007.6,1981.3,1960.5,1950.8,1948.4,1943,1938.8,1935.5,1932.9,1929.6,1928.4,1930.2,1930.8,1932.2,1939.8,1945.9,1948.3,1950.1,1957.1,1964.2,1968,1973.9,1985.1,1987.7,1797.2,811,1684.5,819.7,822.4,2343,2362.5,2406,2411,2412.5,2408.5,2402.8,2152.2,2396.7,2392.3,2389,2383.4,2378.4,2372.7,2378.2,2386.3,2391.1,2400.3,2412.9,2429.6,2445.1,2463.9,2480,2500.4,2532.6,2568.2,2603,2648.5,2420.9,2737.4,2780.3,2825,2871.1,2916.1,2949.1,2977.9,3001.1,3011.6,3025,3038.5,3049.1,3047.6,3049.1,3041.5,3035.5,3037,3038.5,3037,3035.5,3034,3031,3026.5,3025,3029.5,3035.5,3034,3034,3040,3043,3047.5,3049,3049,3049,3046,3046,3044.5,3047.5,3047.5,3046,3046,3052,3061.1,3067.2,3076.2,3079.3,3080.8,3084,3087.1,3087,3088.6,3088.6,3088.6,3088.6,3093.4,3094.9,3096.5,3096.5,3096.5,3099.5,3101,3102.6,3102.6,3101,3099.4,3097.8,3097.9,3098,3099.5,3098.1,3095,3096.5,3096.5,3096.5,3091.8,3090.1,3090.2,3087.1,3085.7,3087.2,3087.2,3084,3082.4,3085.4,3088.5,3088.5,3091.7,3094.7,3097.7,3102.3,3105.4,3105.4,3113.4,3111.8,3113.4,3113.4,3110.4,3110.3,3104,3093.3,3076.4,3055.1,2117.9,2091.4,884.2,846.2,812.7,747.3,710.6,225.6,0,0,913.4,1253.8,1598.9,1767.3,1764.8,1761.7,1767.8,1775.4,1782.5,1792.3,1797.5,1801.3,1803.8,1801.9,1797,1786.7,1777,1769.1,1763.3,1757.2,1753.3,1749.5,1746.4,1741.5,1740,1737.9,1735.4,1732.4,1730.9,1729.5,1727.6,1727.6,1725.2,1724.2,1723.7,1722.7,1721.8,1720.4,1719.4,1719.4,1717.4,1717.9,1717.9,1717.5,1717.9,1716.9,1716.9,1716.5,1716,1716.5,1717.4,1718.2,1718.7,1719.2,1721.1,1722.6,1725.5,1727.5,1728.5,1731,1733.5,1737,1739.8,1742.7,1746.1,1749.1,1751.4,1752.8,1755.6,1757.6,1758.6,1759.1,1758.1,1758.6,1757.6,1757.6,1756.6,1755.1,1752.7,1750,1747.6,1745,1742.1,1739.8,1736.9,1733.4,1730.5,1729.5,1728.5,1728.5,1728.1,1729.6,1730.5,1734.5,1739.7,1746.7,1753.8,1762.8,1771.4,1780.7,1791.5,1802.1,1809.3,1816.2,1823.8,1830.1,1837.8,1843.7,1852,1856.5,1862.8,1869.1,1874.3,1880.8,1885.5,1889.6,1895.8,1902,1903.3,1901.6,1898.6,1892.8,1885.3,1878.1,1866.1,1849.7,1834.1,1815.4,1800.6,1784.8,1589.3,1752.7,1735.9,1718.1,1702.3,1685.7,1670.3,1653.7,1637,1619.9,1602.6,1588.5,1575.8,1565,1554.7,1546.7,1539.6,1534.3,1530.9,1526.3,1522,1518.5,1515.1,1511.2,1508.9,1507.5,1506.4,1505.6,1504.2,1503.9,1503.2,1500.9,1498.6
0,0,0,0,0,0,242.4,1193.5,1917.1,2156.8,2159.6,2158.6,2160.5,2162.3,2164.2,2168.9,2171.8,2173.7,2413.3,2414.2,2415.1,2417.1,2417.2,2417.1,2419,2420.7,2421.7,2420.7,2420.6,2422.6,2423.6,2422.6,2423.5,2423.5,2421.6,2422.6,2421.6,2423.5,2420.7,2422.7,2419.9,2418.9,2420.7,2417.9,2417,2416.9,2413.2,2412.3,2411.4,2412.3,2411.4,2411.4,2413.3,2414.5,2416.6,2420.6,2426.7,2424,2426.2,2427.5,2430.6,2430,2430.1,2430.5,2429.9,2428.8,2428.7,2430.6,2431.4,2430.1,2428.5,2422.2,2423.7,2169.7,2425.2,2427.2,2427.1,2427,2424,2421.1,2170.7,2416.1,2170.8,2169.9,2169,2402.4,2171.8,2400.2,2178.3,2180.2,2184,2188.9,2190.8,2191.7,2195.5,2196.5,2198.5,2199.4,2199.4,2197.3,2194.4,2188.8,2181,2393,2384.5,2375.4,2361.8,2347.7,2332.4,2305.2,2063.7,2211.1,2156.1,1899.3,1856.4,2033,2003.4,1980,1962.4,1951.4,1949,1944.2,1940.6,1935.5,1934.2,1929,1927.8,1928.9,1930.8,1932.2,1939.2,1946.5,1948.9,1950.8,1957.7,1963.6,1967.7,1971.6,1984.1,1986.4,1995,809.6,1687.8,819.7,1358.2,2375.5,2398.9,2430.2,2435.7,2436.2,2432.7,2427.4,2425.5,2417.1,2411.2,2403.5,2395.8,2392.4,2387.4,2389,2398,2399.1,2410,2420.8,2432.7,2196.6,2465.8,2480.9,2502.4,2534.4,2567.9,2606.9,2649.5,2688.6,2732.5,2772.9,2812,2861.7,2898.1,2931,2956.5,2979.4,2990.9,3001.1,3011.5,3019,3020.6,3022.1,3022.1,3013.2,3014.6,3013.1,3013.1,3011.7,3013.2,3011.7,3005.7,3008.6,3011.6,3014.6,3017.6,3020.6,3022,3025,3031,3037,3038.5,3031,3029.5,3026.5,3025,3022,3023.5,3019,3022,3025,3032.5,3043,3047.5,3050.6,3052.1,3059.7,3064.2,3068.7,3067.2,3068.7,3071.8,3070.3,3071.9,3071.9,3076.4,3071.9,3070.2,3071.8,3073.3,3079.6,3079.6,3078.1,3074.9,3077.9,3076.4,3076.5,3078,3075,3076.5,3074.9,3077.9,3076.4,3071.9,3070.3,3062.7,3062.7,3065.7,3061.1,3062.6,3061.1,3059.6,3064.2,3065.7,3068.7,3070.2,3076.2,3077.8,3085.7,3087.3,3088.8,3091.8,3096.3,3096.3,3097.9,3093.3,3087.2,3084.2,3071.8,3052,3034,2098.6,1782.2,1157.9,1397.1,557.5,1302,710.6,468.5,0,0,915.3,1260,1778.5,1586.7,1753.4,1745.5,1753.4,1759,1766.1,1777.5,1786.5,1791.5,1795.3,1798.4,1794.8,1786.2,1777,1769.8,1764.2,1758.6,1754.3,1750.4,1746.8,1742.9,1741.4,1739.2,1735.8,1734.8,1731.9,1731,1730,1728.1,1727.1,1724.6,1725.1,1724.1,1722.8,1721.2,1720.3,1719.3,1719.3,1718.4,1717.9,1715.9,1716.4,1716.4,1715.5,1715,1715,1715,1714.9,1716.8,1717.8,1717.8,1719.3,1720.5,1724,1726,1729,1730.5,1733.5,1736,1739.8,1743.7,1746.5,1749.1,1751.9,1753.9,1757.2,1758.7,1759.7,1761.9,1761.8,1760.7,1761.3,1760.3,1760.1,1758.6,1756.1,1754.6,1752.4,1751.4,1748.5,1747.5,1742.7,1740.7,1738.8,1738.3,1737.3,1737.8,1739.7,1740.3,1742.3,1746.4,1751.5,1756.6,1763.2,1771.3,1777,1784.3,1792,1801.5,1807.2,1812.4,1818.9,1824.2,1829.6,1834.4,1841.6,1846.1,1852.2,1855.8,1859.9,1864.1,1868.8,1873.5,1877.1,1882,1883.8,1883.3,1880.5,1878.7,1872.8,1866.6,1857.4,1844.5,1832.1,1818.5,1620.5,1791.5,1777,1763.6,1568.5,1732.7,1718,1703.9,1690.2,1676.3,1659,1643.9,1626.9,1609.8,1595.5,1582.6,1570.2,1560.2,1550.7,1542.7,1537,1531.2,1526.3,1520.9,1518.1,1513.9,1510.1,1508.2,1506.3,1504.6,1504.2,1502.9,1501.7,1499.8,1497.5
0,0,0,0,0,0,244.4,1437,2156.7,2160.5,2161.5,2158.6,2160.5,2167.1,2168,2170.8,2171.8,2175.7,2412.4,2413.3,2416.1,2416.1,2419.1,2419.1,2418.9,2418.8,2419.7,2419.7,2418.7,2420.6,2420.7,2420.7,2422.6,2421.6,2420.7,2422.5,2422.5,2420.6,2419.8,2420.8,2419.8,2417,2418.9,2416.9,2414,2413.1,2410.3,2411.3,2409.5,2409.4,2409.4,2410.5,2409.5,2413.5,2415.6,2419.6,2423.9,2424.8,2426.1,2429.3,2428.5,2431.5,2431.9,2429.3,2429.4,2426.7,2427.6,2427.5,2427.3,2425.8,2424.3,2165.2,2168,2169.9,2171.8,2424.9,2425,2423.1,2420.1,2416.2,2170.8,2414.2,2172.7,2170.8,2169.9,2401.5,2398.5,2397.8,2175.5,2182.2,2184.2,2189,2190.8,2190.8,2193.6,2197.5,2199.4,2197.5,2197.4,2194.5,2190.7,2184.9,2180.2,2389.5,2377.5,2368.7,2356.8,2343.7,2326.4,2095.3,2265.7,2207.2,2152.6,1890.2,1853.6,2029.5,2001.3,1978.2,1963,1953.2,1952,1945.4,1941.2,1938.1,1936.1,1930.9,1930.3,1930.8,1932.2,1933.5,1939.2,1947.1,1949,1948.9,1956.6,1959.9,1962.8,1966.8,1982.3,1801.3,1998.6,1000.7,1254.1,819.7,822.4,2407.8,2432.6,2460.6,2199.1,2464.3,2457.1,2450.2,2446.4,2435.9,2425.5,2419.4,2414.4,2408.8,2404.3,2404.2,2409.4,2411,2420.8,2426.9,2441.6,2200.6,2469.6,2485.8,2510.2,2538.3,2573.3,2614.4,2653.8,2695.5,2733.6,2776.5,2813.3,2856.2,2887.1,2917.4,2940.6,2957.8,2966.5,2979.4,2989.5,2995.3,2995.4,2999.8,2999.9,2991.1,2988.2,2989.6,2992.5,2992.5,2995.4,2991.1,2989.7,2989.7,2995.5,2998.4,2999.9,2999.9,3007.2,3011.6,3016.1,3020.5,3020.5,3014.5,3007,3005.5,3004.1,3005.6,2999.6,2996.7,2995.4,2998.3,3007.1,3013,3020.5,3025,3032.5,3035.5,3041.5,3047.5,3047.5,3049,3052,3050.5,3053.5,3050.5,3052,3050.5,3049,3049,3053.6,3053.6,3053.6,3052,3052.1,3055.1,3056.6,3058.1,3058.2,3056.7,3058.2,3055.2,3052.2,3053.7,3052.1,3044.6,3043,3038.5,3037,3040,3038.5,3035.5,3038.5,3040,3044.5,3046,3049,3055,3061,3065.6,3070.1,3073.2,3074.8,3074.8,3077.9,3078,3073.2,3067.1,3061.1,3044.5,3028,3002.8,2680.6,2358.7,1438.9,1117.4,1370.9,1788.6,1626.8,652.3,201.2,193.7,1115.5,539.1,1427.7,1584.8,1745.4,1732.1,1736.9,1742.1,1751.2,1763.7,1774.5,1782.5,1788,1792.8,1792.8,1787.7,1780.2,1771.8,1765.7,1760.6,1756.6,1752.2,1748.8,1744.7,1742.2,1740.1,1738.1,1735.3,1733.3,1731.9,1729.9,1729.6,1728.1,1727.1,1726.2,1725.6,1723.7,1721.7,1721.2,1720.7,1719.3,1717.8,1716.8,1715.9,1715.4,1715.4,1714.4,1712.5,1712.5,1712.5,1713,1715.3,1715.3,1716.3,1717.8,1719.7,1721.5,1724.5,1727,1730,1733.5,1735.8,1739.8,1743.7,1747.6,1749,1751.9,1755.7,1757.7,1760.8,1762,1762.5,1761.9,1762.4,1762.9,1763.6,1763,1761.3,1759.2,1757.2,1754.5,1753.6,1752.2,1751.2,1748.5,1746.1,1744.1,1744.6,1744.6,1746.6,1748.4,1749.9,1751.4,1755,1760.1,1765.8,1770.8,1776.5,1781.7,1787.2,1792.4,1800.2,1805.7,1810.8,1816,1820.3,1823.7,1829.1,1834.6,1836.9,1840.9,1846.7,1849.1,1852,1857.3,1860.9,1863.9,1866.8,1868.1,1867.6,1865.9,1864.4,1861.4,1855.7,1850.6,1842,1833.1,1821.9,1811.3,1800.1,1789,1776.6,1761.8,1584.7,1736.5,1723.8,1710.4,1697.7,1343.9,1500.4,1650.6,1635.7,1619.7,1605.7,1592.2,1581,1569.4,1559.8,1549.8,1543,1536.2,1529.3,1523.6,1518.5,1513.5,1509.4,1507.9,1505.6,1503.5,1502.1,1500.5,1498.8,1495.4
0,0,0,0,0,0,490.6,972.6,2163.4,2164.4,2162.4,2164.2,2165.2,2167.1,2170.7,2174.5,2174.6,2178.4,2414.3,2415.3,2416.3,2416.3,2416.3,2417.3,2418.1,2419,2419.7,2419.7,2419.7,2420.6,2419.8,2418.8,2419.8,2418.9,2417.9,2419.7,2421.5,2420.7,2419.8,2419.8,2417.9,2416.8,2417.8,2414,2412.1,2409.4,2409.3,2408.4,2406.6,2407.6,2407.6,2407.7,2408.6,2412.4,2414.5,2417.7,2420.8,2422,2423.2,2426.1,2427.4,2428.4,2428.5,2426,2427.1,2423.2,2424.1,2424.3,2423.9,2161.5,2163.4,2165.2,2168,2168.9,2173.7,2418,2173.7,2174.7,2172.8,2172.8,2170.9,2171.9,2173.7,2170,2171.8,2174.6,2174.5,2175.5,2178.4,2399.8,2397,2396,2398.6,2399.5,2403.1,2196.6,2197.5,2198.4,2194.6,2192.6,2187.9,2182,2177.4,2168,2372.8,2361.1,2349.2,2337.8,2323.4,2298.6,2263.3,2204.8,2151,2103.5,1852.6,2026.7,1998.6,1976.2,1961.8,1953.8,1951.4,1946,1943,1939.9,1937.4,1933.4,1931.5,1933.4,1934.8,1936.8,1940.4,1948.3,1949.6,1949.8,1953.1,1958.3,1957.7,1962.4,1981.8,1986.5,1799,997.2,815,819,1146.5,2210.1,2488.4,2507.1,2510.8,2502.4,2495,2481.2,2207.8,2457.7,2446,2437.5,2430.3,2422.2,2415.7,2415.3,2422.4,2423.1,2429.9,2437.9,2446.8,2209.9,2472.6,2489.7,2514.1,2545.4,2579.6,2617.6,2658.3,2698.9,2737.2,2776.4,2812,2852.3,2879.1,2904.9,2927,2940.6,2950.6,2960.6,2967.8,2976.6,2979.3,2982.2,2983.8,2976.5,2972.3,2973.7,2972.2,2972.2,2973.7,2973.7,2972.2,2972.2,2979.4,2982.2,2983.7,2983.7,2989.6,2993.9,2999.8,3004.2,3002.6,2996.6,2990.8,2986.4,2982.1,2980.7,2977.9,2974.9,2969.2,2974.9,2983.8,2988.2,2995.3,2996.8,3004,3005.5,3016,3016,3019,3020.5,3023.5,3022,3026.5,3026.5,3029.5,3025,3026.5,3032.5,3031,3031,3032.5,3031,3031,3034,3034,3034,3032.5,3034,3035.5,3032.5,3029.5,3029.5,3028,3022,3017.7,3016.2,3014.8,3014.7,3011.7,3011.7,3017.6,3016.1,3020.5,3025,3031,3034,3041.5,3043,3047.5,3055,3055,3055,3058,3056.5,3052,3049,3037,3019.1,3001.2,2976.6,2062.7,2037.6,1143.1,838.6,1634.6,1048.5,1220.8,931.7,626.5,989.3,1538,361.2,1075.8,1402.3,1559.7,1719.8,1722.7,1728.1,1739.4,1751.4,1764.6,1774.5,1782,1788.2,1792.3,1788.2,1780.7,1773.2,1768.1,1763.3,1758.6,1755.1,1750.8,1745.2,1743.5,1740.6,1738.7,1736.3,1735.4,1732.9,1730.5,1730.6,1729.6,1727.6,1726.6,1725.1,1724.1,1723.1,1721.2,1719.8,1718.8,1717.3,1715.8,1715.3,1715.9,1714.9,1713.9,1712.5,1712,1712.9,1713.4,1714.4,1716.4,1717.2,1718.1,1719.6,1722,1725,1727.5,1730,1733.9,1736.3,1740.8,1744.7,1747.6,1750.4,1751.9,1755.8,1758.2,1760.3,1762.5,1763.5,1763.5,1762.4,1764.1,1763.5,1764.2,1762.4,1761.3,1758.2,1757.6,1756.1,1754,1753.6,1751.8,1748.9,1748.5,1749.9,1750.8,1751.4,1753.8,1755.8,1758,1762.8,1766.8,1770.9,1773.8,1778.4,1782,1787.8,1792.4,1798,1803.4,1808.2,1811.4,1815,1818.8,1823.6,1828.2,1830.5,1834,1837.5,1841,1844.7,1846.6,1849.5,1852.5,1854.9,1855.5,1855,1854.5,1853.5,1852.2,1848.1,1845,1838,1832.9,1826,1626.8,1624.1,1619.9,1614.1,1608.9,1601.1,1594.3,1585,1576.3,1722.9,1554.5,1696,1509,1497.9,1316,1636.1,1621,1608.2,1594.3,1581.9,1570.6,1559.4,1551.1,1541.5,1533.5,1525.8,1519.6,1515.2,1511.2,1507.1,1505.3,1502.7,1500,1496.9,1495.1
0,0,0,0,0,0,973.8,1698.3,2170.2,2170.1,2168,2167.1,2168.9,2170.8,2173.5,2175.4,2178.3,2179.3,2415.3,2417.2,2418.2,2419.2,2418.3,2419.3,2420.1,2417.1,2418.9,2417.9,2419.8,2419.8,2418.8,2417.9,2417.8,2417.9,2417,2418.8,2419.8,2418.9,2419.8,2417.9,2415.9,2414.9,2412.9,2412,2408.4,2407.5,2407.5,2404.7,2404.8,2404.7,2405.7,2404.8,2405.8,2408.7,2411.6,2416.7,2417.9,2419.1,2422,2424,2425,2426.2,2425.3,2424.4,2424.7,2421.6,2420.5,2421.4,2161.4,2162.4,2413.5,2166.1,2404.8,2407.6,2408.6,2409.4,2407.8,2175.4,2406.1,2404.3,2402.6,2400.9,2398.3,2395.8,2393.6,2392.8,2387.2,2390.3,2392.2,2394.3,2390.2,2390.6,2390.8,2391.7,2392.9,2394.8,2393.9,2395.2,2394.7,2393.3,2390.5,2385.5,2378.8,2371.2,2363.6,2355.7,2342.6,2331,2318.4,2293.9,2258.5,2201,2147,2100.4,1849.7,2025.3,1997.3,1974.9,1961.1,1953.8,1950.8,1946.6,1943.6,1939.2,1938,1936.1,1932.8,1934,1936.1,1937.4,1941,1947.2,1948.4,1948,1951.2,1955.4,1956.7,1960,1979.6,1987.4,1592.7,993.8,1261.3,818.3,1093.8,2270.7,2558.2,2219.7,2221.7,2220.4,2217.4,2529.9,2510.9,2488.3,2468,2457.1,2445.5,2436.1,2429.9,2430.5,2434.3,2433.3,2439.9,2447,2454.8,2463.1,2479.5,2496.7,2524.3,2554.7,2589.9,2628.7,2666.2,2706,2744.4,2782.4,2813.3,2848.4,2869.5,2896.7,2916,2928.3,2935.1,2944.8,2953.5,2959.2,2965,2970.8,2967.9,2965.2,2962.3,2962.4,2962.3,2960.7,2959.2,2959.1,2959.1,2960.6,2966.3,2966.3,2972.1,2970.6,2976.4,2979.4,2986.5,2989.3,2983.5,2980.6,2975,2970.7,2967.8,2964.9,2957.9,2955,2953.7,2953.7,2959.2,2964.9,2973.5,2972.2,2975.2,2980.9,2985.1,2986.5,2989.3,2992.1,2996.5,2996.6,3004,3002.6,2999.8,3001.3,2999.8,3004.2,3004.3,3007.2,3005.7,3005.7,3005.7,3008.7,3011.7,3010.2,3011.7,3005.8,3011.5,3013,3008.8,3007.3,3004.5,2998.6,2994.2,2994.1,2994.1,2992.5,2992.5,2995.3,2996.9,2998.3,3004.1,3005.6,3013.1,3017.6,3019.1,3026.6,3029.6,3034,3035.5,3035.6,3038.6,3040,3031.1,3025.1,3011.8,2998.4,2977.9,2953.5,2628.5,2309.1,1978.2,1623.5,1342.7,1022.6,943.2,1355.3,1744.8,1841,1738.9,722.4,894.2,1051.1,1557.5,1709.1,1712.1,1717.9,1729.5,1744.2,1757.8,1768.8,1778,1788.2,1790.8,1789.2,1783.1,1777.5,1770.2,1765.7,1760.6,1756.6,1752.1,1748.7,1745.5,1744,1740.2,1738.8,1735.9,1735.4,1732.9,1730.6,1729.6,1728.1,1727.6,1726.1,1724.7,1723.7,1721.3,1720.7,1719.2,1716.8,1716.8,1714.4,1714.3,1713.8,1713.8,1711.5,1711.5,1712.9,1713.9,1714.9,1716.8,1718.2,1718.6,1720.5,1723,1725.5,1728.5,1730.5,1733.4,1735.8,1740.8,1743.8,1747.5,1749.9,1751.9,1756.2,1758.2,1761.5,1763,1763,1763,1761.9,1763.5,1764.1,1763,1762,1759.7,1757.6,1757.1,1756.1,1756.2,1754.7,1753.3,1753.3,1752.3,1751.8,1755.5,1758,1759.5,1761.1,1763.7,1766.2,1770.8,1772.8,1776,1779.5,1782.5,1785.6,1789.6,1795.5,1800.2,1803.8,1808.3,1810.4,1813.7,1818.6,1820.8,1824.1,1826.1,1830.2,1833.2,1836.2,1839,1842,1844.3,1845,1846.9,1846.9,1845.8,1844.6,1844.6,1841.9,1840.6,1837,1833.7,1831.8,1826.5,1632.1,1631,1628.8,1626.5,1621.3,1617.5,1610.8,1603,1594.8,1583.1,1725.2,1710.9,1695,1510.2,1499.2,1653.5,1639.8,1624.5,1611.3,1596.6,1583.5,1571.8,1560.6,1549,1538.1,1530.1,1522.8,1518.1,1512,1508.8,1504.8,1501.2,1497.2,1493.9
0,0,0,0,0,488.7,1222,1937.1,2174.9,2175.8,2171.9,2170,2171.9,2174.6,2177.3,2179.1,2180.1,2182.1,2419.1,2419.2,2419.2,2419.2,2420.2,2419.2,2420.1,2420,2417.1,2418.9,2418,2417,2418.8,2417.9,2416.9,2416,2417,2418.9,2419.9,2419,2418,2416.9,2415,2413.1,2410.3,2408.4,2407.5,2406.6,2406.7,2403.7,2401,2401.9,2402.9,2402,2405.8,2407.7,2409.7,2412.9,2162.5,2418.9,2421.8,2422.7,2422.8,2423.8,2422,2422,2420.2,2417.2,2417.1,2416,2164.2,2413.4,2168.1,2169,2168,2399.6,2400.6,2401.7,2401.8,2400.9,2399.2,2396.5,2396.6,2394,2394.4,2391.8,2389.6,2389.8,2385.9,2386.3,2388.2,2390.3,2180.4,2185.1,2186.1,2187,2187.9,2189.8,2189.8,2189.9,2389.6,2388.1,2382.1,2379,2373,2367.4,2357.2,2348,2336.3,2326.3,2311.7,2291.6,2251.6,2196.9,2145,2099.8,1849,2023.9,1995.5,1975.5,1961,1953.2,1950.8,1946.6,1942.9,1941.6,1938.6,1938,1934.2,1934.7,1936.7,1939.2,1942.2,1949,1946.6,1946.9,1951.2,1952.9,1955.2,1957.8,1979.2,1986.3,1589.8,991.6,1710.1,1065.3,1096.4,1924,2236.2,2640.7,2636.5,2622.9,2608.5,2234.3,2228.6,2215.9,2492.2,2474.7,2463.2,2451.5,2442.1,2440.8,2444.2,2444.1,2449.9,2456.9,2461.8,2467,2482.6,2506.6,2533.6,2565.1,2599.7,2638.5,2675.2,2714.2,2750.4,2788.9,2821.1,2848.4,2868.2,2887.2,2903.6,2917.5,2927,2933.9,2939.5,2943.6,2952.4,2958,2951,2948.1,2949.4,2946.4,2949.3,2946.4,2946.5,2943.7,2942.4,2945.1,2952,2953.6,2953.6,2955,2962.1,2966.3,2972.1,2974.9,2972.1,2965,2957.8,2955.1,2950.9,2948.2,2942.5,2939.7,2936.8,2938.3,2938.3,2941.1,2946.6,2946.6,2950.6,2953.5,2959.1,2957.7,2959.2,2960.8,2966.5,2967.8,2973.6,2973.6,2972.1,2976.4,2974.9,2977.9,2980.9,2980.8,2982.3,2980.8,2982.2,2983.6,2983.6,2985.2,2985.2,2982.3,2986.8,2983.9,2980.9,2980.9,2978,2973.7,2972.3,2969.2,2972.3,2970.8,2972.2,2973.6,2973.7,2980.9,2985.3,2989.5,2992.4,2995.3,3002.7,3007.2,3011.7,3014.7,3017.7,3016.2,3022.2,3017.7,3011.8,3002.8,2992.4,2976.4,2957.6,2928.7,2607.7,2856.8,2527.7,2189.4,2117.7,1022.8,1172.1,938.3,1981.7,2083.2,1144,363.4,361.8,702.3,1380.3,1703.7,1707.3,1714.5,1726.7,1740.3,1754.8,1766.2,1777.5,1787.5,1794.4,1793.7,1786.6,1780,1772.7,1767.2,1763.8,1758.1,1754.1,1751.1,1746.4,1745.4,1742.1,1740.3,1737.4,1734.9,1733.4,1732,1731.6,1729.1,1728.6,1725.6,1724.2,1722.2,1720.8,1719.8,1718.7,1717.3,1715.8,1715.4,1715.8,1714.3,1714.8,1715.3,1714.4,1714.9,1715.8,1717.7,1718.2,1720.1,1721.5,1721,1723.5,1726,1728.5,1731.9,1734.9,1736.3,1741.3,1743.8,1747.5,1749.9,1752.3,1755.7,1758.2,1761.6,1763.6,1764.1,1764.1,1762.5,1763,1763.6,1762.4,1761.4,1758.7,1758.1,1756.7,1755.8,1755.8,1754.8,1755.3,1752.8,1752.8,1755.9,1758,1759,1762,1764.1,1765.2,1769.3,1772.5,1776,1778.5,1781,1783,1786.2,1790.2,1793.8,1798,1800.9,1804.5,1808.3,1809.5,1812.3,1815.8,1818.8,1820.5,1822.8,1825.2,1829.2,1831,1834.6,1836.3,1839.1,1839.6,1841.3,1840.9,1840.8,1841.4,1839.7,1839.1,1840.7,1838.8,1838,1838.6,1640.6,1643.8,1644.9,1644.4,1644.3,1641.5,1637.2,1631.8,1624.7,1612.8,1601,1587.1,1572.6,1714.2,1701.1,1521.1,1675.6,1330.8,1645.3,1630.1,1616.3,1603.1,1428.5,1576.8,1561.5,1549.2,1539.3,1531.9,1524.2,1517.6,1512,1506.4,1500.9,1495
0,0,0,0,0,982.4,1705.9,2177.7,2174.8,2176.7,2175.6,2174.7,2175.5,2177.4,2177.3,2179.2,2181.9,2184.9,2420,2419.2,2420.2,2420.2,2420.1,2420,2419,2419.9,2418.1,2418.1,2420,2417.9,2418.8,2417.8,2418.8,2417.9,2416.9,2419.9,2418,2418,2416.1,2416,2413.1,2411.3,2409.4,2408.5,2405.7,2404.9,2402.9,2400.1,2400.1,2401,2400.1,2403,2403.9,2404.9,2406.9,2410.9,2161.5,2161.5,2162.3,2416.9,2416.1,2418.9,2419.8,2418.9,2416,2412,2412.9,2411.7,2409.6,2168,2168.9,2168.9,2170.8,2394.7,2395,2397.8,2396.1,2395.2,2175.6,2173.7,2172.7,2172.8,2387.7,2387.1,2385.7,2384.2,2382,2172.9,2176.7,2177.6,2178.5,2180.5,2183.2,2184.1,2184.1,2188,2188,2188.9,2186,2383.8,2378.8,2170.9,2163.3,2360,2349.8,2341.4,2328.8,2318.2,2308.5,2284.8,2245.3,2192.4,2141.9,2097.7,1847.6,2024.6,1995.4,1973.1,1960.4,1953.2,1950.1,1947.1,1942.9,1942.9,1938.6,1938,1937.3,1936.7,1937.3,1938,1942.2,1947.7,1947.8,1946.9,1948.8,1950.4,1953.4,1957.3,1975.3,1983.7,1187.4,991.3,2110.3,1291.7,1599.1,2213.9,2273.9,2743.3,2728.7,2711.7,2279.3,2267.3,2252.4,2231.4,2219.7,2496.4,2475,2459.7,2447.2,2447.7,2448.5,2448.2,2455.9,2461.7,2464.8,2472.9,2490.6,2515.8,2544,2576.8,2613.9,2649.8,2684.6,2721.4,2761.4,2791.2,2823.7,2848.4,2861.6,2880.5,2896.8,2906.3,2916.1,2916,2921.6,2929.7,2932.6,2939.5,2938.3,2931.3,2929.9,2931.3,2929.9,2928.6,2927.2,2927.1,2925.7,2927,2934,2936.7,2939.6,2941,2945.3,2949.4,2956.4,2957.9,2954.9,2949.2,2942.5,2939.8,2935.4,2929.8,2922.8,2917.2,2914.5,2915.9,2920,2918.6,2922.7,2917.3,2921.5,2921.4,2927.1,2926.9,2929.6,2932.3,2935,2936.7,2942.2,2940.7,2943.6,2945.1,2946.5,2949.4,2952.2,2953.7,2952.4,2951,2953.9,2953.9,2956.6,2958,2959.4,2959.4,2958.1,2960.8,2956.6,2956.4,2956.4,2952.3,2950.9,2950.9,2955.1,2952.3,2952.3,2952.3,2957.9,2963.6,2966.4,2973.6,2979.3,2982.2,2986.5,2992.5,2996.8,2996.9,2997,2998.4,3000,2997,2991.1,2982.2,2972.2,2956.3,2937,2905.1,2876.6,2838.5,2511.4,1892.3,2612.1,1499.9,1419.5,1840.7,1557.1,1649.1,1547.1,925.6,722.4,1058.8,869.4,1704.5,1705.5,1712.7,1725.7,1739.8,1752.9,1764.6,1778,1788.6,1796.9,1797.1,1789.6,1783,1775.9,1770.7,1766.3,1761.3,1757.6,1752,1747.9,1745.6,1743.1,1740.3,1737.9,1735.4,1733.4,1732.4,1730.5,1728.5,1727.5,1724.5,1723.6,1722.7,1720.8,1719.8,1717.4,1716.4,1715.9,1714,1716.7,1716.8,1718.3,1718.3,1718.8,1719.2,1718.2,1720.1,1721.1,1722.5,1722,1722.5,1725,1726.5,1729,1732.4,1734.4,1737.3,1741.8,1743.3,1747.1,1749.9,1752.7,1755.7,1757.7,1761.5,1763.1,1763.6,1763.6,1762.1,1760.9,1761.4,1761.4,1759.8,1758.2,1756.8,1754.6,1754.2,1755.8,1754.8,1754.3,1753.7,1754.2,1755.9,1756.9,1760,1762.5,1765.7,1767.2,1770.5,1773,1777.5,1778,1780.5,1782.6,1785.1,1788.2,1792.4,1795.6,1797.7,1801.4,1802.1,1805.4,1807.1,1808.8,1811.1,1814.1,1815.8,1818.8,1821.6,1823.8,1827.2,1829.4,1831.7,1834.7,1836.9,1835.8,1836.9,1837.9,1837.3,1838.8,1839.9,1840.2,1841.3,1842,1842.8,1844.8,1650.2,1654,1655.6,1657.2,1655.7,1653.4,1648.5,1642.5,1632.3,1620.1,1606.1,1592.7,1578.7,1724.7,1712.2,1524,1518.1,1666.5,1650.9,1640.6,1296.3,1283.4,1428.6,1414.7,1405.6,1557.3,1547.1,1538.3,1529.4,1519.6,1511.7,1504.5
0,0,0,0,0,1461.8,2185.5,2181.6,2182.5,2183.4,2178.5,2177.5,2178.4,2179.2,2180.2,2181.1,2185.8,2186.8,2424.7,2422.8,2424.8,2421.9,2420.9,2421.9,2420.9,2419.9,2419,2417.1,2418,2417.9,2419.7,2417.7,2418.7,2416.9,2416.1,2417,2418.9,2415.1,2415.1,2415.1,2410.3,2410.3,2408.5,2406.6,2403.8,2402,2400.2,2400.1,2399.1,2400,2397.3,2397.4,2401,2402,2402,2158.6,2159.7,2158.7,2159.6,2414,2416.9,2414.1,2414.8,2415.6,2411.8,2408.8,2409.6,2410.4,2166.9,2405.7,2170.8,2170.8,2171.8,2393.5,2394.6,2393.9,2392.9,2393.9,2389.6,2388.9,2388,2386.5,2383.2,2170,2169.1,2377,2170.8,2171,2171,2175.8,2176.7,2178.6,2178.6,2182.3,2182.3,2184.2,2184.2,2184.2,2179.5,2177.5,2171,2166.1,2159.5,2354.1,2344.7,2334.8,2326.4,2314.8,2304.2,2282.6,2243.6,2190.1,2141.9,2097,1847.7,2022.7,1994.1,1974.3,1959.8,1953.2,1950.7,1947.1,1943.5,1942.9,1941.1,1939.3,1938.7,1938.7,1937.4,1938.6,1941.6,1947.7,1947.9,1757.8,1947,1948.4,1950.2,1954.1,1973.3,1981.7,1596.5,1821.2,1694,1288.1,1637.8,2257.8,2355.5,2366.7,2364.3,2357.9,2334.8,2313.5,2283.4,2250.5,1964,2218.8,2484.8,2467.9,2455.3,2454.9,2455.3,2454,2458.6,2462.7,2469.6,2478.8,2498.6,2526.3,2555.5,2588.8,2627.2,2662.4,2695.1,2729.8,2765,2797.7,2822.4,2840.6,2853.8,2872.3,2884.6,2896.7,2902.3,2907.7,2907.7,2911.9,2917.4,2924.4,2920.3,2914.6,2913.3,2910.6,2907.8,2910.5,2907.7,2903.6,2906.3,2909,2914.5,2917.2,2921.3,2921.3,2925.6,2931.1,2940.9,2939.5,2933.8,2931.1,2925.6,2921.3,2920,2918.6,2910.5,2905.1,2902.4,2901.1,2898.3,2898.2,2901,2896.8,2900.8,2898.1,2900.9,2900.8,2900.9,2902.3,2907.9,2910.5,2914.7,2916.1,2920.3,2922.9,2924.2,2925.6,2931.2,2932.6,2929.8,2928.3,2929.6,2931,2931.1,2933.9,2934,2934,2934,2938.4,2935.4,2932.8,2930,2930.1,2928.7,2931.4,2930.1,2930.1,2929.8,2935.3,2941,2945.1,2953.4,2953.6,2959.4,2962.2,2968,2972.3,2976.6,2978,2979.5,2976.7,2978.2,2975,2970.7,2962.1,2949.4,2934.1,2913.3,2888.8,2855.5,2820.3,2777.6,2703.6,2592.4,2461.6,1187.3,1565.2,1950.3,1647.1,1346.5,555.5,545.1,1062.9,1555.1,1708.6,1707.8,1715.4,1726.7,1739.8,1751.9,1765.6,1778,1789.7,1799.2,1799.3,1792.7,1786,1779,1772.7,1768.2,1763.7,1758.7,1754.4,1750.5,1747.5,1744.2,1741.3,1739.3,1736.8,1733.8,1730.9,1730.4,1727.9,1726.9,1724.5,1723.6,1722.1,1720.7,1718.8,1718.3,1716.4,1715.9,1715.4,1717.2,1719.7,1721.7,1721.2,1722.1,1722.1,1722.6,1723.6,1725.5,1724.5,1723.5,1723.5,1725.5,1728,1729.5,1732.4,1735.4,1737.8,1741.8,1744.1,1747.1,1749.4,1752.7,1754.6,1757.2,1759.9,1760.9,1762,1762,1760.3,1759.7,1759.7,1759.8,1757.7,1755.7,1754.6,1753.1,1752.3,1752.7,1753.3,1752.7,1752.2,1752.7,1753.7,1754.8,1757.3,1759.4,1762.4,1764.6,1767.3,1771.5,1773.5,1776,1779.1,1780.1,1783.2,1785.8,1788.4,1791.5,1793.1,1796.3,1798,1799.8,1800.5,1802.2,1803.8,1806.7,1807.9,1811.1,1813,1816.4,1818.6,1821.9,1824.5,1827.1,1829.4,1830.5,1831.1,1832.6,1833.7,1835.8,1836,1838.7,1838.5,1841.1,1843.3,1648,1651.2,1654.4,1657.3,1660.1,1660.7,1661.7,1662.2,1659.5,1653.5,1645.2,1634.5,1782.4,1612.3,1759.8,1749.3,1735.2,1383.6,1021.5,1352.1,1680,1671.1,1482.9,650.4,973.5,970.4,1112,1421.2,1577,1561.3,1545.9,1534.7,1524.6
0,0,0,0,0,1951.5,2188.1,2185.3,2186.3,2185.3,2182.4,2178.4,2180.3,2180.2,2184,2185,2185,2186.8,2427.4,2425.6,2424.7,2425.7,2423.7,2424.7,2421.9,2421,2418.1,2418.1,2416.2,2416,2415.8,2415.8,2414.8,2414.8,2413.1,2414.1,2413.2,2412.2,2412.2,2410.3,2410.3,2408.4,2408.4,2404.6,2400.1,2401.1,2401.1,2400.2,2397.3,2397.3,2398.3,2155.9,2154.9,2156.7,2155.8,2156.7,2157.7,2159.6,2158.6,2413.9,2413,2159.5,2162.2,2415.5,2413.3,2411.4,2411.2,2410.2,2409.3,2404.8,2173.7,2173.7,2175.7,2399.1,2396.5,2395.8,2393,2393.9,2390.3,2388.9,2387.1,2382.9,2380.5,2168.3,2168.1,2169,2169.9,2170.9,2171,2172.9,2175.7,2177.6,2179.6,2180.6,2181.5,2182.4,2182.3,2181.3,2179.5,2174.7,2170,2163.2,2358.9,2350.7,2340.8,2331.8,2321.9,2313.7,2301.4,2277.8,2236.1,2186,2135.2,2093.3,1846.4,2022,1995.4,1972.4,1960.4,1953.8,1952.6,1947.8,1944.1,1942.9,1941.1,1939.9,1938.8,1940,1938.6,1937.3,1941.7,1946.5,1944.7,1755.9,1944.6,1944.2,1946.9,1951.5,1971.3,1780.5,1595.7,2027.6,1686.2,821.8,1148.6,2070.1,2156.6,1508.5,2154.7,2437.8,2421.5,2055.9,2021.7,2363,2578.4,2225.8,2215.7,2206,2460.4,2454.7,2456,2455,2459.4,2464.4,2471.4,2484.6,2506.7,2535.5,2567.2,2601.7,2637.4,2672.9,2704.6,2734.6,2766.1,2796.4,2819.8,2834.1,2848.5,2863,2873.7,2880.5,2886,2890,2891.4,2894.1,2898.3,2899.6,2901,2892.8,2891.4,2891.4,2888.7,2888.7,2885.9,2881.8,2884.6,2892.8,2895.6,2899.6,2902.2,2902.2,2906.3,2910.4,2915.9,2917.4,2913.2,2907.7,2902.3,2905,2900.9,2895.5,2892.7,2888.7,2885.9,2883.2,2880.5,2879.1,2877.6,2876.3,2873.6,2872.3,2873.7,2875.1,2876.4,2881.7,2885.8,2888.7,2895.4,2898.2,2905.2,2906.5,2913.4,2914.8,2920.3,2916.1,2916,2916,2913.4,2913.2,2913.1,2910.5,2907.9,2910.7,2912,2916.1,2913.4,2910.6,2911.9,2911.9,2910.6,2909.1,2913.2,2914.6,2913.1,2917.4,2921.6,2928.5,2929.8,2936.7,2936.6,2939.4,2942.3,2946.6,2953.7,2955.1,2953.8,2955.2,2958.1,2952.3,2946.7,2941,2927.1,2911.9,2894.2,2868.6,2839.6,2804.9,2764,2683.4,2566.2,2435.1,1629.6,880.3,1275.4,796.1,0,365.5,540.8,1065,1735.5,1715,1711.1,1718.8,1729.9,1741.1,1755.5,1768.2,1780,1790.8,1801.2,1802.8,1795.5,1788.6,1782,1774.8,1769.2,1765.2,1760.6,1756,1751.5,1747.4,1744.6,1741.8,1738.3,1735.8,1732.8,1730.9,1728.9,1727.4,1725.9,1725.1,1722.5,1721.6,1720.7,1720.2,1718.8,1718.3,1717.8,1717.7,1720.7,1723.1,1725.1,1725.1,1726.1,1726.6,1727.1,1727.5,1728,1727.5,1727,1724.5,1727.5,1729,1731.5,1733.4,1735.4,1738.8,1741.3,1743.6,1746,1749.4,1752.2,1754.6,1756.1,1757.1,1760.4,1760.3,1759.1,1759.1,1758.6,1758.1,1757.1,1756,1754.1,1752.2,1750.8,1749.4,1749.8,1749.4,1749.8,1749.4,1749,1750.9,1751.9,1753.8,1757.2,1758.3,1761.4,1765.1,1768.4,1770.9,1774.1,1775.6,1777.1,1780.7,1781.7,1783.8,1786.9,1787.5,1789.6,1792.4,1794,1794.2,1794.2,1796.3,1799.1,1800.8,1803.2,1804.3,1807,1810.5,1814,1816.2,1819.9,1821.4,1824.2,1825.8,1827.2,1828.8,1830.3,1831.8,1637.6,1639.9,1642.6,1644.1,1648,1650.6,1654,1655.7,1659.5,1661.2,1663.3,1663.8,1663.8,1662.1,1657.3,1809.7,1801.9,1795,1788.1,1780.4,1766.7,1755.6,1569.6,1215.6,1035.1,1373.2,1705.3,843.3,1172.7,833.5,828.3,496.8,803.5,1118.2,1419.6,1564,1548.9
0,0,0,0,0,730.2,2193.8,2190,2187.1,2189,2186.2,2181.3,2184.1,2186,2185,2185.1,2187.9,2187.8,2428.3,2429.3,2427.4,2426.6,2426.6,2423.7,2423.8,2422,2420.1,2419,2418,2414.1,2415,2413.9,2413.9,2413.9,2413,2413.1,2413.2,2412.2,2411.3,2410.3,2409.4,2409.4,2408.3,2403.7,2401.9,2401,2401,2398.2,2397.4,2398.4,2398.4,2156.8,2154.1,2153.1,2154.1,2154.9,2155.8,2155,2154.9,2411.2,2411.2,2411.1,2412.7,2412.5,2410.5,2409.6,2411.3,2413.1,2413.2,2410.6,2407.2,2402.9,2402.6,2403.5,2405.1,2400.4,2398.7,2396.9,2396.1,2394.4,2392.7,2389.3,2384.5,2169.2,2168.1,2168.1,2168.1,2170,2173.7,2173.7,2176.6,2175.7,2178.7,2180.5,2178.6,2183.2,2181.3,2180.3,2177.5,2174.7,2377.3,2161.4,2358.7,2352.8,2340.9,2331.5,2323.3,2312.7,2299.8,2275.9,2234.4,2182.6,2135.8,2092.4,2055.4,2020.6,1994.2,1972.4,1959.9,1953.8,1953.2,1948.4,1944.7,1944.1,1942.4,1941.2,1940,1940.6,1938.6,1936.1,1940.4,1944.1,1944,1754,1755.2,1942.9,1942.6,1948.8,1967.9,1977.5,1791,2018.5,1460.4,821.8,828.6,1493.3,1565.9,1676,1286.7,1275.2,1249.9,875,979.333,886.8,1724.9,2232.8,2218.4,2208,2460,2458.3,2455.7,2454.6,2457.4,2463.3,2472.1,2234.2,2517,2548.2,2582.2,2615.9,2648.6,2683.2,2713,2743,2768.7,2793.9,2813.3,2825,2840.6,2852.4,2860.4,2867,2869.7,2875,2877.7,2881.9,2880.6,2881.9,2878,2872.5,2871.1,2869.8,2865.8,2865.7,2861.8,2861.7,2864.3,2868.3,2873.7,2875,2877.8,2876.4,2883.2,2888.6,2891.4,2891.3,2890,2887.3,2883.1,2880.5,2881.9,2880.6,2877.9,2873.9,2869.9,2868.5,2863.1,2853.7,2856.2,2852.3,2852.3,2849.7,2851,2851,2855,2863,2867.2,2869.8,2876.5,2882,2893,2894.3,2902.7,2905.4,2905.3,2905.4,2902.5,2905.2,2901,2898.4,2895.8,2893,2893.1,2890.4,2893.1,2895.9,2897.2,2894.3,2891.4,2890.1,2891.5,2892.7,2898,2899.5,2899.5,2902.3,2906.5,2910.4,2911.7,2914.5,2917.3,2920.2,2920.2,2928.4,2932.7,2931.1,2929.7,2935.3,2936.7,2931.1,2927,2921.4,2909,2895.4,2873.8,2854,2821.3,2788.2,2462.8,2664.1,2540,2408.8,1382.1,1307.7,1683.3,786.4,184.9,733.6,1266.3,1768.7,1739.4,1722.1,1718.5,1723.8,1733.9,1745.1,1757,1769.7,1781,1791.9,1802.3,1805.9,1799.7,1791.1,1784.5,1778.4,1771.3,1766.2,1762.1,1757.1,1752.5,1747.9,1745.5,1740.8,1738.4,1734.3,1731.8,1729.9,1727.9,1726.9,1726,1724.6,1723.1,1723.1,1721.7,1720.7,1721.1,1720.1,1720.6,1720.1,1723.6,1726.1,1729.1,1730.6,1731.1,1731,1731,1732,1732.5,1731.5,1729.5,1726.5,1728,1729,1730,1733.4,1734.9,1737.3,1740.2,1742.6,1745.1,1747.9,1750.3,1752.1,1754,1755.5,1757,1758.1,1758.6,1758.1,1757.6,1755.5,1756,1753.6,1752.1,1749.3,1748.9,1746.9,1747.4,1747.4,1747.9,1746.9,1746.5,1748,1748,1749.4,1753.2,1755.6,1757.7,1760.3,1763.5,1767.1,1769.9,1774,1775.7,1777.1,1779.2,1780.3,1782.4,1782.9,1785.6,1786.1,1786.2,1787.4,1789,1790.6,1791.6,1793.2,1793.8,1796.5,1800,1802,1804.8,1808.5,1812.1,1814.8,1816.8,1821,1822.5,1825.2,1826.7,1828.2,1829.1,1830.5,1831,1644.2,1461.5,1650.1,1652.8,1656.2,1657.8,1660.5,1662.2,1662.7,1664.4,1661,1820.4,1655.5,1811.3,1806.3,1801.7,1796.4,1790.7,1783.3,1772.2,1764.5,1240.5,1761.9,1753.9,1387.7,1037.5,1026,1529.7,1015.8,1003.8,989.4,1295.4,1600,1579.1
0,0,0,0,0,1465.3,2194.6,2192.8,2191.8,2190.8,2189.9,2186.1,2186.1,2186.9,2186.9,2187,2188.9,2190.7,2431.2,2431,2430,2428.2,2429.3,2426.5,2424.6,2422.8,2420,2419,2418,2416,2416,2414,2412.9,2412,2412.1,2411.2,2409.4,2411.3,2412.2,2409.4,2409.4,2408.4,2406.5,2403.7,2401.9,2402,2400.3,2399.2,2399.2,2399.3,2397.5,2153.3,2154.2,2154.2,2153.2,2154.1,2152.2,2154.1,2155.9,2410.3,2409.3,2410.1,2410.7,2410.6,2163.2,2410.6,2411.3,2413.2,2412.4,2410.8,2408.2,2405.7,2406,2407.8,2407.6,2404.8,2404,2403,2400.2,2397.5,2395.6,2170.1,2390.6,2384.9,2169.1,2168.1,2169.1,2169.1,2171.8,2174.6,2175.6,2178.5,2180.5,2182.2,2180.4,2182.3,2181.3,2179.4,2177.4,2171.8,2165.3,2158.7,2358.9,2351,2339,2331.2,2322.1,2312.6,2298.5,2271.6,2229.4,2176.6,2132.8,2089.6,2052.6,2018.5,1993.6,1973,1959.9,1954.4,1952.6,1947.8,1945.4,1944.2,1941.8,1941.2,1940,1940,1936.7,1934.1,1939.2,1943.5,1751.6,1751.5,1754.7,1940.5,1942,1946.4,1965.5,1972.3,1785.4,2010,814.3,822.6,830.6,834.9,840,845.8,1643.8,861.2,1238.5,974,1355.9,890,1461.1,1703.8,2217.3,2205.8,2458.6,2454,2452.3,2453.1,2455.1,2463.9,2472,2243.4,2523.1,2557.6,2595.1,2628.3,2662.4,2696.2,2722.6,2747.8,2770,2793.9,2809.4,2822.4,2834.1,2841.9,2851.1,2856.4,2861.8,2865.8,2867.1,2865.7,2863.1,2867.2,2855.2,2852.5,2845.9,2843.3,2844.6,2841.9,2838,2838,2839.3,2844.5,2848.4,2852.4,2855,2855.1,2857.7,2864.4,2865.7,2867.1,2863,2863,2863,2860.4,2865.7,2864.4,2864.4,2859.1,2853.8,2851.1,2845.8,2839.3,2838,2836.7,2835.4,2828.9,2830.2,2831.5,2835.4,2841.9,2849.7,2852.5,2862,2867.3,2880.8,2889,2894.4,2897.2,2900,2900,2898.4,2894.2,2891.5,2887.5,2882.2,2879.6,2878.2,2875.5,2875.6,2878.2,2878.1,2878,2872.5,2875.3,2873.8,2877.9,2879.3,2886,2884.6,2887.3,2889.9,2892.7,2895.5,2896.7,2898.1,2898.2,2902.3,2905.1,2910.4,2913.1,2911.9,2913.3,2917.5,2916.1,2910.5,2903.6,2894,2875.1,2860.4,2836.8,2808.4,2773,2725.8,2639.5,2510.2,1915.3,899.4,1504.9,1032.7,586,758.8,1853.9,1811.3,1772.4,1747,1730,1724.3,1731,1736.8,1749.6,1760.9,1774.5,1784.5,1794.9,1805.7,1809.2,1802.3,1796.1,1787.6,1779.9,1774.3,1768.8,1763.6,1759.1,1753.4,1749,1745,1741.8,1736.8,1734.3,1731.4,1729.4,1727.9,1725.4,1725.5,1723.1,1722.1,1721.6,1721.1,1721.1,1721.2,1721.6,1722.5,1722.5,1727.5,1730.4,1733.4,1734.9,1735.4,1734.9,1735.4,1735.4,1736.4,1732.9,1731,1728.5,1729,1729.5,1730,1733.4,1734.4,1736.8,1739.2,1740.6,1743.1,1745.5,1748,1749.8,1752.1,1753,1754.5,1755.5,1755,1755,1754,1754,1754.1,1751.6,1751.2,1747.4,1747.4,1746.4,1746.4,1746.5,1746.5,1744.6,1744.6,1745.5,1746.4,1747.3,1749.2,1751.8,1754.2,1755.7,1759.8,1761.9,1765.5,1767.7,1769.8,1772.4,1774.6,1776.2,1776.8,1779.4,1779.9,1779.8,1781.9,1782.5,1783,1784,1785.1,1786.7,1789.5,1790,1791.7,1795.9,1799,1801.8,1805.4,1615.6,1618.1,1621.8,1624.4,1818.8,1820.9,1822.6,1635.1,1825.3,1639.7,1827.6,1646.9,1650.6,1652.9,1655.6,1658.3,1659.5,1660,1659.3,1659.4,1822.7,1819.1,1816.1,1812.3,1808.7,1805.3,1804.4,1801.7,1797.1,1795,1791.7,1792.6,1797.3,1613.4,705.3,1422.4,1411.9,1578,1217.3,1546.5,1018.1,1332.2,1312.5,1289.4
0,0,0,0,250.3,1224.8,1958.8,2192.7,2192.7,2192.6,2189.9,2187.9,2187.1,2188,2189.8,2189.8,2192.7,2192.7,2435.1,2434,2431,2432,2432.2,2429.4,2428.4,2424.7,2421.9,2420.9,2418.9,2417,2416,2415.9,2415.8,2413,2413,2413,2410.3,2412.2,2412.2,2411.3,2410.3,2409.4,2407.5,2406.6,2405.8,2404.9,2404.1,2400.3,2400.2,2400.2,2397.5,2153.1,2153.3,2154.2,2152.3,2152.3,2153.2,2153.2,2154,2408.3,2409.3,2409.1,2408.8,2409.6,2164.2,2408.6,2407.8,2411.4,2410.6,2410.9,2409.3,2180.4,2183.2,2183.2,2182.2,2408.3,2406.6,2178.5,2175.6,2172.8,2173.6,2171.9,2168.2,2169,2169.9,2169,2169.1,2170.1,2173.7,2174.6,2175.5,2180.4,2182.3,2181.3,2182.3,2185.2,2183.2,2180.4,2176.5,2172.8,2164.3,2156.9,2147.4,2347.8,2339.5,2328.4,2316.9,2307.2,2295,2265,2220.3,2170.2,1913.9,1873,2049.2,2017.8,1991.6,1972.4,1959.3,1953.2,1952.6,1946,1943.6,1942.4,1940.6,1940.6,1938.8,1936.8,1936,1932.2,1936.7,1940.4,1748.1,1751.7,1753.5,1940.4,1941.3,1946.8,1963.2,1969.7,1778.8,1997.1,815,821.9,829.9,834.9,840.6,1306.9,1301.5,1299.5,1285.8,1259.9,1309.2,890.8,1189.2,1701.3,1960.1,2459.9,2448.8,2442.3,2441.9,2444.1,2449.5,2455.5,2469.7,1738.2,2530.4,2568.4,2606.1,2638.5,2671.4,2704.6,2729.8,2751.4,2770.1,2790,2805.5,2818.5,2828.9,2834.1,2842,2843.3,2848.5,2853.7,2853.7,2848.5,2843.3,2840.7,2838.1,2830.2,2825,2821.1,2818.5,2817.2,2814.6,2814.6,2817.2,2819.8,2825,2830.2,2831.5,2832.8,2831.5,2836.7,2839.3,2840.6,2840.6,2841.9,2845.8,2844.5,2848.4,2852.4,2849.8,2845.8,2841.9,2838,2827.6,2825,2822.4,2819.8,2817.2,2810.7,2809.4,2809.4,2815.9,2827.6,2834.1,2836.9,2848.8,2856.8,2873,2885.3,2889.3,2895,2897.4,2896,2891.8,2884.8,2880.7,2875.4,2870.2,2862.2,2859.6,2858.2,2858.1,2860.7,2862,2859.4,2862,2862,2861.8,2861.7,2865.8,2871.1,2872.4,2871.1,2875.2,2877.7,2879,2879.1,2883.3,2879.2,2881.8,2884.6,2887.4,2890.1,2894.1,2894.1,2896.8,2898.1,2895.3,2890,2879,2863,2846,2825.1,2795.4,2758.1,2433.6,2624.4,1982.4,1181.1,673,1265.9,1414.8,1166.8,1696.1,1844.3,1808.2,1773.4,1750.9,1735.4,1730,1735.2,1743.2,1753.5,1765.5,1778,1787.1,1798.9,1809.3,1812,1806.4,1799.7,1791.3,1783.9,1777.4,1771.8,1765.3,1760.7,1755,1750.4,1745.7,1741.7,1735.8,1733.7,1729.9,1727.9,1726.4,1724.9,1724,1720.9,1720.9,1721.3,1720.8,1721.7,1722.7,1723.6,1723.6,1725.1,1730,1733,1737.5,1739,1739,1738,1736.5,1737,1738.4,1734.4,1732.9,1729.4,1729.9,1730.4,1731.4,1733.4,1734.4,1736.9,1738.4,1740.3,1742.1,1744.1,1746.5,1747,1748.9,1750.6,1752,1751.5,1752,1752,1751,1751.1,1751.7,1749.8,1747.8,1745.9,1745.4,1744.9,1744,1744.1,1743.7,1741.7,1740.8,1741.8,1741.8,1742.8,1745.9,1748.7,1750.3,1752.3,1755.2,1758.7,1760.9,1763.4,1766,1768.2,1768.8,1770.4,1772.5,1774.1,1775.6,1775.7,1776.2,1776.7,1776.6,1778.2,1778.8,1779.7,1781.3,1784,1786.7,1787.7,1791.9,1794.5,1798.8,1803,1804.5,1807.5,1810.4,1812.6,1815.2,1817.2,1818.8,1819.3,1820.4,1821.1,1822.3,1648.5,1823.2,1654,1655.6,1657.9,1657.3,1657.8,1822.9,1819.2,1817.3,1814.4,1812,1808.1,1808.4,1808,1807.6,1807.3,1807.5,1807,1811.9,1817.1,1270.6,720.3,1815.3,1807.1,1792.2,1774.1,1755.9,1729.2,1701.9,1674,1644.9
0,0,0,0,0,986.2,1718.3,1956.8,2194.5,2193.6,2191.7,2189.8,2190.7,2189.7,2188.8,2191.8,2192.7,2192.7,2436.1,2434.2,2436,2433,2434.1,2433.2,2431.4,2428.6,2425.8,2422.8,2420.9,2420,2418,2416,2416.8,2415.7,2414.8,2416.7,2414.9,2415,2413.2,2413.3,2412.3,2412.2,2410.5,2407.6,2405.8,2406.8,2404,2404,2406,2404.1,2156,2156,2154.1,2155,2153.3,2410.4,2155,2155,2154.1,2408.2,2409.3,2410.1,2409.9,2408.8,2408.7,2406.8,2408.7,2411.3,2178.3,2179.3,2180.4,2183.3,2184.2,2184.2,2183.1,2180.3,2179.4,2177.5,2175.6,2173.7,2173.6,2171.8,2168.1,2168,2168.9,2169.1,2169.1,2172.9,2173.7,2176.4,2177.3,2181.3,2183.3,2185.1,2184.2,2186.2,2184.2,2183.3,2178.4,2398.3,2386.9,2373.1,2361.6,2350.4,2338.4,2328.2,2317.6,2307.1,2294.3,2264.3,2217.8,2166.4,1912.3,2081.1,2047.8,2014.6,1990.9,1970.5,1957.5,1953.2,1952.6,1945.4,1941.8,1941.2,1938.7,1937.4,1936.8,1935.4,1933.4,1929,1934.7,1938.7,1748.1,1750.5,1754.1,1757.8,1943.5,1950.4,1962,1967.8,1777.6,1989.9,999.9,821.8,829.3,835.7,842.1,848.8,951.222,1344.8,1311.1,878.2,885.3,891.7,1186.4,1706.5,2218.8,2444,2437,2433.8,2430.5,2434.3,2441.4,2448.6,2465.5,1495,2536.6,2318.1,2614.9,2651,2679.7,2708.2,2731,2753.8,2773.8,2790,2802.9,2814.6,2819.8,2825,2827.6,2834.2,2835.5,2839.4,2836.8,2832.9,2827.7,2826.4,2818.5,2812,2804.2,2800.4,2799.1,2796.5,2795.3,2796.6,2796.5,2801.7,2805.6,2808.1,2810.7,2814.6,2813.3,2814.6,2815.9,2818.5,2819.8,2825,2826.3,2825,2831.5,2834.1,2832.8,2831.5,2830.2,2826.3,2815.9,2808.1,2805.5,2802.9,2804.2,2795.2,2796.5,2797.8,2805.7,2812.2,2821.2,2831.7,2841.1,2850.5,2869.3,2881.9,2890,2895.3,2896.5,2892.2,2885.2,2881,2872.9,2866.2,2858.1,2852.8,2846.2,2843.7,2842.4,2843.6,2843.5,2843.4,2843.4,2844.6,2844.6,2845.9,2853.8,2857.7,2856.4,2857.6,2861.6,2864.3,2863,2865.6,2864.3,2866.9,2864.3,2865.8,2867.1,2871,2872.4,2876.5,2877.9,2882,2877.8,2873.7,2863.1,2847.2,2834.2,2812.1,2495.1,2749.8,2420.5,1559.1,1713,916.7,866.7,1442.9,1983.6,1533.8,1870.7,1838.3,1806,1775.5,1756.6,1741.8,1735.8,1740.2,1748.1,1757.5,1768.3,1780,1789.3,1799.9,1810.3,1814.2,1809.1,1802.9,1795.5,1786.5,1779.9,1773.4,1767.2,1762.7,1757,1750.4,1746.7,1741.1,1736.7,1733.3,1730.4,1727.9,1725.4,1724.2,1722.4,1721.9,1721.4,1721.8,1721.8,1722.8,1724.2,1724.6,1726.6,1727.5,1730,1734,1736.5,1737.5,1738.5,1738,1738.5,1738.5,1737.5,1736,1733.4,1729.9,1729.4,1730.4,1731.4,1733.4,1733.9,1735.4,1737.9,1739.4,1740.3,1743.2,1744.7,1745.2,1745.2,1748,1748.4,1749.6,1749.6,1749.1,1748.7,1748.4,1747.1,1746.3,1743.8,1743.3,1741.5,1741,1740.5,1740.4,1740.3,1739.8,1737.8,1738.3,1739.3,1739.4,1743.7,1744.1,1746.9,1749.4,1751.4,1753.8,1757.3,1759.3,1760.9,1762.4,1763.9,1764.5,1766.6,1767.7,1768.8,1768.9,1769.9,1769.9,1770.9,1772.4,1773.9,1775.5,1776.5,1777.5,1779.3,1782.8,1784.4,1788.5,1791,1795.3,1797.4,1802.9,1803.9,1806.7,1808.1,1810.8,1812,1814.1,1814.7,1814.5,1816.8,1818.5,1819.3,1820.6,1823.3,1654.5,1822.3,1820.5,1816.7,1815.8,1812.6,1810.1,1805.2,1805.1,1803.4,1803.2,1804.5,1805.2,1807.6,1809.2,1814.8,1457.7,1826.5,1095.5,1464.9,1825.5,1815.4,1799,1781.2,1759.4,1732.9,1704.6,1675.4
0,0,0,0,0,0,1474.1,1957.9,2194.6,2194.6,2192.5,2192.5,2191.5,2189.7,2191.6,2192.5,2193.4,2194.4,2438.8,2438.8,2435.9,2435.9,2436,2437.9,2436,2431.4,2428.5,2428.5,2427.5,2426.5,2425.5,2421.7,2420.7,2418.6,2420.5,2420.5,2418.7,2416.9,2416,2415.2,2415.2,2415.2,2413.3,2408.5,2408.6,2409.6,2407.8,2406.9,2405.1,2405.1,2158.9,2158,2157,2156.9,2404.3,2407.3,2158.1,2157.1,2410.2,2411.2,2411.9,2411.7,2410.5,2410.5,2408.6,2408.7,2412.4,2412.6,2181.2,2183.2,2186.1,2189.9,2189.8,2188.9,2188,2185.2,2184.2,2416.3,2413.6,2177.5,2178.4,2176.5,2172.8,2173.7,2171.9,2171.9,2172.8,2176.5,2179.4,2179.4,2181.3,2186.2,2188.1,2190,2191,2191,2433.4,2429.6,2418.4,2407.3,2396.8,2380,2367,2146.5,2348,2337.9,2327.4,2315.4,2301.3,2270,2221.9,2170.3,1702.2,2086.8,2049.8,2017.9,1991,1970.5,1957.5,1954.5,1952.6,1945.4,1940,1938,1936.8,1937.4,1934.8,1934.8,1930.3,1928.4,1932.8,1936.1,1747.5,1751.7,1754.7,1757.8,1943.4,1950.9,1962.4,1967.4,1976.7,1985.1,1198.9,821.2,827.9,837.1,842.1,848.1,856.1,863.7,1356.2,879,886.1,891.7,897.3,1436.2,2181.4,1915.8,2174.1,2174.2,2421.1,2176,2430.4,2440.6,1966.9,1248.7,2286.2,2061.4,2623.9,2655.5,2686.6,2711.8,2735.8,2755,2771.2,2783.8,2795.2,2804.2,2809.4,2813.3,2815.9,2817.2,2823.8,2825.1,2823.7,2817.2,2815.9,2810.8,2800.5,2792.8,2785.1,2782.5,2781.2,2778.7,2777.4,2777.4,2781.3,2785,2786.3,2790.2,2795.2,2791.4,2793.9,2792.6,2797.7,2797.7,2799,2802.9,2809.4,2806.8,2815.9,2817.2,2819.8,2817.2,2817.2,2808.1,2796.4,2792.5,2793.8,2788.7,2787.6,2783.8,2786.3,2788.8,2794,2807,2816.1,2826.8,2838.6,2853.6,2872.6,2885.2,2893.6,2896.3,2892.7,2890,2885.6,2878.6,2868.8,2859.5,2848.9,2841.1,2835.8,2832,2826.7,2827.9,2827.7,2827.7,2826.4,2832.9,2831.5,2832.8,2840.6,2843.2,2841.9,2844.5,2847.1,2849.7,2847.1,2848.4,2849.7,2847.1,2845.8,2847.1,2848.4,2849.7,2851.1,2856.5,2861.8,2863.1,2861.7,2859.1,2848.5,2835.5,2822.5,2798.1,2773,2740.2,2406.7,1043.9,1214.3,921.8,1296.2,1227.4,1952.4,1899.7,1861,1835.1,1807.6,1779,1761.9,1747.5,1739.6,1744.2,1749.1,1759,1769.3,1780.5,1789.8,1800.4,1810.3,1816.3,1812.4,1804.9,1797.6,1788.7,1783,1775.9,1768.7,1765.2,1758.3,1752.4,1746.6,1741.6,1738.1,1732.8,1730.9,1726.6,1725.6,1723.9,1722.5,1721.9,1722.4,1721.8,1721.8,1723.3,1724.8,1726.1,1727.6,1729,1731.5,1734.5,1738.5,1739,1741,1740.4,1739.4,1739.4,1738.4,1737.5,1733.5,1730.9,1730.9,1730.4,1730.4,1732.9,1734.4,1735.4,1736.4,1738.4,1738.9,1741.3,1743.2,1743.2,1743.7,1745.2,1746.7,1747.5,1747,1746.6,1745.8,1745.3,1745.3,1743.3,1741,1739,1738,1738,1737.5,1737.5,1736,1735,1733.5,1734.4,1734.4,1735.9,1738.9,1740.2,1743.6,1744.7,1748.5,1750.4,1753.9,1756.9,1757.3,1759.3,1760.9,1761.3,1762.3,1762.9,1763,1765.7,1766.3,1765.8,1767.3,1768.3,1769.3,1770.2,1771.2,1772.8,1774.9,1777,1780.7,1782.8,1785.2,1789.3,1792,1795.1,1797.1,1799.8,1802.4,1804.6,1807.2,1808.8,1810.7,1812.9,1815.1,1817.4,1818.1,1819.5,1820,1820.1,1818.6,1816.9,1813.3,1810.8,1809.3,1804.3,1802.1,1799.5,1798.2,1798.1,1800.4,1802.9,1806,1808.6,1814.8,1821.9,1826.9,913.7,1648.6,1829.2,1823.2,1812,1798.3,1780.1,1756.2,1730.6,1702.9
0,0,0,0,0,0,1228.7,1957.9,1957.9,2194.6,2194.5,2190.6,2191.6,2191.7,2191.6,2191.7,2194.5,2195.3,2437.7,2436.8,2438.7,2437.8,2438.8,2438.8,2436,2434.1,2431.3,2431.3,2429.4,2429.4,2428.4,2425.4,2424.3,2422.5,2424.4,2423.4,2423.4,2423.5,2424.5,2422.6,2419.9,2418.1,2418.9,2418,2417,2415,2414.3,2413.5,2412.7,2413.6,2410.7,2163.6,2162.7,2409.9,2409,2409,2163.5,2165.3,2414.6,2415.4,2415.4,2415.2,2417.1,2415.1,2174.7,2177.5,2416.3,2421.3,2417.9,2419.9,2192.8,2193.7,2195.5,2194.6,2192.6,2188.8,2422,2422.9,2422.8,2183.2,2181.2,2181.1,2178.2,2179.1,2180.1,2427.7,2180.3,2184.1,2187,2188.8,2192.7,2193.8,2194.7,2195.7,2197.6,2196.7,2437.3,2195.8,2190.8,2414,2400.6,2387.7,2377.1,2154,2356.1,2347,2334.7,2322.5,2306.5,2278.1,2226.2,2173.4,2128.4,2087.6,2051,2016.6,1989.1,1969.3,1956.9,1954.4,1952.6,1944.8,1940.6,1937.3,1936.1,1934.7,1934.1,1931.6,1930.3,1927.8,1932.3,1936.1,1748.7,1751.7,1757.1,1945.6,1945.9,1952.6,1964.9,1969.9,1977.1,1985.5,1598.7,820.5,827.2,835.7,841.4,848,856.9,863.8,871.3,879.1,886.1,1450.3,1712.4,2206.7,2432.5,2414.7,1907.8,1911.8,2167.6,2409.7,2419.9,1947.9,1723.6,1253.8,1781.2,1803.7,2628.3,2657.7,2686.6,2715.4,2737,2757.4,2766.2,2778.8,2788.8,2797.7,2797.8,2800.5,2803.1,2805.7,2809.6,2810.9,2809.7,2804.6,2798.1,2794.3,2784.1,2773.9,2767.6,2763.8,2758.9,2758.9,2760.2,2760.1,2760.1,2765,2768.8,2772.5,2776.2,2776.3,2775,2774.9,2778.7,2781.3,2783.7,2788.8,2788.8,2790.2,2796.6,2802.9,2802.9,2804.2,2804.2,2795.2,2784.9,2781.2,2778.7,2777.5,2776.2,2771.2,2773.8,2778.7,2786.4,2800.8,2813.7,2826.9,2840.5,2856.3,2877.3,2888.6,2896.7,2899.2,2894.6,2890.2,2886,2873.5,2863.7,2852.9,2841,2830.6,2820.3,2817.7,2813.6,2817.4,2814.8,2813.4,2815.9,2815.9,2818.5,2821.1,2825,2827.6,2831.5,2831.5,2836.7,2834.1,2831.5,2832.8,2830.2,2830.2,2828.9,2827.6,2832.8,2831.5,2830.2,2836.7,2841.9,2841.9,2841.9,2840.6,2834.1,2822.4,2810.7,2785.4,2763.3,2728.5,1581.5,250.3,958.6,684.2,862.9,1210.1,1927,1881.6,1851.1,1830.1,1804.5,1781.5,1765.4,1751.6,1743.6,1744.2,1750.6,1759.5,1769.2,1780.5,1788.7,1797.9,1809.8,1815.7,1812.3,1806,1799.1,1791.3,1784.1,1776.9,1770.8,1765.6,1758.3,1752.9,1748.2,1743.1,1737.6,1734.3,1729.9,1728.1,1725.3,1724.4,1722,1724.8,1723.4,1723.3,1723.8,1724.8,1727.5,1728.5,1730.5,1731,1734,1736,1737,1739.6,1740.5,1739.9,1739.9,1738.9,1737.9,1737,1735,1731.5,1731.5,1731.4,1731.9,1733.4,1733.9,1735.9,1736.4,1737.4,1737.4,1740.4,1742.2,1741.8,1741.8,1743.3,1743.8,1744.8,1744.8,1743.9,1741.5,1740.5,1740.5,1739,1737.5,1735.5,1734.5,1733,1733,1733,1731.5,1732.5,1730.5,1730,1731,1732.5,1736.4,1737.3,1740.2,1742.2,1744.7,1747.5,1750.9,1752.3,1755.4,1756.9,1756.4,1758.3,1758.7,1758.7,1761.4,1761.9,1761.5,1762,1763.1,1764.5,1766.6,1766.1,1767.1,1768.8,1769.8,1773.9,1777.2,1778.7,1781.6,1782.6,1785.8,1788.8,1791.6,1793.7,1796.3,1798.4,1800.5,1803.9,1805.4,1808.4,1811,1813.2,1815.9,1817,1816.6,1817.2,1814.7,1813.1,1810,1806.8,1804.1,1802,1798.2,1796.4,1793.8,1793.8,1795.7,1799.7,1803.1,1806.9,1811.5,1819.5,1823.2,916,1829.6,1828,1823.3,1814.4,1804.6,1789.9,1770.4,1747.6,1722.3
0,0,0,0,0,0,0,1711.5,1954.9,2193.6,2193.6,2193.6,2194.6,2194.6,2191.7,2193.5,2195.4,2194.4,2435.8,2437.8,2437.9,2437.9,2439.7,2439.7,2437.8,2436,2437,2436.1,2435.2,2431.3,2430.3,2430.2,2428.3,2427.3,2427.3,2427.4,2430.2,2428.3,2427.3,2427.3,2427.3,2426.4,2427.4,2426.5,2424.5,2424.5,2420.8,2421.9,2422.1,2421.2,2171.2,2170.2,2171.1,2169.2,2171,2171.9,2171.8,2173.8,2173.9,2175.6,2176.4,2178.5,2179.6,2182.4,2183.2,2422,2426.8,2428,2427.3,2427.6,2426,2200.5,2200.4,2200.4,2197.4,2195.4,2192.6,2440,2439.1,2188.6,2187.7,2185.8,2185.8,2184.8,2186.8,2185.8,2440.2,2445.1,2446,2448.9,2448.9,2451.7,2448.6,2449.6,2448.6,2444.9,2443,2440.1,2433.5,2421.3,2409.5,2397.1,2385.8,2375.4,2365.9,2352.1,2341.9,2332.5,2315.4,2285.9,2232.8,2179.8,2133.7,2091.9,2053.1,2017.9,1989.7,1968.1,1956.9,1955.1,1953.2,1944.2,1939.9,1936.7,1934.7,1934.1,1933.5,1930.9,1929.7,1927.1,1932.3,1936.8,1940,1753.5,1758.3,1949.2,1948.8,1955.7,1967.8,1974.1,1783.3,1989.2,1799.7,818.4,827.2,834.3,841.4,848.1,856.2,863.9,871.4,1391,1691.5,1926.8,1926.9,2172.2,2413.8,2402.2,2150.1,1667.3,1920.2,2404,2415.2,1709.3,1480.2,1500.1,1779.3,2594,2631.6,2661,2691.4,2719,2738.2,2753.8,2766.2,2776.3,2782.6,2786.2,2787.6,2787.8,2788,2794.5,2795.8,2797.1,2796,2792.2,2784.6,2778.2,2769.3,2761.6,2750.6,2745.6,2745.6,2740.7,2741.8,2743,2745.4,2749,2755,2759.9,2759.9,2758.7,2756.3,2760.1,2763.7,2763.7,2767.5,2773.6,2774.9,2776.2,2782.5,2788.9,2790.2,2788.9,2788.9,2779.9,2771.3,2768.8,2766.2,2763.7,2763.9,2761.4,2766.3,2772.6,2780.1,2797.1,2808.9,2823.3,2841.9,2857,2879.2,2891.7,2903.3,2901.3,2893.8,2890.7,2885.1,2871.2,2860.1,2845.2,2832.1,2820.2,2811.3,2806.2,2802.1,2803.3,2803.1,2803,2801.7,2802.9,2806.8,2808.1,2814.6,2817.2,2817.2,2818.5,2821.1,2821.1,2817.2,2815.9,2815.9,2815.9,2813.3,2814.6,2813.3,2815.9,2812,2815.9,2823.7,2825,2827.6,2825,2819.8,2808.1,2800.6,2777,2466.2,2436.7,2387.4,1243.8,942.9,898.1,851.6,1194.4,1904,1868.3,1845,1825.9,1803.8,1783,1767.4,1752.6,1744.1,1745.6,1752,1760.4,1768.7,1780.5,1788.2,1795.9,1809.2,1815.1,1812.9,1806.5,1801.8,1792.4,1785.2,1777.4,1772.3,1766.6,1760.3,1754.3,1749.2,1743.7,1737.7,1735.2,1730.9,1728.5,1724.8,1724.3,1722.5,1723.8,1723.4,1722.8,1723.3,1725.3,1728.5,1729,1730.5,1732,1734.1,1735.6,1736.6,1738.6,1739.1,1739,1738.5,1738,1738.3,1737.4,1734.4,1733,1732.5,1732,1733,1733.9,1734.9,1735.4,1735.9,1736.9,1737.4,1738.4,1741.4,1740.4,1741.3,1741.3,1741.9,1741.9,1741.9,1740,1738.5,1737.5,1736.5,1734,1731.5,1729.5,1728,1728,1728.5,1728,1728.5,1728.5,1728,1727.5,1727.5,1730,1733,1735,1737.8,1739.8,1741.8,1744.6,1747.6,1749,1750.9,1752.4,1753.9,1753.4,1754.4,1756.3,1757.2,1757.4,1758,1758,1759.5,1761,1762.5,1763.5,1763,1765,1767.2,1770.2,1774.5,1776,1778.7,1780.7,1783.3,1786.3,1789.4,1790.5,1792.6,1795.2,1797.8,1799.9,1803.4,1805.1,1808.8,1809.9,1811.7,1813.4,1813.4,1812.9,1810.9,1808.8,1806.5,1803.3,1800,1796.9,1794.7,1791.6,1790.9,1790.2,1791.8,1795.9,1800.4,1803,1808.7,1815.2,1820,1823.2,1824.9,1823.8,1819,1810.9,1801.2,1787.8,1771.8,1753,1730
0,0,0,0,0,0,0,976.5,1955,2195.6,2196.5,2197.4,2195.6,2195.5,2193.5,2193.5,2194.4,2194.4,2435,2436.1,2436,2438.9,2440.8,2443.7,2441.8,2440.8,2439,2441.8,2438,2436.9,2436.9,2434.9,2433,2433.1,2434.1,2435.1,2436,2435.1,2436,2434.9,2435,2436,2435,2435.2,2434.3,2435.3,2434.3,2434.4,2432.6,2432.6,2431,2431,2428,2425.1,2424.9,2425.7,2180.4,2427.6,2428.4,2428.3,2430.2,2431.3,2431.3,2434.2,2192.8,2195.6,2197.6,2200.5,2201.5,2205.4,2204.4,2204.3,2204.4,2203.4,2200.4,2199.4,2196.4,2195.4,2195.5,2193.5,2193.5,2190.6,2192.6,2194.5,2195.4,2194.4,2451.8,2451.7,2455.6,2454.7,2455.6,2459.6,2458.3,2456.3,2455.4,2454.5,2451.6,2448.7,2442,2429.7,2422.4,2409.6,2396.9,2386.3,2375.2,2364.5,2353.1,2339.5,2321.7,2293.9,2238.8,2184.5,1494.7,2096.3,2056,2021.2,1990.3,1965.6,1957.5,1954.5,1953.2,1943.6,1939.2,1936,1935.4,1934.1,1933.5,1930.9,1929,1928.4,1932.5,1937.6,1940,1754.7,1947.8,1949.8,1951.2,1961.7,1974.1,1980.4,1987.1,1995.5,2006.5,818.4,826.6,833.7,839.9,846.7,855.4,861.7,871.4,1353.1,2174,2402.4,2397.3,2397.7,2398.3,2391.3,2144.1,2147.1,2400.4,2403,2415.9,1952.8,1485.2,1505.3,1782.5,2595.1,2631.7,2662.1,2693.8,2717.8,2737,2753.8,2764.9,2772.5,2777.7,2780.1,2776.4,2779.1,2781.8,2783.2,2787.2,2788.6,2787.5,2783.8,2776.1,2769.8,2759.8,2750.8,2742.2,2734.8,2732.2,2731,2729.8,2729.8,2732.2,2734.6,2741.8,2745.4,2746.6,2746.6,2745.4,2745.4,2750.3,2751.5,2756.5,2759,2763.8,2765,2771.2,2776.2,2777.4,2776.2,2776.2,2768.7,2760,2756.2,2757.5,2756.3,2755.2,2754,2760.1,2768.9,2779,2794.6,2810.4,2826.1,2846.5,2861.8,2885.2,2896.5,2902.1,2903.1,2892.7,2888.5,2875.7,2864.6,2853.4,2840,2826.7,2812.5,2804.8,2797.1,2794.5,2793.1,2794.3,2790.3,2791.5,2795.2,2794,2795.2,2801.7,2806.9,2809.4,2805.5,2806.8,2808.1,2805.5,2801.6,2802.9,2801.6,2800.3,2800.3,2800.3,2796.4,2796.4,2799,2804.2,2808.1,2810.7,2810.7,2804.2,2794,2786.4,2764.8,2460.4,2430.2,1836.6,975.5,932.1,890,847.2,998.4,1892,1860.6,1839,1820.9,1801.2,1782,1766.9,1752.6,1744.7,1745.6,1751.5,1760,1767.2,1778,1786.1,1794.4,1806,1814.5,1812.9,1808.7,1802.3,1793.9,1785.6,1779.5,1772.8,1767.1,1760.3,1754.8,1749.8,1744.8,1738.7,1734.7,1731.4,1727.9,1725.2,1723.2,1721.5,1722.3,1722.8,1723.2,1723.3,1726.6,1727,1729.5,1731.1,1732.6,1734.1,1735.6,1735.6,1737.1,1737.6,1737.1,1737.5,1737.5,1737.9,1736.9,1734.9,1733.9,1733.9,1733,1733.5,1734,1735.5,1736.5,1736.4,1737.4,1737.4,1737.9,1739.9,1739.4,1738.9,1739.9,1739.4,1738.4,1738,1735,1733.5,1731.5,1729.5,1729,1728,1726.5,1726,1725.5,1725,1725.5,1726,1725.5,1726,1726,1725.5,1726,1730.5,1732.5,1734.5,1736.8,1738.3,1739.7,1742.6,1745.5,1748,1748.4,1749.4,1750.9,1751.4,1752.3,1752.2,1754.4,1753.9,1755,1755.5,1757.8,1758.9,1760.4,1760.5,1763.6,1765.2,1767.3,1771,1773.1,1775.6,1777.6,1780.2,1784.8,1785.3,1788.4,1790.5,1793.2,1795.3,1798.3,1799.9,1804,1804.6,1807.7,1809.6,1808.6,1808,1807.4,1806.5,1803.9,1801.7,1797.9,1795.3,1792.5,1791.4,1787.7,1787.6,1788.5,1789.4,1792.1,1797.4,1800.3,1806.6,1811.9,1815.6,1819.5,1819.4,1820,1812.8,1804.4,1794.9,1781.6,1766.6,1749.5,1730
