3507.9,3505.9,3504.1,3502.1,3498.5,3498.4,3492.3,3492.5,3482.5,3480.5,3474.5,3474.5,3472.5,3474.4,3476.2,3476,3473.8,3477.8,3483.6,3483.6,3489.5,3491.4,3493.4,3491.4,3485.4,3485.4,3485.5,3481.5,3475.6,3465.8,3463.9,3462,3463.9,3119.8,3121.7,3147,3509.5,3541.7,3577.1,3597.8,3187.2,3641.8,3666.7,3326.6,3343.6,3726.1,3739.6,3756.6,3775.9,3396,3794.2,3799.7,3803.8,3800.7,3789.6,3786.3,3771.9,3771.2,3759.2,3753.8,3741.8,3727.6,3724,3714.8,3704,3696.9,3678.1,3667.7,3656,3650.5,3641.9,3635.4,3624.8,3615.8,3613.8,3612,2834,2824,2471.7,2117.8,2109.9,2101.9,2093.9,2082.1,2074.2,2068.5,2062.7,2062.5,2066.3,2070.1,2070.1,2072,2079.8,2085.6,2087.5,2582.1,2947.6,3266.6,3639.1,3631.9,2840.5,3187.2,3172.2,3556.6,3526.2,3155.8,3112.1,3023.9,2979.2,2527.4,2489,2458,2422.9,2095.9,2078.6,2070,2061.6,2051.6,2043.3,2035.1,2030.8,2025.3,2019.8,2015.8,2013.2,2009.1,2006.4,2005,2003.7,1716,1713.4,1708.1,1705.5,1704.2,1702.8,1702.8,1702.8,1702.8,1705.4,1706.7,1708,1709.4,1709.4,1710.7,1713.3,1722.9,1727.1,1732.9,1738.8,1430.9,1436.4,1155.3,1166.2,883.1,1207.4,918.1,1622.2,2005.4,2045.2,2078.9,2108.2,2124,2146.4,2156.7,2165.1,2165,2171.3,2177.8,2184.3,2188.5,2188.6,2191.1,2193.1,2203.9,2217,2223.8,2221.4,2225.8,2232.6,2232.9,2244.5,2249.5,2247.5,2247.5,2247.5,2247.3,2247.1,2244.6,1493.6,1878.5,1507.4,2249.4,2242.9,2245.1,2236.8,1871.6,1869.2,1866.8,1860.1,1851.1,2193.1,2190.7,3226,3227.5,3235.5,3230.8,2889,2176.6,2521.7,2509.1,2498.8,2494.5,2813.5,2474.3,2791.1,2787.2,3080.4,3108.2,3410.3,3107.5,3408.5,3411.7,3412.5,3413.4,3412.9,3412.8,3125.6,3125.6,3428.2,3125.8,3444.9,3445.8,3462.6,3471.8,3473.8,3487.3,3497.5,3497.4,3507.4,3513.4,3519.6,3517.6,3515.5,3509.5,3501.5,3495.5,3483.8,3468.1,3456.5,3446.8,3435.4,3429.8,3426,3418.4,3414.5,3418.3,3418.2,3422.1,3420.3,3422.1,3421.9,3423.8,3425.6,3420,3420.1,3426,3426.2,3430.2,3436.2,3444,3450,3459.7,3471.4,3479.4,3496.9,3506.6,3524.4,3536,3545.9,3562.3,3568.4,3582.7,3588.7,3588.6,3586.5,3582.4,3574.2,3559.9,3539.2,3521,3495.1,3463.6,3421.3,3382,3347.4,3308.3,3273.4,3235.7,3205.8,3173.3,3146.6,3127.7,3115.2,3095,3079.8,3061.3,3038.6,3020.6,3002,2980,2964.2,2944,2928.4,2914.2,2903.1,2890.9,2885.3,2874.3,2860.8,2848.6,2831.2,2812.8,2799.8,2787,2778,2766.8,2766.9,2770.9,2780,2798.3,2814.7,2837.6,2857.9,2876,2894.2,2907.5,2919.1,2925,2929.7,2930.2,2936.6,2940.2,2946.9,2949.5,2952.3,2950.7,2949.3,2945.5,2944.2,2938.7,2928.8,2917.7,2912.4,2904.3,2898.8,2890.6,2885.1,2881.1,2870.7,2869.7,2868.8,2872.1,2868.6,2869.8,2865.3,2861.5,2858.6,2854.6,2844.4,2830.8,2809.8,2783.4,2752.1,2716.7,2671,2622.4,2570.1,2516.5,2457.8,1909.1,1402.1,1358.9,1321.5,1670.6,1617.2,1372.8,1747.2,1905.1,1869.6,1842.1,1821.1,1803.4,1790.6,1784,1780.5,1775.5,1771.8,1767.3,1766.4,1763.8,1761.8,1761.8,1761.3,1759.8,1761.3,1764.8,1767.2,1770.3,1774.3,1778.7,1252.8,1077.3,899.8,722.4,848.7,307.9,311,314.2,317.4,1310.5,3337,3329.5,3322.2,3316.7,3313,3314.7,3312.9,3311,3302.1,3298.5,3309.2,3309.2,3311,3303.8,3291.4,3274,3254.8,3237.7,3229.6,3231.4,3223.1,3228.2,3228.2,3226.4,3219.7,3219.9,3214.9,3199.9,3185.5,3177.5,3172.8,3161.6,3158.7,3163.1,3167.5,3181.8,3182.9,3179.3,3172.8,3163.3,3165.2,3170.4,3173.6,3180.1,3185,3194.9,3216.3,3238.4,3266,3273.1,2960.7,1627.5,1298.4,970.8,1301.9,1297,320.7,322.4,0,697.6,697,836.5,836.9,836.3,835.3,833.2,833.2,0,0,0,0,3372
3539.9,3544.1,3536.2,3534.3,3526.1,3528.2,3526,3520.3,3516.2,3512.2,3508.2,3502.2,3504.2,3504.2,3504,3507.9,3505.9,3505.8,3507.6,3507.6,3511.6,3511.5,3513.4,3513.3,3513.3,3507.4,3499.4,3497.4,3489.4,3479.8,3471.9,3467.9,3469.8,3465.8,3123.7,3483.6,3489.8,3516.5,3539.9,3566.1,3598,3623.1,3658.1,3249.4,3707.2,3738.5,3756.1,3768,3782.1,3405.6,3798.5,3799.6,3806.3,3804.5,3800.1,3790.2,3780.5,3776,3765.3,3761,3746.8,3315.4,3727.1,3311.2,3710.7,3704.1,3679,3675.2,3663.6,3652.6,3644.6,3636.1,3622.8,3224.2,3609.8,3612.2,2483.9,2480,2126,2117.8,2111.8,2109.9,2097.9,2086.1,2078.2,2072.3,2074.1,2072.2,2070.3,2076,2081.7,2083.7,2091.5,2093.5,2099.4,2596,2979.3,3315.2,3297,3687.2,3672.7,3654.5,3240,3213,3184.3,3147.2,3500.9,2636,2591,2545.7,2179.2,2146.8,2116.6,2093.3,2072.8,2061.5,2050.2,2042,2036.4,2023.9,2015.9,2006.5,2003.8,1999.9,1997.2,1710.7,1993.2,1991.8,1705.5,1704.2,1417.7,1701.5,1701.5,1701.5,1420.3,1701.5,1701.5,1702.8,1705.4,1704.1,1420.3,1424.3,1421.6,1424.2,1425.5,1143.2,1432.3,1433.6,1437.7,1447.1,1165.1,882.8,891.4,1257.8,648,1643,674.3,1412.1,1776.3,1432.4,2153,2171.7,2178,2184.4,2186.5,2186.4,2186.4,2192.8,2201.6,2206,2208.3,2208.3,2219.4,2230.7,2244.2,2250.9,2260,2264.8,2274.1,2278.9,2290.6,2295.6,2295.6,2300.4,2302.7,2300.2,2297.7,2295.3,1532.6,1915.1,1922.2,2295.2,2290.6,2293.1,2288.5,1908.3,1906,1901.1,1896.5,1894.3,2258.5,1887,2231.6,2956.5,3327.1,3320.1,2962.1,2953.6,2944.5,2931.7,2570.7,2916.6,2901.7,2892.8,2880.1,3217.8,3207.7,3203.1,3204.6,3200.7,3194.3,3192,3192,3191.7,3185.7,3185.5,3181.4,3175.4,3173.5,3167.6,3479.6,3480.8,3149.4,3493.5,3499.3,3511.1,3517.3,3519.3,3527.5,3533.7,3539.7,3537.5,3535.6,3531.5,3521.7,3513.5,3505.5,3487.8,3475.6,3464,3448.5,3440.9,3435,3427.6,3419.8,3423.8,3423.9,3420,3420,3416.1,3412.5,3408.8,3412.4,3410.5,3403.1,3401.3,3407,3414.8,3424.6,3432.4,3448.4,3460,3469.5,3487.6,3507.1,3522.6,3538.6,3556.6,3570.9,3585.1,3597.2,3609.8,3616.1,3620.4,3616,3603.3,3594.8,3578.1,3551.5,3525.1,3499.1,3461.7,3423.3,3382,3347.5,3308.1,3273.2,3239.2,3205.8,3173.2,3147.6,3128.7,3108.6,3091.2,3071.4,3060.9,3038,3015.9,3000.1,2979.6,2962.3,2942.3,2930.9,2912.5,2901.4,2893.2,2887.6,2878,2861.8,2850.9,2836.3,2821.7,2807.4,2793.2,2788.2,2779.4,2779.5,2786.4,2798.2,2812.8,2833.4,2849.7,2864.8,2882.6,2898.5,2911.9,2919.3,2925.5,2929,2932.4,2934.8,2941.4,2948.1,2950.9,2953.8,2950.9,2949.8,2947.1,2947,2941.4,2931.7,2926.1,2918,2912.5,2908.5,2905.8,2904.4,2900.3,2895.1,2894.3,2890.5,2888.7,2884,2883.7,2871.6,2860.7,2848.8,2836.5,2818.8,2799.9,2774.7,2746,2713.4,2670.7,2340.2,2300.7,2264.9,2225.7,2422.9,2115,1843.8,1571.9,1305.9,1891,1842.4,1786.6,1953.9,1915.3,1877,1847.7,1822.5,1801.9,1788,1780.5,1778,1773.9,1768.8,1765.8,1764.8,1760.9,1759.8,1758.8,1757.3,1756.4,1757.4,1761.3,1764.9,1767.3,1769.8,1773.3,1425.6,1073.3,898.3,902,853.9,314.2,315.8,317.4,979.4,1665.2,3359.1,3344.2,3340.4,3334.8,3329.4,3325.5,3323.6,3316.4,3305.7,3302.1,3309.2,3311,3311,3309.2,3293.2,3281,3261.8,3246.4,3238.3,3238.4,3237,3235.2,3235.2,3234.9,3230,3221.7,3220.1,3211.9,3192.1,3182.8,3177.7,3171.5,3166.9,3169.7,3174,3183.4,3191.4,3189.3,3181.1,3173,3174.9,3181.6,3186.6,3201.5,3214.8,3224.7,3243.4,3276.4,3299.3,3308.5,3313.8,3299.5,3285.6,3275.7,3260.6,3243.6,3228.6,3205.4,3187.3,1875.3,1260.4,0,0,0,0,0,0,0,0,0,1688.6,3390.4
3574.5,3576.6,3575.1,3566.9,3564.7,3566.7,3560.8,3558.7,3554.8,3550.7,3544.4,3540.3,3542.6,3540.7,3540.3,3536.2,3538.2,3538.3,3539.9,3537.9,3537.9,3535.9,3541.9,3535.8,3531.6,3521.5,3517.5,3509.5,3503.5,3489.7,3481.7,3471.9,3475.7,3469.9,3471.7,3485.5,3137.8,3147.8,3528.6,3553.8,3577.3,3605.6,3635.5,3251.4,3696.1,3725.8,3745.5,3762.9,3774.6,3790.2,3793.7,3797,3800.7,3798.5,3788.4,3783.4,3775.8,3763.8,3758.5,3756.4,3744.3,3732.7,3723.2,3723.6,3712,3700.5,3689.5,3671.6,3660.7,3652,3648.2,3635.2,3232.7,3226.7,3227,3229.8,2866.1,2486.1,2482,2477.8,2116,2465.9,2101.9,2091.9,2089.9,2080,2078,2079.9,2081.8,2085.7,2089.6,2095.5,2103.4,2105.4,2109.4,2113.4,2974.7,3327,3308.9,3303.3,3683.6,3676.7,3286.5,3219.5,3614.9,3575.9,3528.4,2726.4,2276.7,2229.5,2189,2157.7,2122.9,2093.3,2071.5,2055.9,2044.8,2032.1,2024.2,2014.8,2007.9,1999.9,1997.2,1993.2,1989.2,1987.9,1700.2,1701.5,1701.5,1700.2,1417.7,1701.5,1702.8,1416.4,1419,1416.4,1417.7,1416.4,1417.7,1419,1424.2,1425.6,1431,1440.5,1155.4,1452.8,1464.4,1477.1,1491.6,1207.4,1221,993.4,1004.2,1323.4,678.2,368.7,371,1455.6,1462.1,1833,2191.1,2201.9,2206.3,2208.2,2208.2,2203.8,2201.8,2208.2,2214.8,2219.4,2223.8,2228.3,2235.2,2246.5,2260.2,2269.3,2274,2278.6,2288,2300.1,2309.7,2314.5,2319.5,2324.4,2326.9,2326.7,2324.1,2326.5,2324,2324,2324,2321.5,2319.1,2319.1,2316.8,2314.6,1929.6,1924.9,2307.4,2305,2304.8,2302.3,3035.3,3037.2,3406.2,3405.9,3030.1,3023,3382.3,3361.9,2988.7,2981.9,2977.4,2610.5,2966.1,3317.2,3306.4,3302.1,3302.1,3291.1,3286.6,3279.8,3267,3264.8,3256,3255.9,3239,3230.7,3216.1,3210,3527.1,3189.6,3520,3525.5,3525.4,3539.7,3539.6,3543.8,3550,3553.9,3558.1,3556,3558.1,3549.8,3541.7,3533.7,3521.5,3505.6,3491.5,3477.6,3463.9,3454.3,3448.5,3438.9,3429.5,3431.3,3433.4,3427.7,3424,3416.4,3412.8,3407.1,3401.3,3401.3,3392.1,3394,3391.9,3401.4,3411,3424.6,3438.3,3447.8,3465.4,3483.1,3506.7,3532.6,3550.8,3566.9,3587.4,3605.7,3624.8,3637.8,3637.7,3639.8,3628.8,3622.3,3607.5,3588.5,3563.8,3535.3,3501,3467.5,3423.1,3383.8,3347.3,3304.5,3276.6,3238.9,3209,3173.1,3149,3125.4,3105.2,3092.7,3069.6,3049.7,3030.5,3009.4,2989.3,2970.3,2952.8,2938.3,2923.3,2909,2898,2891.2,2885.8,2874.9,2862.8,2851.9,2838.7,2822.9,2812.5,2803.4,2798.3,2792.1,2793.8,2801.9,2815.2,2831.6,2851.9,2863.1,2880.8,2888.8,2903.6,2915.2,2921.3,2928.9,2927,2936.2,2940.2,2944,2951,2952.4,2953.8,2952.6,2949.8,2947,2944.2,2940,2934.7,2927.7,2926.3,2922.2,2920.5,2919.3,2919.4,2919.7,2915.7,2914.9,2909.8,2906.9,2895.5,2883.3,2869.9,2852.7,2830.5,2810.7,2790.5,2764.4,2735.1,2705,2666.9,2620.9,2304.1,2264,2227.2,2430.3,2383.8,2091,1817.9,1785.2,1749.7,1694.3,2066.7,1806.2,1767.9,1922.6,1883.9,1852.6,1825.2,1800.7,1785,1778.5,1776,1771.4,1767.8,1763.8,1761.9,1758.7,1757.1,1755.1,1754.6,1753.1,1753.1,1756.3,1760,1762.5,1764.9,1768.8,1594.8,1249.7,896.3,539.2,497.6,0,981.1,1312.1,3030.9,3384.2,3377.9,3370.3,3357.2,3347.8,3345.8,3338.3,3331.1,3323.6,3309.4,3304,3311,3314.6,3311,3309.3,3293.5,3282.7,3270.6,3258.6,3248.7,3243.7,3238.7,3238.7,3240.4,3240.3,3230,3225.1,3221.9,3208.5,3194,3186.3,3179.8,3176.7,3173.5,3179.6,3189,3191.6,3199.5,3199.3,3189.2,3186,3189.5,3194.6,3206.3,3219.6,3231.6,3245.1,3267.5,3295.5,3318.8,3337,3340.6,3327.9,3314,3296.6,3286.8,3275,3263.2,3247.8,3236.4,3240,3254.7,3269.6,2279.9,1636.6,662.3,329.3,1337.1,0,0,1022.8,2728.3,3418.3
3607.9,3607.9,3607.9,3607.9,3610,3605.9,3606.3,3606.3,3604.3,3594.2,3585.7,3583.6,3585.9,3582,3579.9,3579.7,3573.5,3567.1,3575.2,3575.2,3570.9,3566.6,3564.5,3560.2,3558.1,3548,3539.7,3531.8,3521.6,3507.6,3501.7,3487.7,3489.7,3483.7,3479.6,3489.4,3491.6,3157.7,3519.9,3532.4,3194.8,3203.2,3225.9,3245.2,3260.2,3275.2,3703.9,3730,3748.2,3763.4,3772,3776.4,3785.3,3777.6,3769.9,3765.4,3755.7,3757.8,3748.5,3741.2,3736.9,3727.6,3715.6,3713.3,3709.1,3693.3,3686.4,3671.2,3662.6,3651.4,3647.4,3634.6,3241.3,3241.4,3237.7,3237.7,2488.2,2484.1,2482,2484,2475.8,2472,2109.9,2100,2091.9,2087.9,2087.8,2087.7,2091.7,2097.7,2099.5,2103.6,2113.5,2117.6,2125.6,2127.7,2527,3335,3323.3,3715.6,3707.6,3694.2,3671.3,3657.1,3223.8,3196.9,3549.8,3500.1,3440.7,2654.9,2611.1,2567.8,2524.4,2101.2,2076.1,2059.1,2049.2,2032.5,2022.8,2012.1,2001.3,1993.2,1989.3,1985.4,1984,1698.9,1696.3,1696.3,1697.6,1413.8,1415.1,1415.1,1416.4,1133.9,1133.9,1133.9,1132.6,1135.2,1420.3,1422.9,1428.3,1149.9,1157,1168.2,1179.7,1193.1,1209.8,917.4,1247.7,987.2,999.8,377.8,382.5,380.1,704.2,380.1,1117.5,1122,1864,1859.5,2228.4,2228.3,2228.3,2226,2221.5,2217,2217.1,2223.9,2226.1,2232.8,2232.8,2241.9,2248.8,2260.2,2269.5,2281,2285.7,2295.1,2304.6,2316.8,2319.2,2329.1,2336.4,2341.3,2346.4,2341.3,2341.1,2338.5,2333.7,2343.7,2341.2,2333.8,2331.4,2333.9,2331.6,2326.7,2326.8,2321.8,2324.2,2321.8,2321.8,2321.7,3063.3,3440.9,2689.9,3816.3,3438.4,3058,3060.2,3416.8,3041.1,3801.5,3794.6,3398.2,3771.3,3388.9,3377.5,3737.3,3739.7,3726.4,3708.6,3352.4,3338.9,3330.2,3314.5,3309.8,3292.5,3281.9,3268.8,3253.8,3582.9,3572.5,3570.2,3570.1,3565.8,3574.1,3574.3,3576.4,3576.5,3580.8,3585,3581,3576.7,3568.5,3564.4,3556.2,3545.9,3531.7,3515.7,3499.7,3483.7,3471.9,3466,3458.3,3444.8,3442.9,3441.2,3431.8,3428,3420.4,3411,3405.3,3401.7,3399.6,3390.3,3393.9,3390.3,3397.6,3411,3422.3,3436,3449.5,3470.8,3494.5,3520.4,3544.6,3564.8,3585.4,3608.1,3629.3,3646.4,3661.7,3665.9,3659.5,3657.3,3644,3626.7,3601.2,3572.2,3539.3,3501,3463.5,3423,3382,3345.4,3308.2,3274.8,3237.3,3203.7,3174.5,3148.8,3123.7,3106.2,3084.7,3067.7,3047.7,3025.2,3006.1,2987,2971.2,2950.8,2935.1,2922.5,2908.6,2901.8,2891,2884.2,2873.3,2861.2,2851.9,2838.5,2824,2817.6,2811,2804.7,2803.7,2809.2,2818.7,2831,2849.1,2868.2,2879.4,2891.6,2903.6,2915.2,2922.8,2927.7,2931.2,2935,2936,2942.7,2945.5,2952.5,2952.4,2953.9,2951.2,2946.9,2945.6,2941.5,2938.9,2939,2934.9,2930.6,2930.3,2933.2,2933.3,2939,2937.8,2932.5,2932,2928.5,2916.9,2905.8,2887.1,2868.6,2839.5,2812.4,2787.6,2760.8,2729.3,2696.9,2655.5,2616.7,2572,2264.3,2227.4,2190.8,2390.7,2347.6,1838.3,2038.4,2006.6,1972.7,1913.2,2076.1,1815.5,1768.1,1930.2,1699.7,1855,1825.2,1799.1,1783.5,1776.5,1773,1770.4,1766.8,1761.8,1759.8,1758.7,1757.7,1756.2,1754.3,1753.8,1752,1753,1756.3,1761.4,1763.3,1765.2,1769.9,1246,716.6,1162.9,651.7,988.1,1990.3,3402,3407.3,3410.7,3402.7,3389.3,3381.7,3370.3,3366.1,3358.5,3349.3,3338.4,3320.2,3311.2,3311.2,3316.7,3314.9,3306,3295.3,3286.7,3279.8,3265.9,3254.4,3246.2,3244.6,3251.5,3247.6,3244.3,3230.5,3224.1,3217.3,3213.9,3197.7,3189.9,3180.1,3177.2,3180.5,3188.4,3194.3,3205.7,3213.6,3214.8,3209.2,3207.5,3212.7,3221,3238,3251.6,3263.7,3276.1,3304.2,3327.7,3349.3,3360.4,3362.1,3349.5,3329.9,3316.2,3306.4,3294.9,3295.3,3288.3,3283.1,3283.7,3302,3318.8,3341.3,3022.1,3038.3,3397.1,3404.8,3402.8,2720.2,3419.9,3431.3,3444.9
3637.7,3646.2,3646.4,3648.6,3650.8,3655.2,3653,3655.3,3651.2,3642.7,3638.6,3632.3,3625.8,3624,3621.9,3618,3617.8,3613.3,3611.1,3609,3602.5,3598,3591.8,3589.7,3577.1,3566.3,3562.2,3553.9,3543.9,3529.7,3521.6,3509.5,3507.5,3501.6,3493.7,3497.5,3501.7,3511.8,3178,3530.3,3536.5,3198.9,3213.6,3230.6,3245.5,3258.7,3656.8,3679.7,3697.7,3715.3,3728.9,3733.4,3736.9,3743.4,3736.5,3736.7,3731.9,3736.5,3727,3731.4,3715.3,3708.4,3703.9,3701.8,3694.7,3688.1,3674.7,3663.7,3655,3644.2,3640.2,3629.3,3240.6,3239,3239.1,3236.9,3228.3,2861.5,2484.1,2857.3,2124,2119.9,2111.9,2103.9,2099.8,2097.9,2095.8,2097.8,2101.7,2105.6,2109.7,2117.6,2123.6,2131.7,2140,2144,2567.9,2144.1,2964.8,2972.5,2962.5,3333.4,3313.7,3681,3291,2857.3,2821.3,3185.3,3123.8,3063.3,3007.2,2592.2,2516.7,2116.9,2093.3,2074,2056.9,2039.9,2025.8,2012.2,2001.3,1989.4,1982.8,1978.9,1977.5,1696.3,1693.7,1693.7,1412.5,1415.1,1415.1,1417.7,1133.9,1135.2,1135.2,1137.9,1137.9,848.8,565,850.2,856.9,866.5,877.9,886.7,900.1,283.8,285.1,0,723.8,730,389.8,389.8,389.8,389.8,387.3,767.4,1891.5,1891.4,1893.7,1886.7,2250.8,2253.1,2246.2,2237.3,2237.1,2230.5,2230.4,2237.1,2239.4,2246.3,2248.6,2253.3,2262.5,2274.1,2283.5,2292.9,2300,2307.1,2319.2,2326.4,2336.2,2346.1,2353.8,2353.8,2356.3,2353.8,2351.3,2353.8,2348.7,2348.6,2341.2,2341.2,2341.2,2341.4,2338.8,2333.9,2333.9,2333.9,2331.5,2331.3,2328.9,2331.3,3079.9,3457.6,3835.5,3457.6,3839.8,3835.1,3447.6,3830.1,3447.6,3830,3827.6,3827.6,3818.1,3428.4,3811.3,3808.6,3799.2,3792.1,3778.1,3400.2,3757.3,3748.2,3365.9,3352.2,3334.4,3327.7,3312.3,3301.2,3644.2,3629,3620.3,3618.2,3611.7,3609.6,3611.8,3607.7,3605.6,3610,3608,3606,3599.8,3591.5,3579,3579,3568.9,3554.4,3532,3517.9,3499.9,3491.9,3480.1,3466.2,3458.4,3452.8,3453.1,3445.5,3433.9,3424.2,3418.7,3409.2,3405.7,3399.9,3394.1,3388.6,3394,3403.4,3414.6,3428.1,3439.7,3458.9,3482.5,3506.4,3528.4,3556.7,3583.4,3608.3,3631.5,3655.1,3668.2,3681.1,3687.4,3687.4,3676.7,3657.1,3637.4,3613.9,3576.3,3535.2,3497,3461.7,3423,3382,3345.5,3306.4,3271.4,3239.1,3209,3177.6,3148.9,3126.5,3102.6,3082.8,3062.6,3039.9,3023.4,3004.2,2983.6,2966.1,2948.8,2932.1,2919.5,2909.8,2901.5,2889.4,2878.5,2870.4,2857,2847.6,2838.2,2826.5,2818.7,2812.2,2812.4,2816.7,2821.1,2835.8,2858.7,2870.1,2888.1,2900.4,2906.8,2914.9,2922.6,2930.1,2935.1,2937.9,2940.4,2944.3,2945.7,2948.3,2952.5,2951.1,2948.4,2947.1,2944.3,2941.5,2941.7,2940.3,2941.7,2937.6,2943.1,2943.2,2944.8,2950.2,2954.6,2954.8,2953.9,2950.5,2941.3,2928.5,2911.9,2883.6,2855,2822.2,2791.9,2757.5,2722.9,2684.3,2647.1,2606.6,2562.8,2254.2,1975,1935.5,2148.6,2117.7,2314.6,2050.3,2026.1,1999.5,1972.1,2132.1,2088.3,1825.8,1776.5,1939.5,1899.3,1858.8,1828,1800.3,1782.5,1775.5,1772.5,1767.9,1766.8,1763.2,1761.7,1759.7,1759.2,1758.2,1756.7,1754.2,1754.3,1754.1,1756.8,1758.3,1761.4,1763.7,1415.8,1244.9,989.8,991.6,1326.3,2347,3419,3420.8,3428.2,3423.9,3421.6,3406.3,3398.7,3389.2,3387.2,3374,3364.4,3349.4,3329.4,3320.3,3320.4,3324,3320.5,3313.6,3303.1,3296.2,3284.1,3279.2,3271.1,3263.1,3259.4,3264.9,3261,3255.6,3241.5,3236.7,3230,3221.5,3208.3,3198.8,3185.6,3190.7,3192.5,3198.6,3205,3221.3,3229.2,3233.6,3229.8,3229.7,3239.5,3251.5,3268.7,3289.7,3300.5,3318.3,3340.1,3363.9,3389.7,3397.3,3393.6,3377.3,3357.6,3336.4,3324.5,3319.9,3319.9,3318.5,3314.7,3320.1,3333.9,3356.4,3381.3,3401.4,3410.2,3419.6,3427.2,3425.2,3440.5,3448.2,3454.1,3472.1
3676.3,3678.8,3685.6,3687.8,3698.9,3701.4,3710.3,3707.9,3699.3,3701.5,3699.5,3690.8,3682.2,3673.5,3671.6,3667.2,3665,3656.2,3651.9,3638.9,3636.7,3634.5,3621.5,3610.7,3602.2,3591.5,3581,3574.8,3564.3,3550,3539.8,3529.7,3529.6,3517.4,3509.5,3513.5,3513.6,3521.8,3528.1,3526.5,3536.5,3198.9,3557.2,3222.1,3232.9,3241.5,3621.3,3634.5,3651.3,3668.9,3677.7,3686.5,3697.1,3703.7,3703.4,3701.5,3710,3708,3703.5,3694.8,3701.4,3689.9,3687.4,3689.4,3683.3,3672,3661,3645.6,3638.8,3252.8,3617.4,3598.5,3589.9,3579.8,3575.9,3575.8,3565.4,3216.7,3212.6,2848.3,2850.9,2477.9,2473.8,2467.9,2463.8,2465.8,2105.6,2107.6,2113.7,2115.7,2119.6,2129.8,2138,2144.2,2152.3,2567.1,2575.4,2581.1,2579,3351.6,3353.5,3726.9,3328.5,3315.4,3672.7,3644.5,3597.4,3556.4,3101.5,3042.2,2985.6,2936,2537.4,2497.3,2468.6,2089.6,2070.8,1769.1,1740.1,1726.2,2001.7,1986.9,1983,1978.9,1411.3,1124.8,843.6,846.2,847.5,848.8,1132.6,567.6,852.7,851.4,572.9,283.8,285.1,286.4,0,291.9,296.1,301.9,0,0,0,394.8,397.3,747.2,748.7,750.8,754.9,394.8,392.2,1535.2,1915.2,2286.1,2288.3,2283.5,2283.3,2280.8,2271.4,2264.5,2260,2255.4,2250.8,2239.4,2246.3,2248.6,2250.9,2257.8,2260.1,2264.7,2274.2,2283.4,2297.7,2304.8,2307.1,2319.2,2328.9,2341.1,2346.1,2353.5,2363.7,2368.6,2366.2,2363.6,2358.6,2358.6,2358.6,2356,2348.6,2348.6,2348.5,2346.2,2343.7,2338.8,2336.3,2336.3,2336.3,2709.5,3087.3,2711.8,2706.8,3837.9,3847.4,3852.2,3474.3,3851.8,3846.8,3846.8,3846.9,3854,3849.1,3854,3851.6,3851.6,3844.4,3847,3837.4,3837.3,3827.7,3822.8,3808.7,3804,3397.9,3388.7,3762.2,3368.1,3352.3,3725.5,3705.3,3692,3680.8,3676.5,3663.7,3665.8,3655,3646.3,3639.8,3642.1,3638,3637.9,3627.4,3621.3,3612.9,3606.7,3592,3577.4,3559,3544.7,3522.1,3516.2,3506.3,3492.1,3480.4,3472.8,3463.3,3459.3,3447.6,3436.4,3428.6,3417.3,3413.7,3400.6,3394.8,3398.2,3401.8,3405.4,3420.4,3435.5,3452.9,3472.4,3486.1,3516.4,3538.1,3569,3599.9,3629.5,3650.7,3672.7,3685.5,3701,3705.4,3703.2,3694.2,3674.6,3652.7,3620.3,3584.7,3537.3,3497.3,3459.7,3417.5,3382,3340.1,3300.8,3266.2,3233.9,3207.1,3171.1,3146.9,3123.4,3099.6,3082.7,3061.3,3039.8,3024.8,3004.1,2983.3,2968.9,2953.2,2934.7,2923.6,2909.7,2897.3,2887.8,2878.3,2866.1,2854.2,2843.5,2838.1,2827.7,2823.9,2822.6,2825.6,2831.1,2844.8,2861.3,2883.3,2902.7,2912.5,2920.3,2932.3,2936.3,2941.5,2946.7,2946.1,2950,2948.5,2954.2,2951.2,2951.2,2949.7,2949.8,2945.5,2941.5,2940.2,2934.7,2936.4,2936.5,2940.5,2941.9,2944.7,2953,2960.1,2964.5,2971.9,2975.1,2972.7,2964.8,2953,2934.5,2912.4,2881.6,2840.7,2804.1,2766.3,2726.2,2685.2,2641.2,2600.3,2554.7,2511.3,2468.8,1936.3,1661.8,1877.8,2312.6,2283.6,2031.3,2011.6,1991.8,1968.4,2136.8,2095.6,1831.2,1781.6,1545.4,1517.2,1864.4,1830.2,1800.3,1783,1775.5,1772.5,1768.9,1766.8,1764.3,1763.2,1762.2,1761.7,1760.3,1759.3,1757.2,1756.2,1755.7,1757.4,1759.3,1759.8,1762.2,1588.8,709.9,1000.5,1338.8,3437.5,3431.4,3429.6,3439.1,3441.1,3437.2,3428.8,3419.6,3406.1,3398.8,3392.8,3385.3,3373.8,3353.1,3338.6,3327.8,3322.6,3328.2,3326.4,3319.7,3310.9,3302.9,3302.7,3294.5,3289.9,3280.1,3280.2,3276.7,3267.8,3263.9,3253,3246.2,3239.1,3235.5,3222.1,3210.5,3208.8,3207.2,3215.5,3218.6,3228.4,3236.8,3248.3,3250.9,3254,3251.8,3265.5,3279.3,3298.6,3316.5,3339.8,3350.7,3371,3393.3,3417.9,3421.7,3416.2,3397.8,3378.3,3358.8,3344.7,3343.5,3341.8,3340.4,3336.3,3343.2,3358.8,3379.9,3399.6,3416.1,3429,3438.6,3446.5,3444.5,3450.2,3457.8,3471.6,3489.6
3707.7,3720.8,3725.6,3734.7,3745.9,3757.3,3757.5,3759.8,3759.8,3762.5,3757.9,3751.2,3749,3738,3724.8,3718.3,3713.8,3698.3,3691.6,3676.4,3669.6,3656.2,3645.3,3636.7,3621.2,3612.8,3602.1,3599.9,3587.2,3574.7,3562.3,3553.9,3551.9,3541.8,3533.7,3535.7,3529.9,3537.8,3540.1,3536.3,3536.8,3537,3545,3217.5,3568.1,3226.8,3595.5,3608.7,3620.9,3631.4,3639.7,3648.2,3652.3,3658.5,3660.7,3665,3667.2,3674.2,3669.7,3667.6,3672,3665.3,3658.6,3660.5,3651.7,3636.6,3625.6,3610.8,3241.9,3237.7,3233.7,3561.8,3556,3552.2,3548.5,3548.1,3543.4,3542.6,3206.1,3550,2839.9,2848.5,2869.7,2812.2,2471.8,2471.9,2476,2115.8,2119.9,2127.9,2132,2140.1,2150.3,2156.5,2164.9,2169.1,2582.4,2585.1,2587.1,2964.9,3357.6,2960.5,3729.5,3331.1,3319.1,3666.9,3620.8,3575.9,3521.2,2740.3,3017.5,2654,2230.9,2228.7,2485.5,2106.2,1779.1,1758.2,1440,1134.2,1127.5,1406,1406,1684.6,839.7,1122.2,561.1,562.4,563.7,565,565,568.9,570.2,287.8,290.5,291.9,296.1,0,0,0,0,0,0,353.9,748.7,750.8,1117.1,1505.9,1134.5,1521.4,1917.9,1924.7,1931.8,2307.7,2312.2,2314.4,2307.1,2302.3,2295.1,2290.3,2283.2,2273.7,2271.4,2266.8,2262.2,2253.1,2257.6,2262.2,2262.2,2264.6,2271.6,2278.7,2288.1,2295.2,2300,2309.5,2319.2,2328.9,2338.6,2345.9,2356,2356,2368.7,2371.2,2368.6,2361.1,2358.6,2356,2356,2356,2356,2353.6,2346,2353.7,2348.8,2343.7,2343.9,2336.3,2711.8,2711.8,3460.4,3092.2,3842.8,3842.8,3852.3,3854.6,3856.9,3859.1,3856.7,3854.1,3858.9,3858.9,3863.7,3866,3861.1,3863.6,3858.8,3861.2,3858.8,3851.6,3851.6,3842,3834.7,3827.5,3811.1,3411.9,3789.9,3393.3,3768.9,3761.9,3748.3,3739.1,3727.7,3718.6,3703.3,3698.9,3687.6,3683.3,3676.9,3666.1,3664,3659.6,3655.5,3651.2,3638.8,3636.6,3624,3604.9,3588.4,3573.7,3559.3,3545,3534.9,3516.5,3502.9,3493.1,3483.2,3477.2,3461.6,3450,3436.7,3429.2,3421.7,3412.1,3406,3406.3,3409.6,3420.8,3432,3449,3466.7,3482.4,3508.1,3529.9,3556.4,3583.3,3618.7,3642.2,3668.1,3687.8,3707.7,3719,3723.3,3718.9,3705.3,3688,3663.5,3629.2,3595.2,3543.5,3497.3,3459.8,3415.7,3376.6,3338.3,3299.1,3268,3233.7,3208.9,3179.5,3148.9,3126.8,3104.7,3086,3068.8,3041.7,3026.7,3005.6,2987.9,2971.8,2956.2,2940.6,2926.4,2912.6,2901.7,2886.5,2873.1,2862.1,2850.1,2842.1,2835.5,2831.7,2831.8,2833.2,2838.7,2849.9,2868.8,2887.1,2909.4,2927.3,2942.8,2947.6,2951.5,2952.5,2960.6,2961.5,2960,2959.7,2959.7,2954,2952.6,2953.9,2946.9,2945.7,2938.7,2936.2,2929.3,2928.1,2930.9,2936.6,2937.8,2940.4,2954.6,2960.1,2970.1,2980.3,2980.5,2989.4,2982.8,2973.2,2960.2,2936.2,2905.7,2867,2820.7,2773.7,2731.4,2685.3,2641.3,2592.8,2547.5,2506.4,2465.1,2176.3,1424.1,2347.1,2313.4,2055.6,2262,2240,2218.5,2197.4,2172,2137.9,2103.2,2047.2,1997.2,1547.8,1326.4,1865.6,1830.2,1801.3,1782,1774.5,1771.5,1769.4,1768.9,1765.4,1765.3,1764.3,1765.8,1765.8,1763.3,1761.8,1758.6,1757.3,1758.9,1759.3,1758.8,1759.8,884.9,332.9,1344.3,3473,3462.5,3454.6,3450,3448.2,3454.3,3452.2,3438.4,3430.4,3421.1,3413.6,3402.3,3396.4,3383.1,3366.5,3348.1,3333.7,3335.5,3339.3,3334.3,3336.7,3330,3323.6,3320.6,3315.4,3309.3,3301,3295.8,3286.7,3278,3263.3,3254.3,3247.2,3238,3235.9,3227.1,3221.9,3218.2,3218.1,3226.4,3237.9,3246.3,3255,3261.7,3268.2,3271.3,3276.3,3290,3305.9,3323.7,3341.6,3358,3378.2,3398.6,3413.8,3436.8,3437.1,3437.2,3424.3,3411.8,3394.1,3382.1,3379.9,3381.9,3374.4,3377.7,3381.1,3393.1,3405.8,3420,3432.9,3442.7,3446.3,3452.3,3452.3,3465.8,3473.5,3491.4,3505.3
3736.8,3750.5,3764.2,3773.4,3792,3808.4,3813.1,3820.3,3820.4,3830.1,3830.2,3823.4,3816.4,3804.9,3793.3,3781.8,3771,3757,3738.8,3722.8,3711.4,3689.5,3675.9,3658.2,3651.7,3636.1,3625.5,3621.1,3610.3,3599.7,3589.1,3580.9,3574.6,3566.3,3562,3558,3551.9,3549.9,3550.1,3552.4,3548.6,3545.2,3553.6,3559.6,3564.1,3576.7,3576.6,3586.8,3599.3,3611.9,3618.5,3620.3,3628.5,3634.7,3632.4,3636.2,3640.8,3647.2,3647.4,3638.5,3640.8,3636.2,3627.6,3623.4,3618.9,3606.3,3593.7,3575.2,3220.8,3218.8,3208.5,3204.3,3526.7,3520.7,3519.1,3520.2,3521.9,3518.9,3522.1,3525.9,3174,2840,3186,3189.2,2858.7,2864.8,2867.2,2502.9,2512.8,2525.5,2529.5,2150.5,2160.9,2171.4,2177.7,2184.1,2192.8,2195,2590.2,2595.1,2592.5,2968,3344.5,3337.9,3313.2,3682.3,3644.5,3599.3,3207.8,3162.7,3123,2764.1,2677.4,1989,1648.3,1592,1887.3,1556.8,1523,1217.7,1127.8,842.3,839.7,556,557.3,558.6,559.8,562.4,563.7,563.7,568.9,289.1,293.2,297.5,303.4,0,0,394.8,0,394.8,397.3,397.3,397.3,772.8,770.3,1909,1920.4,1934.5,1941.8,1951.4,1953.9,1956.3,1953.7,2336.4,2333.9,2328.9,2321.6,2314.3,2304.6,2297.4,2292.7,2287.9,2283.1,2278.5,2271.5,2266.9,2266.9,2273.9,2276.2,2276.2,2278.6,2288,2295.2,2302.3,2311.9,2316.9,2321.7,2336.1,2341,2351,2353.6,2356,2363.6,2368.7,2366.2,2363.8,2353.4,2353.4,2353.4,2353.4,2351,2346.1,2343.6,2346.1,2346.3,2341.3,2341.3,2338.9,2709.6,3087.2,3089.7,3092.2,3847.8,3845,3852.2,3854.5,3856.8,3859.2,3859.2,3864,3863.9,3868.5,3875.8,3878.3,3875.8,3873.4,3873.3,3875.7,3870.9,3866.1,3858.8,3849.2,3846.8,3834.7,3827.5,3818.1,3806.1,3799.1,3787.3,3773.4,3768.8,3757.4,3748.2,3741.4,3732.2,3723.2,3714.5,3707.9,3698.9,3696.7,3685.9,3681.7,3679.6,3673.1,3666.8,3660.4,3654.2,3639.6,3622.3,3614.1,3599.5,3578.4,3565.9,3545.5,3529.5,3517.5,3505.5,3491.7,3475.8,3462.1,3448.8,3437.4,3431.7,3422.5,3422.1,3422.2,3431.1,3436.6,3449.7,3466.9,3486.4,3506,3528.1,3552.1,3574.8,3601.8,3631.5,3657.1,3685.6,3707.7,3723.3,3734.5,3736.8,3730.1,3716.6,3694.7,3672.5,3633.5,3593.2,3545.6,3499.3,3459.9,3419.6,3372.9,3332.9,3291.9,3264.2,3228.7,3205.2,3181.1,3150.4,3125.1,3108.1,3089.1,3069.1,3044.7,3031.2,3013.1,2992.7,2978,2962,2947.9,2926.7,2916.9,2902,2886.7,2875.9,2860.8,2848.9,2838.2,2834.2,2835.7,2838.4,2845.3,2860.5,2875.7,2892.7,2913.4,2934.4,2952.5,2962.1,2968.8,2975.3,2972,2974.3,2972.4,2975.2,2968.2,2965.4,2961.1,2958.2,2949.8,2945.7,2940.3,2934.8,2930.9,2922.9,2926.9,2925.7,2932.7,2939.6,2945,2954.9,2967.6,2979,2989.1,2992.1,2993.7,2990,2979,2958.7,2926.6,2882.3,2839.3,2789.3,2735.8,2689,2637.7,2591.6,2543.9,2500.3,2458.1,2177.6,2385,2118.7,2320.1,2290,2265.8,2246.3,2228.5,2210.5,2193.8,2170.3,2143.2,2110.3,2054.5,1791.7,1549.1,1325.2,1866.7,1830.8,1800.2,1781.5,1775,1772,1770.4,1769.4,1767.9,1768,1768.5,1769.5,1770.4,1766.8,1764.8,1762.3,1760.8,1761.3,1761.9,1760.4,1059,0,1015.1,1715.7,3495.2,3483.8,3470.2,3471.8,3469.6,3471.7,3467.8,3455.9,3442.2,3431,3421.5,3412,3406.3,3389.5,3368.5,3350.3,3345,3343.1,3347.3,3349.7,3346.8,3341.8,3337.9,3336.2,3333.7,3327.3,3318.9,3306.8,3292.2,2971.9,2024.8,2011.8,1999.2,1988.4,3222.1,3216.8,3219.6,3214.3,3217.5,3226,3239.2,3250.9,3259.5,3269.8,3275,3283.4,3288.7,3311.4,3323.8,3339.9,3350.8,3372.9,3394.9,3411.7,3425.3,3444.6,3450.4,3450.6,3443.1,3434.7,3423.3,3416.4,3417,3422,3426,3423.6,3428.8,3437.6,3443.1,3463.8,3463.8,3473.6,3473.7,3469.7,3471.7,3479.4,3497.2,3513.2,3529.4
3766.5,3778,3791.8,3815.4,3832.2,3858.7,3870.9,3887.9,3890.5,3902.9,3905.6,3900.8,3893.6,3883.9,3869.5,3860.1,3845.9,3824.3,3805.5,3779.8,3756.7,3729.4,3708.9,3695.3,3673.2,3660.3,3651.4,3640.2,3631.6,3622.9,3614.5,3610.1,3605.9,3593.2,3586.9,3587.1,3578.8,3580.8,3576.8,3576.9,3575.3,3229.4,3569.7,3569.7,3572.1,3576.5,3576.7,3580.9,3588.7,3597,3603.1,3605.2,3604.7,3615.2,3619.1,3619.2,3623.5,3621.3,3621.3,3619.2,3614.8,3614.7,3606.3,3602.3,3587.8,3569,3559,3544.8,3196.5,3192.3,3185.9,3183.9,3183.8,3183.8,3494,3497.4,3498.2,3501.6,3169.8,3506.2,3508.2,3510.9,3174.2,3185.7,3186,2864.5,2871.1,2875.5,2887.7,2898.1,2913.4,2548.3,2563.8,2572.2,2580.8,2971.8,2598.3,2976.3,2985.5,3382.8,3004.9,3767.6,3760.9,3747.1,3731.6,3705.2,3332.5,3273.6,3235.5,2884.3,2826.3,2500.9,2762.4,2733.8,2422.6,2323.1,1627.2,1258.7,973.2,1241.7,1200.2,834.6,557.3,881.4,557.3,558.6,559.9,561.2,562.4,565,290.5,296.1,304.9,312.6,0,0,0,397.3,397.3,1187,799.8,799.8,1192,1569.5,1954.2,1961.6,1966.3,1968.9,2351.4,1971.3,2353.9,2356.3,2348.7,2348.7,2343.7,2338.7,2328.8,2319.1,2314.2,2309.4,2299.8,2295,2292.6,2287.8,2285.5,2278.6,2278.6,2283.2,2280.9,2283.3,2288,2290.4,2299.8,2309.4,2316.9,2321.7,2324.1,2338.5,2346.1,2351,2353.6,2356,2358.4,2363.6,2363.6,2353.4,2353.4,2351,2348.6,2348.6,2348.6,2341.2,2341.2,2343.7,2341.3,2341.3,2341.3,2341.3,3082.7,3082.5,3082.5,3835.8,3840.4,3835.3,3840.2,3847.1,3849.4,3856.7,3856.7,3859.1,3861.2,3863.6,3866,3870.8,3873.3,3870.9,3866.1,3870.9,3870.9,3868.5,3863.6,3861.2,3854,3842,3832.3,3817.9,3817.9,3808.4,3801.3,3787.4,3782.6,3778,3768.9,3757.4,3752.8,3748.3,3736.9,3728.2,3723.6,3714.8,3701.3,3701.7,3690.6,3686.2,3682.2,3677.9,3671.7,3659,3648.7,3638,3623.1,3613.1,3599.9,3576.9,3559.8,3544.1,3531.4,3521.4,3501.5,3481.9,3470.1,3456.6,3451.4,3442,3437.8,3445.3,3451,3456.7,3475.7,3486.9,3510.4,3530.2,3556.3,3578.9,3595.4,3627.2,3657.1,3679,3703.2,3718.7,3736.8,3746,3752.9,3741.5,3728,3708.1,3674.8,3640.1,3601.8,3555.9,3503.4,3459.8,3419.6,3369.1,3329.2,3290.1,3257.1,3223.4,3203.7,3180.9,3150.3,3130,3112.7,3091,3074.1,3054.2,3039,3016.2,3000.2,2678.9,2970.8,2948,2935.3,2921.3,2900.7,2886.8,2873.2,2860.8,2852.9,2846,2844.9,2847.6,2854.6,2865.5,2886.4,2900.4,2917.5,2941.8,2961.3,2975.1,2982.2,2988.6,2989.4,2987.5,2988.7,2988.5,2986.9,2980.9,2973.7,2963.9,2958.2,2951.3,2943.1,2936.5,2927,2923.1,2920.5,2921.8,2924.6,2931.6,2938.6,2952.3,2960.8,2977.8,2986.4,2997.7,3005,3003.8,2995.4,2979,2952.9,2912.3,2862.6,2809.4,2753.8,2701,2645.5,2591.7,2542,2492,2451.7,2414.2,2379.5,2349.9,2077,2294.1,2273.2,2252,2236.8,2224.2,2208.1,2192,2172.4,2146.4,2116.6,2061.6,1796.3,1550.5,1519.7,1866.3,1830.8,1800.2,1782,1774,1771.5,1770.4,1771.4,1769.9,1771,1771.5,1774,1774.5,1772,1768.3,1766.3,1763.8,1763.3,1588.9,354,344,1714.6,2800.2,3542.3,3521.2,3504,3493.7,3489.7,3491.4,3489.4,3483.5,3469.6,3454.3,3446.6,3433.3,3424.1,3416.3,3397.3,3384.1,3365.7,3358.1,3352.8,3349.7,3350.5,3351.7,3348.5,3338.6,3333.7,3329,3326.5,3311.5,3304.4,3287.8,3269.4,2938.1,2002.9,1988.4,1979.7,3214.8,3206.1,3204,3207.2,3207.2,3224,3237.2,3250.8,3264.7,3271.5,3285.3,3290.8,3304.7,3325.9,3338.5,3349.1,3358.1,3372.9,3391.2,3408.1,3421.4,3435,3446.8,3452.7,3450.9,3451.4,3448.4,3448.5,3454.3,3469.3,3471.1,3471.1,3470.6,3478,3485.6,3505.3,3511.2,3513.2,3515.2,3511.3,3505.3,3511.1,3525.2,3549.7,3557.9
3782.8,3803.5,3825,3851.4,3878.1,3902.7,3925,3937.7,3957.9,3976,3981,3983.8,3978.9,3971.3,3966.5,3948.8,3931.6,3909.1,3884.4,3845.8,3817.2,3786.5,3753.9,3731.1,3708.6,3686.3,3675,3666.2,3659.4,3653,3650.7,3642,3637.9,3631.2,3622.7,3620.6,3618.6,3616.4,3610.1,3610.4,3608.7,3598.3,3592.1,3592.3,3588.4,3586.6,3582.8,3586.7,3586.7,3590.6,3598.8,3594.7,3598.3,3600.4,3602.3,3604.4,3610.6,3610.7,3606.5,3604.5,3600.1,3591.7,3583.4,3573.3,3563.4,3551.2,3530.9,3521.4,3182.2,3494.4,3173.9,3167.7,3476.6,3475,3471,3474.2,3475.4,3474.5,3146,3142.3,3140.5,3493.1,3504.3,3521.2,3531.6,3543.9,3566.2,3586.6,3607.3,3632,3655.5,3314.6,3332.2,3345.6,3356.7,3368.1,3001.3,3001.9,2991.6,3393.3,3393.5,3776.3,3769.7,3762.7,3746.9,3346.6,3323.2,2594.7,2582.4,2571.3,2555.1,2176.4,2152.2,2412.9,2104.7,2353.2,2008.8,1703.6,986.3,977.6,1247.1,1193.9,833.4,556,557.3,557.3,561.2,561.2,562.5,566.5,296.1,0,0,0,397.3,399.9,399.9,797.2,792.1,1589.4,1976.7,1984.2,1984.2,1979,1976.4,1978.9,1978.9,2371.1,2368.7,2363.7,2361.2,2358.7,2353.7,2350.9,2343.7,2338.9,2333.8,2328.9,2319.2,2314.2,2309.4,2302.2,2299.8,2297.4,2290.2,2283.2,2283.2,2288,2288,2292.8,2295.1,2299.8,2307.1,2314.3,2319.2,2324.1,2331.3,2343.6,2346.1,2351,2351,2351,2355.8,2355.8,2353.4,2346,2346,2346,2343.7,2341.2,2341.2,2338.7,2341.2,2341.2,2338.8,2341.3,2333.9,2704.9,3082.7,3080.2,3455.7,3458,3455.2,3452.8,3459.8,3840.1,3844.6,3849.3,3849.3,3854,3856.3,3858.7,3865.9,3868.4,3873.3,3873.3,3866.1,3866.1,3866.1,3868.5,3861.3,3856.4,3851.6,3842,3832.2,3829.8,3817.9,3810.7,3803.6,3798.8,3794.1,3787.2,3782.6,3773.4,3766.6,3759.8,3750.6,3746.1,3739.4,3735,3726.1,3712.7,3708.2,3703.9,3697.5,3698,3684.9,3674.4,3665.9,3653.7,3647.3,3636.4,3621.5,3604.2,3583.2,3570.5,3553.9,3539.3,3523.4,3507.2,3499.3,3487.5,3480.2,3472.7,3471,3476.7,3484.9,3492.3,3509.8,3524.9,3546.6,3564.6,3587.5,3605.9,3629.4,3650.6,3683.4,3705.1,3725.6,3743.7,3757.3,3764.2,3764.3,3750.7,3737.1,3714.9,3681.5,3646.9,3606,3554.1,3505.4,3455.9,3415.8,3367.2,3323.8,3284.8,3251.9,3221.7,3203.7,3181,3150.3,3134.7,3119.2,3100.5,3085,3064.9,3042,3027.3,3007.8,2679.1,2974.1,2958.1,2939.7,2922.8,2906.3,2888.2,2874.5,2865,2859.4,2855.5,2858.2,2863.7,2873.4,2890,2911.5,2928.6,2939.9,2962.9,2979.9,2992.4,3000.4,3001.2,3001,3002.1,2998.9,2997.1,2993.9,2986.8,2976.5,2965.4,2955.6,2945.7,2936.6,2928.4,2923.2,2919,2916.7,2917.9,2922.2,2930.5,2940.2,2951.4,2969.4,2985.3,2998.1,3009.4,3013.8,3012.5,2998.1,2981.5,2942.5,2894.4,2836.5,2779.8,2720.1,2658.8,2600.9,2544.7,2494.5,2448,2411,2142.3,2346,2322.5,2295.3,2276.1,2259.1,2243.2,2232.4,2218.4,2204.5,2188.8,2171.8,2150.9,2120.6,2065,2007.5,1548.2,1519.9,1865.8,1829.7,1798.1,1782,1774,1771.5,1771.5,1770.9,1770.9,1772.9,1773.9,1776,1777.1,1776.5,1773.5,1772,1768.9,1414,0,0,2848.8,3569.3,3564.9,3560.3,3539.7,3528.7,3514.1,3509.8,3507.7,3509.7,3499.5,3481.7,3468.4,3454.8,3443.5,3430.3,3422.8,3409.4,3389,3372,3362.5,3360.8,3354,3354.8,3346.5,3338.5,3332.1,3325.2,3317.2,3305.8,3294.9,3284.4,3274.1,3257.3,3240.5,3226.4,3215.8,3207.9,3203.7,3199.6,3199.3,3202.5,3204,3219.1,3232.3,3247.7,3261.3,3273.3,3290.9,3299.4,3311.9,3333.2,3338.4,3354.6,3360,3374.7,3385.5,3394.9,3408.4,3429.6,3445.1,3451.2,3457.3,3461.4,3463.3,3471.2,3486.8,3500.2,3500,3499.9,3495.5,3501.4,3513.2,3529.2,3543.5,3541.5,3539.5,3535.5,3531.5,3543.4,3561.7,3592.9,3599.3
3806,3820.2,3849,3875.5,3907.6,3932.4,3968.1,3993.8,4017.2,4038.1,4056.7,4056.7,4067.5,4062.4,4054.6,4046.9,4026,3994.9,3969.2,3921.5,3881.9,3843,3800.3,3767.5,3737.7,3710.5,3699.2,3692.4,3688.1,3679.1,3677,3672.5,3672.3,3665.8,3665.9,3661.7,3657.1,3659.4,3648.6,3646.5,3640.2,3627.6,3621.5,3623.7,3609.4,3253.5,3594.9,3590.9,3593,3594.9,3592.6,3590.4,3596.6,3596.6,3602.6,3600.5,3600.4,3602.4,3594,3587.7,3587.7,3581.4,3569.2,3561.1,3545,3200.7,3515.4,3503.8,3492.8,3481.4,3470.5,3463.2,3462,3457.9,3459.3,3455.1,3460.4,3463.5,3458.5,3132.6,3132.8,3125.5,3129.5,3508.8,3522.8,3545.6,3563.7,3584.4,3609,3636,3657.1,3680.8,3702.9,3720.4,3740.3,3752.1,3763.2,3768.1,3397.4,3399.9,3397.4,3787,3773,3768.7,3757.8,3744.3,3727,2994,2610,2596.8,2586.8,2571.3,2190.4,2100.9,1458.7,2087.7,2063.3,1354.9,1066.9,375.5,927,918.2,905.2,557.3,558.6,871.6,561.2,562.5,567.9,277.4,0,0,0,0,1204.9,1204.9,802.4,1979.5,1587,1991.8,1991.7,1994.3,2389.2,2389.2,1986.7,1984.1,2371.1,2378.9,2376.3,2371.3,2366.2,2361.2,2358.7,2356.1,2350.9,2343.7,2336.3,2333.8,2326.4,2319.1,2314.3,2311.9,2309.5,2304.7,2299.8,2297.4,2297.4,2297.4,2297.4,2297.4,2302.3,2307.1,2314.3,2316.7,2324,2324,2333.9,2341.2,2346.1,2348.6,2348.6,2346.2,2346.2,2348.6,2343.6,2343.6,2341.1,2336.2,2336.2,2336.4,2333.9,2329,2331.5,2331.5,2333.9,2333.9,2329.1,2700.1,3073,3070.4,3448.5,3079.8,3821.2,3447.9,3445.4,3827.9,3835,3844.5,3849.3,3846.7,3844.3,3851.5,3853.9,3853.9,3861.1,3861.2,3858.8,3856.4,3858.9,3858.9,3849.2,3846.8,3844.4,3837.1,3832.2,3827.4,3822.7,3820.3,3815.5,3808.4,3801.2,3796.4,3796.4,3789.5,3784.9,3775.7,3764.4,3762.1,3753,3741.7,3735.1,3733,3721.7,3721.8,3715.5,3704.4,3702.7,3696.2,3683.6,3672.8,3662.2,3647.4,3636.6,3621.2,3599.5,3586.6,3574.1,3563.3,3553.1,3539,3530.9,3521.1,3523.4,3519.6,3515.8,3524.1,3534,3542,3557.9,3571.7,3585.8,3610.9,3623.2,3644.2,3663.7,3683.4,3711.9,3736.8,3757.3,3766.5,3775.7,3782.6,3775.7,3757.6,3746.2,3719.6,3688.2,3651.4,3610.5,3556.4,3509.5,3461.8,3411.9,3370.9,3318.3,3279.6,3245.1,3215,3200.4,3179.3,3153.7,3131.6,3121.1,3106.9,3090.1,3069.7,3049.8,3031.8,3015.3,2998.8,2982.6,2963.8,2942.6,2924.2,2906.3,2890.9,2881.1,2873.1,2868.9,2866.1,2874.5,2882.8,2898.1,2910.8,2933.8,2949.9,2965.5,2978.5,2994.3,3009.8,3014.9,3011.3,3012.4,3010.6,3007.5,3007.3,2997,2986.8,2978.2,2965.7,2954.3,2941.9,2933.8,2927.1,2919.1,2915.2,2912.8,2916.8,2923.8,2932.1,2946,2961.4,2978.7,2995.9,3014.3,3021.4,3025.8,3018.3,3004.2,2972.7,2932.6,2871.9,2807.7,2491.2,2684.8,2618.6,2558.4,2505.9,2456.7,2413.4,2141.7,2349,2321.3,2306.5,2285.7,2267,2251,2238.4,2227.9,2218.4,2202.6,2189.1,2170.1,2150.6,2121.6,2066,1797.1,1548.4,1323.2,1675.9,1827.4,1799.2,1781.5,1774.5,1771,1771.5,1770.9,1772.4,1773.4,1775.9,1778.9,1779.1,1779.1,1776.5,1773.5,1772.5,0,347.9,2876.2,3591.7,3585.3,3585.5,3578.9,3560.2,3545.1,3532.6,3522,3524,3520.1,3510.2,3492.5,3478.6,3466.8,3453.9,3441.1,3427.2,3410,3387.7,3376.5,3368.8,3363.4,3353.1,3352.1,3343.9,3337.4,3329.4,3320.7,3311.3,3298.8,3287.6,3276.1,3261.8,3248.2,3233.1,3221.1,3208.4,3206.9,3204,3201.9,3201.3,3199.4,3202.6,3217.5,3234.1,3251,3263.2,3282,3294.5,3301.4,3320.9,3335,3340.3,3352.8,3358.2,3367.1,3380.1,3389.4,3400.9,3425.9,3445.5,3459.1,3466.9,3476.9,3484.8,3492.4,3506.2,3519.7,3519.4,3519.3,3517.2,3527.2,3529.3,3541.4,3549.6,3553.9,3552,3552.2,3554.2,3570.2,3593,3624.8,3635.6
3820.2,3837,3861.1,3890.4,3927.6,3960.5,3999,4025,4053.8,4086.1,4116.4,4138.6,4152.7,4149.9,4150.1,4150.3,4128.3,4098.3,4052.3,4007.6,3961.5,3911.3,3859.6,3818.7,3778.6,3749,3730.6,3719.1,3712.3,3707.8,3705.7,3705.9,3705.5,3707.8,3703.2,3705.5,3701.1,3705.6,3699,3690.2,3679.4,3666.2,3660.1,3649.4,3641,3628.4,3615.8,3611.5,3605.4,3605.2,3598.6,3596.9,3592.7,3599,3596.7,3600.7,3596.5,3596.5,3587.9,3581.5,3579.9,3569.3,3563.3,3551.2,3537.5,3521.6,3508.2,3498.7,3485.6,3466.7,3455.9,3454.3,3445.1,3443.1,3441.2,3437,3441.9,3435.5,3443.9,3443.6,3446.8,3456.2,3471.7,3486,3514.6,3528.3,3558.9,3583.6,3610,3635.4,3665.1,3682.6,3702.3,3728.7,3742.6,3760.8,3767.5,3774.5,3774.6,3784.1,3396.6,3394.3,3769.8,3758.5,3751.5,3740.4,3349.2,2979,2253.9,2614,2609.9,2603.3,2221.1,1472.6,1472.7,1745.4,1815.5,1078.8,1070.6,375.5,373.2,639.3,556.1,556.1,557.4,879.4,872.3,569.3,276.1,0,0,0,0,805,2375.1,2384.6,1986.9,1991.8,1994.4,1999.5,2402,2396.8,2394.2,2389.1,2386.6,2381.5,2381.5,2378.9,2378.8,2376.4,2376.4,2363.8,2358.6,2361.1,2353.5,2348.5,2341.1,2338.6,2331.3,2323.9,2319.1,2316.7,2316.7,2311.9,2307.1,2304.7,2307.1,2307.1,2304.7,2307.1,2309.5,2309.5,2316.7,2324,2326.4,2326.4,2338.8,2338.8,2346.1,2348.6,2346.2,2346.2,2346.2,2346.2,2338.7,2336.2,2333.8,2331.4,2328.9,2331.5,2329.1,2324.1,2326.6,2329.1,2326.7,2324.2,2321.7,2690.3,3065.8,3065.6,3065.3,3809.5,3434,3433.7,3818.5,3820.8,3820.6,3830.1,3832.5,3834.8,3837.2,3841.9,3841.9,3851.5,3851.5,3854,3851.6,3854,3849.2,3849.3,3846.9,3842,3839.5,3832.4,3829.8,3827.4,3825,3820.3,3817.9,3815.5,3813.2,3813.2,3810.8,3801.2,3796.6,3782.6,3778,3773.5,3769,3760,3753.2,3744.2,3735.2,3733.1,3727.1,3725.1,3716.3,3705.2,3697.1,3686.3,3677.7,3662.2,3647.5,3633.9,3616.4,3601.4,3590.7,3577.5,3573.5,3562.8,3557,3552.9,3553.3,3551.5,3555.8,3566.3,3580.6,3593.1,3603.2,3619.6,3638.8,3653.2,3668.3,3685.6,3705.6,3725.7,3746,3764.2,3782.7,3789.6,3794.3,3792,3782.7,3771.4,3753.5,3726.5,3699.8,3660.5,3621.5,3566.7,3511.6,3469.7,3417.5,3367.2,3314.7,3276.1,3241.7,3213.4,3197.1,3178,3150.7,3132.1,3121.2,3108.8,3096.5,3074.7,3056.2,3038,3018.3,3006.2,2987.1,2969.7,2949.7,2927.1,2908.6,2895,2885.2,2882.4,2883.8,2883.8,2894.8,2906.2,2921.7,2939,2961,2969.4,2985.6,3002.9,3015.7,3020.8,3023.5,3024.5,3021.3,3019.5,3020.8,3010.3,2997.1,2989.8,2975.4,2962.9,2948.8,2936.5,2927,2917.7,2912.4,2908.5,2908.8,2912.7,2921.1,2933.6,2952,2966.1,2987.7,3007.6,3022.1,3027.8,3023.2,3014.2,2997,2963,2906.6,2841.7,2775,2458.9,2400.9,2341.9,2519.8,2465.1,2173,2141.4,2342.1,2318.2,2302.1,2286.5,2271.5,2253.9,2241.2,2230.4,2223.2,2208.7,2195.4,2179.7,2161.8,2141.5,2111.7,1837.4,1580.1,1543.6,1320.3,1672,1825.4,1797.8,1781.5,1774,1771.5,1771.5,1772.5,1775,1775.9,1777.9,1779.4,1783.5,1782,1781.6,1778.6,0,696.4,3267.2,3623.4,3606.3,3606.7,3600.7,3587.9,3571,3554,3543.3,3540.9,3536.9,3534.9,3523,3508.9,3489.1,3477.4,3462.3,3449.1,3435.6,3414.4,3389.7,3373.1,3369.1,3360.3,3355.5,3356.4,3348.1,3340,3324.5,3316.9,3309,3297.3,3287.9,3281.1,3266.9,3250.7,3245,3232.7,3227.4,3219.3,3216.6,3212.6,3211.8,3211.5,3213.2,3228,3243.1,3261.8,3271.9,3289.2,3301.4,3317.3,3326.4,3012.9,2692.6,3027.3,3363.8,3036.2,3382,3393,3406.5,3429.4,3452.8,3466.7,2058.3,2062.2,2070,2085.6,3173.6,3543.5,3535.3,3535.2,3529.2,3529.1,3525.2,2135.8,2148.2,2156.6,2162.8,2169.2,3217.2,3231.5,3252.3,3273.4,2921.7
3825.3,3841.9,3863.8,3897.9,3930.1,3968.2,4001.6,4035.5,4070,4102.5,4138.6,4166.6,4189.2,4195,4203.8,4203.8,4192.5,4170,4128.1,4073.4,4022.8,3966.2,3915.7,3856.8,3811.3,3778.6,3755.6,3739.4,3732.6,3725.8,3723.5,3725.8,3728,3734.7,3734.8,3739.4,3741.7,3741.8,3737.4,3732.8,3728.5,3717.2,3706.2,3693,3679.8,3662.7,3647.3,3641.4,3630.3,3626.3,3617.9,3611.4,3603.1,3603.2,3603,3600.7,3600.6,3592.5,3586.1,3577.7,3575.9,3569.8,3555.5,3541.6,3530.1,3516.2,3504.9,3483.5,3476.8,3461.7,3448.7,3445.4,3434.4,3434.3,3430.8,3426.8,3427.9,3421.7,3426.6,3113.5,3428.8,3435.7,3452.5,3473.5,3493.5,3519.3,3549.8,3574.3,3603.3,3632.5,3660.1,3684.4,3701.9,3723.8,3742.1,3755.6,3766.9,3771.6,3774,3778.5,3776.3,3387.1,3762.4,3746.4,2997.5,3366.1,3346.4,2604,2612.9,2235.3,2244.6,2216.4,1107,1452.5,1094.8,1088.3,1077.9,1417.7,1057.8,368.7,368.7,362.2,273.7,556.2,560.1,565.4,888.4,585.9,306.4,0,402.5,0,799.8,1980,1987.3,2391.9,2396.9,1994.4,1996.9,2396.8,2402,2402,2399.4,2399.4,2391.6,2389.1,2389.2,2389.2,2389.2,2378.8,2373.8,2368.8,2363.7,2361.2,2358.6,2351.1,2343.5,2343.7,2336.2,2333.7,2328.8,2324,2321.6,2316.7,2314.3,2314.3,2311.9,2311.9,2309.5,2309.5,2309.5,2319.1,2321.5,2324,2326.4,2328.9,2336.4,2336.4,2338.8,2343.7,2343.7,2343.7,2343.7,2338.7,2333.7,2328.9,2326.5,2328.9,2326.5,2326.5,2326.6,2324.1,2321.7,2319.3,2319.3,2314.5,2314.5,3061,3056,3056,3055.8,3426.8,3802.2,3806.8,3809.1,3811.3,3815.9,3820.6,3823,3827.7,3825.3,3832.3,3834.7,3839.5,3841.9,3844.3,3842.1,3842,3842,3844.4,3844.4,3839.6,3837.2,3834.8,3834.6,3829.8,3827.4,3827.4,3825,3817.9,3817.9,3822.7,3817.9,3817.9,3810.8,3806.1,3794.5,3789.8,3785.2,3771.4,3767,3760,3755.4,3747,3742.6,3736.2,3730.1,3718.9,3710.1,3701.6,3688.6,3682,3664.5,3648.8,3635.5,3626.7,3605.2,3602.9,3592,3592,3585.8,3579.5,3585.8,3583.9,3596.6,3603.1,3617.7,3632.5,3647.2,3660,3675.3,3695.3,3710.3,3730.3,3741.8,3757.4,3775.8,3787.4,3796.6,3805.9,3808.3,3803.7,3792.1,3773.8,3760.4,3731.2,3704.3,3669.5,3626,3566.6,3515.5,3471.8,3419.5,3365.3,3316.6,3272.4,3236.7,3208.4,3195.6,3176.3,3150.7,3138.3,3122.9,3108.8,3093.3,3079.5,3057.7,3044,3025.8,3009.2,2991.3,2972.4,2955,2932.3,2916.8,2901.6,2897.5,2894.6,2901.2,2907.1,2919.7,2934.1,2952.9,2969,2985.1,2998.4,3008.6,3021.8,3030.1,3035.6,3035.1,3033.3,3031.6,3025.4,3020.7,3014.8,3000,2987,2974.1,2958.9,2946.3,2929.6,2921.8,2913.7,2907,2901.7,2905.9,2914.1,2923.8,2936.4,2953.6,2969.3,2993.5,3011.2,3025.9,3025.4,3020.8,3006,2974.7,2935.6,2868.4,2800.2,2722.7,2409.5,2349,2519.8,2464.4,2408.5,2134.1,2104.8,2301.7,2286.5,2273.5,2264.3,2014,2240.9,2026.1,2015.7,2007.4,1998.7,1983.7,1968.1,2148.9,1927.6,2096.4,1830.8,1575.2,1338,1511.2,1668,1824.4,1797.8,1782,1773.5,1770.5,1771.5,1773,1775,1776,1778.5,1781,1785,1784,1782.6,0,724.6,3282.8,3643.6,3628.3,3615.7,3607.3,3608.1,3602.3,3585.9,3566.1,3561.6,3549.2,3545.6,3542.1,3533.7,3511.8,3497.4,3481.6,3470.3,3455,3439.8,3416.4,3393.5,3372.9,3368.8,3361.6,3354.9,3352.2,3343.7,3336.1,3322.7,3317.2,3311.6,3300.1,3297.6,3290.6,3272.5,3263.1,3248.7,3248.2,3242.9,3231.6,3223.7,3219.6,3213.6,3219.9,3220.1,3233.3,3255.4,3272.2,3284.4,3294.5,3308.6,3326.4,3336.9,3351,3358.4,3360.2,3365.7,3376.4,3385.7,3393,3412.1,3444.6,3466.2,3482.1,3495.9,2433.7,2805.3,3545.9,3563.9,3561.9,2489.8,2129.7,2125.6,3521.2,2125.6,2137.8,2148.2,2158.7,2165,2171.4,2180,2186.4,2199.3,2210.4,2210.4
3842.1,3847,3873.6,3898.2,3935.2,3968.3,4001.7,4035.4,4067.3,4099.7,4138.6,4161.1,4192.2,4200.8,4209.5,4221.2,4218.3,4198.2,4155.9,4111.5,4059.7,4007.2,3950.7,3890.8,3844.4,3813.7,3780.7,3766.9,3755.3,3746.2,3741.5,3741.5,3748.4,3757.5,3757.6,3764.4,3771.5,3769.3,3769.4,3771.8,3767.3,3758.2,3751.4,3737.9,3722.2,3704.4,3690.8,3682.2,3666.6,3657.8,3647.2,3636.5,3626,3617.7,3611.3,3609,3609.2,3594.6,3594.5,3586.3,3582.3,3572.1,3558,3548.3,3532.3,3514.7,3499.4,3484.5,3471.7,3456.9,3445.2,3442.2,3440.4,3431.4,3429.7,3429.8,3421.5,3417.3,3422.1,3419.6,3420.6,3429.2,3443.4,3460,3489.3,3514.8,3546.8,3573.5,3604.8,3633.9,3659.7,3688.2,3703.7,3723.6,3734.8,3753,3755.3,3762.1,3764.5,3764.5,3769,3757.7,3741.6,3735,2990.4,2246.2,2248.5,1873,1124.3,1864.5,1471.6,1456.6,1074.3,714.3,1062.5,1054.7,1374.1,1360.9,689.4,356,1000.6,991.1,939.9,929.1,1222.9,594.9,273.7,276.1,397.3,807.6,799.8,1599.6,1987.3,1994.6,1992,1999.6,2399.5,2396.9,2396.8,2402,2404.6,2402,2399.4,2396.8,2394.2,2394.2,2391.7,2391.7,2386.5,2378.8,2376.3,2371.3,2366.3,2368.7,2358.6,2358.6,2353.6,2346.2,2343.6,2341.1,2336.1,2331.3,2326.4,2324,2324,2321.6,2321.6,2321.6,2314.3,2314.3,2316.7,2321.5,2321.5,2326.5,2326.5,2326.5,2331.6,2334,2336.4,2338.8,2336.4,2331.4,2333.9,2328.9,2328.9,2324.1,2324.1,2324.1,2324,2324,2319.1,2316.7,2314.5,2314.5,2312.1,2309.5,2302.3,3046.5,3041.9,3044.2,3039.4,3797.4,3799.8,3794.9,3799.4,3804.2,3808.9,3813.4,3820.6,3820.6,3820.5,3822.9,3825.2,3827.6,3830.1,3830,3834.7,3832.4,3837.2,3837.2,3839.6,3834.8,3834.8,3830,3832.3,3832.2,3834.6,3832.2,3829.8,3827.4,3827.4,3827.4,3829.8,3827.4,3820.2,3813.2,3806.1,3799.1,3796.8,3785.3,3783,3776.4,3767.2,3763,3761.1,3754.8,3743.9,3735.1,3728.5,3717.4,3704.1,3690.9,3681.5,3664,3648.7,3635.1,3626.3,3619.4,3613.3,3608.7,3608.6,3608.5,3613,3615.2,3623.8,3634.3,3649.6,3666.8,3673,3693,3712.9,3723.9,3741.9,3755.4,3773.7,3782.8,3799.1,3808.4,3815.4,3820.2,3820.2,3808.4,3801.5,3780.7,3760.5,3738,3709.2,3664.9,3628.1,3571,3515.6,3467.9,3421.3,3367.2,3313,3270.8,3236.7,3208.4,3190.7,3171.7,3150.7,3135,3122.5,3111.9,3099.6,3077.7,3060.8,3044,3027.3,3013.7,2995.6,2975.2,2956.3,2940.6,2925.2,2909.8,2911.2,2915.2,2921.1,2930.7,2943.8,2961.4,2977.6,2996.6,3011.5,3018.9,3027.4,3037.6,3046.2,3045.6,3046.8,3042,3038.8,3034.2,3028.1,3016.3,3003,2987.2,2972.9,2954.7,2938,2927.2,2916.3,2908.1,2900.1,2900.1,2903,2914.2,2923.7,2939.5,2954.3,2974,2991.5,3006.7,3016.8,3013.8,3000.2,2974.1,2940.6,2887.7,2815.9,2744.6,2159.4,2107.4,2529.2,2463.9,2170.8,1895.5,2098.7,2292,2269.5,2005,1992.8,1982.7,2242,2228.4,2220.7,2207.9,2195.6,2183.6,2165.9,1950.3,1928.6,1906.7,1856.1,1820.9,1568.3,1140.8,1693.7,1664.7,1822.2,1797.2,1782,1772,1769,1771,1773,1774,1776.5,1778.5,1781.5,1785,1785.6,714,0,1457.1,3675.4,3660.6,3651.8,3636.5,3630.2,3624.9,3612.6,3598.1,3579.3,3570.5,3564.7,3552.3,3550.7,3538.8,3525,3500.5,3488.4,3473,3459.9,3438.6,3420.5,3391.8,3376.7,3369,3365.5,3356.8,3357.9,3349.6,3337.5,3321.4,3315.7,3308.6,3299.1,3298,3287.5,3271.4,3258.4,3251.3,3248.9,3242,3232.5,3224.2,3213.4,3211.1,3212.6,3219,3232.9,3250.8,3269.5,3279.5,3296.7,3312.5,3326.5,3337.1,3349.4,3354.8,3358.5,3367.7,3374.8,3385.8,3398.8,3417.6,3448.2,3471.8,3491.9,3513.4,3533.6,3545.7,3563.8,3582.6,3576.2,3571.9,2140,3537.5,3525.5,2825.7,2827.7,2144,2152.4,2163,2173.6,3228.4,2195,2210.5,2583.8,3305.8
3842.6,3852,3871.3,3901,3935.6,3963.3,3994.1,4019.8,4054.1,4086.3,4116.4,4138.6,4172.3,4180.7,4195.1,4206.7,4203.8,4178,4144.4,4100.1,4059.6,4001.9,3953.1,3898.1,3851.6,3820.5,3789.9,3780.6,3766.6,3759.8,3757.5,3762,3769,3775.8,3782.9,3787.5,3794.6,3794.8,3797.4,3795.1,3792.9,3783.9,3779.3,3770.1,3756.3,3742.4,3724.4,3715.4,3701.7,3688.4,3675,3664.3,3653.5,3649.2,3641,3632.3,3627.9,3619.9,3605.1,3600.9,3594.8,3582.5,3570.4,3556.3,3536.6,3524.7,3509.7,3492.6,3475.8,3466.7,3455.7,3448,3443,3439.6,3434.1,3430.4,3424.2,3421.3,3424.7,3424.6,3427.8,3434.6,3442.5,3462.6,3491.3,3518.6,3550.9,3579.3,3615,3635.7,3661.7,3690.2,3708.1,3727.9,3743.8,3750.5,3757.4,3757.4,3764.3,3759.8,3757.5,3746.2,3726.2,3708.5,3331.2,3308.4,2602.1,2222.7,1853.7,1852,1814,1786.7,1035.9,1030.3,1347,1338.2,675.5,347.9,663.1,659.3,1274.7,1258.3,937.1,880.8,584.4,982.6,706.3,706.3,1199.8,1199.8,1972.6,1979.5,1986.8,1989.4,2394.3,2396.9,2399.5,2399.5,2396.9,2399.4,2407.2,2402,2402,2402,2402,2394.3,2394.3,2394.3,2389.1,2381.4,2378.8,2373.8,2368.7,2368.7,2363.6,2361,2353.6,2353.6,2348.8,2343.6,2341.1,2336.1,2333.7,2331.3,2331.3,2331.3,2328.9,2326.5,2321.6,2319.1,2316.7,2319.2,2319.2,2324.1,2321.6,2321.6,2324.1,2326.6,2326.7,2326.6,2324,2326.4,2326.4,2324,2319.2,2319.2,2324.1,2321.6,2316.8,2314.3,2311.9,2311.9,2307.1,2307.1,2304.7,2302.4,2295.3,3032.7,3405.8,3032.6,3034.7,3788.1,3787.9,3790.1,3412.3,3792.4,3796.9,3801.6,3806.2,3803.9,3803.9,3803.9,3811,3813.4,3818.1,3820.4,3820.4,3829.9,3830,3834.8,3834.8,3832.3,3834.7,3832.3,3827.5,3829.9,3839.4,3839.4,3834.6,3834.6,3837,3844.2,3844.2,3839.4,3832.2,3827.4,3820.3,3820.3,3810.8,3803.8,3794.8,3792.6,3781.2,3784.2,3775.2,3768.7,3757.6,3749,3740.2,3724.3,3719.6,3704.5,3691,3675.1,3663.8,3652.5,3643.5,3640.9,3632,3630.1,3627.8,3634.2,3640.5,3642.7,3651.4,3668.8,3681.9,3692.9,3703.9,3722.1,3740.1,3751.1,3776.5,3787.8,3799.3,3808.6,3825,3832.2,3834.6,3832.2,3827.4,3813.2,3794.5,3773.8,3755.9,3733.5,3704.6,3671.6,3627.9,3571,3517.7,3467.8,3417.6,3365.5,3314.9,3274.5,3236.9,3211.9,3195.7,3178.1,3155.6,3138.3,3127.6,3116.8,3101.1,3084,3068.5,3050,3028.9,3015.2,2998.5,2978,2959.1,2944.9,2932,2925.1,2926.4,2932.1,2943.6,2953.9,2971.5,2984.5,3002.3,3018.8,3030.7,3040.8,3046.3,3049,3054.6,3058.8,3055.6,3050.9,3046.2,3037.1,3029.5,3019.2,3004.5,2982.9,2967.4,2954.8,2938.1,2923.3,2912.4,2905.6,2900,2900,2907.3,2913,2925.5,2937.2,2953.1,2969.2,2983.7,2992,2998.2,2988,2961.9,2928.5,2882.5,2822.9,2751.9,2677.9,2102.9,2053.5,2210.5,2160.2,1646.1,1622.8,1823.8,2017.5,1554,1749,1527.9,1758,1754.5,2015,2007.6,1990.2,2176.1,2159.1,1947,1927.5,1906.9,1665.6,2051.6,1809.4,1963.5,1335.6,1497.2,1475.9,1818.9,1796,1781.5,1771.5,1767,1769.5,1771,1774,1775.5,1778.5,1780.5,1249,0,0,1085.2,1823.4,3686.2,3675.4,3658.4,3651.8,3643.7,3631.5,3627.4,3605.4,3592.8,3581.9,3575.9,3561.6,3560.7,3550.5,3534.3,3518.3,3509.9,3492.1,3472.5,3094.9,2733.2,3403.4,3382.7,3378.4,3369.7,3362.6,3359.9,3349.8,3341.9,3321.9,3317.7,3309.1,3297.2,3294.6,3286.1,3271.3,3259.4,3256.6,3251,3244.5,3236.3,3230.7,3222.9,3218.9,3225.2,3230.7,3247.4,3264.1,3279.1,3295.9,3306.3,3321.6,3332,3340.8,3358.9,3366.1,3369.7,3373.5,3386.1,3400.8,3412.2,3436.6,3467.4,3487.3,3509.2,3529.3,3547.5,3568.1,3586.3,3596.8,3597,3588.8,3572.1,3545.8,3531.7,3529.7,3189.6,2148.2,2156.6,2167.2,2178,3238.4,3619.3,3659.9,3683.5,3679.2
3847.8,3857.2,3871.9,3893.7,3925.9,3955.9,3976.1,4006.9,4030.4,4059.4,4086.3,4102.6,4121.9,4127.6,4138.7,4155.5,4149.9,4130.4,4119.2,4078.3,4048.8,4001.7,3950.7,3893.1,3853.9,3829.9,3803.7,3794.4,3782.7,3782.7,3775.8,3778.1,3787.5,3794.6,3799.2,3803.9,3808.8,3813.5,3816,3816.3,3811.7,3809.5,3800.1,3795.5,3784,3770,3756.2,3742.3,3731.1,3719.6,3708.2,3696.9,3685.7,3676.9,3666.1,3662,3653.4,3645.4,3632.2,3622,3611.6,3601.2,3586.5,3574.6,3560.4,3542.7,3523.3,3510.3,3497.5,3484.1,3475.1,3462.1,3456.3,3455.4,3448,3442.1,3435.8,3435.3,3436.7,3434.6,3435.9,3444.3,3450.9,3468.9,3495.4,3522.7,3558.8,3589.5,3616.6,3642.3,3668.1,3692.3,3712.2,3730.2,3748.2,3752.7,3752.8,3759.7,3762,3757.6,3753,3734.9,3719.6,3697.9,3666.2,3639.1,3613.1,3221.1,2512.9,2173,2440.5,2065.8,1744.6,2060.7,1700.8,1298.9,1677,1277.4,1269.2,1656,1643.4,1232.6,1615.2,1589.5,1312.8,1010.7,711.5,1117.2,1508.8,1961.9,1974.3,1981.8,1986.8,2384.1,2389.3,2391.7,2391.7,2396.9,2399.4,2399.4,2402,2402,2399.5,2399.5,2399.5,2394.3,2391.7,2389.1,2389.1,2381.4,2381.4,2376.4,2373.8,2371.3,2371.3,2366.1,2360.9,2353.6,2351,2348.6,2348.6,2343.5,2341,2336.1,2331.3,2328.9,2328.9,2328.9,2324.1,2324.1,2321.7,2321.7,2321.7,2319.2,2316.9,2316.9,2314.4,2316.9,2316.9,2314.5,2314.4,2314.4,2314.4,2316.8,2316.8,2316.8,2316.7,2316.7,2314.4,2307.1,2307.1,2304.7,2304.7,2300,2297.6,2290.5,2290.5,3023.5,3399,3394.1,3776.4,3778.7,3776.3,3778.7,3781,3783,3782.9,3794.6,3794.6,3792.3,3792.3,3796.8,3796.8,3804,3806.4,3813.4,3813.4,3820.5,3822.9,3825.4,3830,3830,3834.7,3829.9,3829.9,3832.3,3837,3839.4,3841.8,3844.2,3851.4,3853.8,3856.2,3851.4,3846.6,3841.8,3837,3829.9,3825.1,3820.5,3806.5,3802,3795.5,3798.3,3786.8,3787.6,3774,3755.9,3754,3738.1,3729,3715.4,3702.3,3688.1,3672.7,3665.6,3656.8,3654.2,3649.7,3647.5,3651.4,3649.3,3664.3,3668.8,3675.7,3688.6,3704.1,3715,3733.5,3744.7,3755.7,3776.6,3792.6,3808.7,3818.1,3825.1,3841.8,3844.2,3851.4,3841.8,3829.8,3813.3,3799.2,3771.5,3751.4,3726.7,3700.1,3665.1,3623.9,3562.7,3513.6,3466.1,3417.6,3365.5,3316.6,3272.8,3238.5,3206.9,3192.5,3178.3,3159.1,3140.2,3132.6,3121.8,3105.9,3087.2,3071.6,3053.1,3036.3,3018.2,2998.3,2983.7,2964.8,2953.1,2943,2939.1,2943.7,2952.3,2965.4,2979.8,2993.6,3011,3026.3,3041.3,3054.7,3057.2,3062.4,3063.7,3065,3066.2,3062.9,3058.4,3046.2,3040.1,3029.6,3019.3,3000.3,2980,2966.1,2947.9,2930,2919,2909.4,2904.1,2898.8,2898.8,2901.7,2911.6,2921.6,2936.2,2948.2,2960.3,2968,2964.6,2960.5,2939.9,2903.9,2856.7,2807.6,2742.9,2675.5,2107.2,2292.6,2003.3,2414.9,2128.8,1849.5,1821,1797.3,1989.4,1744.9,1729.5,1714.6,1500.2,1761.2,1984.6,1726.5,1483,1429,1658.8,1646.9,1635.9,1626.3,1623.8,1597,1780.9,1751.4,1524,1496,1474.6,1817.7,1794.5,1781,1771.5,1766,1767,1770.5,1772.5,1773.5,1777.5,1070,0,1451.5,2200.6,3719.4,3710.6,3694.9,3686.4,3675.8,3660.9,3647.7,3646.7,3636.5,3618.2,3603.3,3595.1,3583.3,3573.5,3574.4,3562.3,3552.4,3540.6,3534.8,3517.8,1688.7,3478.1,1677.8,3433.5,3414,3405.2,3386.5,3381.2,3374.4,3365,3350.7,3337.9,3324.7,3315.4,3307.1,3301.2,3300.6,3279.3,3274.7,3268,3268.6,3261.2,3258.3,3252.1,3244.5,3245.8,3248.8,3260.8,3271.1,3289.7,3302.8,3310.7,3326,3340.2,3346.8,3352,3370.1,3377.2,3386.4,3393.7,3404.6,3421.7,3431.2,3457.8,3483.2,3511,3531.1,3547.4,3564,3582.3,3596.9,3616,3605.7,3595.1,3584.7,3560.3,3537.7,3535.7,3546.1,3550.3,3564.9,3575.3,3596.2,3612.9,3649.1,3685.8,3703.7,3694.7
3852.9,3860.1,3874.7,3891.5,3921,3940.9,3963.5,3983.8,4004.3,4022.4,4043.4,4053.9,4062,4064.6,4064.7,4078.1,4070,4056.5,4040.8,4019.9,3988.7,3947.8,3910.3,3866.2,3829.9,3813.1,3796.7,3785,3782.7,3784.9,3782.6,3787.4,3801.5,3808.5,3813.3,3818.2,3825.3,3827.7,3832.4,3830.3,3830.4,3825.8,3818.6,3816.5,3800,3790.7,3776.7,3765,3753.6,3741.8,3730.8,3719.3,3708.2,3696.9,3694.8,3683.5,3670.6,3664.4,3655.8,3645.1,3632.5,3622.3,3607.8,3597.5,3584.9,3567.2,3551.2,3532.3,3515.4,3500.5,3497.5,3487.9,3478.7,3473.5,3466,3458.5,3458,3451.5,3451.1,3454.8,3457.8,3466.9,3472.9,3489.3,3515.5,3536.8,3570.9,3595.6,3625,3648.6,3670.3,3696.7,3714.4,3727.9,3741.4,3757.4,3759.7,3757.4,3759.7,3757.6,3748.6,3730.6,3706.5,3679,3650,3621.7,3583.9,3186.5,3162.8,2779.5,2765.5,2386,2013.8,1689.7,2040.8,2039.5,1641.9,2029.1,2019.8,2017.5,2009.7,2006.2,2002,2002.1,2007.7,2081.5,1701,1704,2854.8,2579.1,2583.8,2304,2376.5,2381.6,2386.6,2389.2,2389.2,2394.4,2394.4,2394.4,2396.9,2396.9,2396.9,2394.3,2391.7,2389.1,2389.1,2386.5,2386.5,2381.4,2378.9,2373.8,2373.8,2373.8,2368.7,2363.5,2363.5,2356.1,2353.6,2348.6,2348.6,2348.6,2346.1,2341.2,2341.2,2333.7,2336.2,2333.7,2326.4,2321.6,2319.2,2319.2,2319.2,2314.4,2309.5,2309.5,2309.5,2309.6,2309.6,2309.6,2309.6,2309.6,2311.9,2311.9,2311.9,2311.9,2311.9,2307,2307,2304.6,2304.6,2302.3,2297.6,2297.6,2290.5,2288.2,2285.9,3396.5,3391.9,3772,3771.9,3774.2,3774.2,3774.1,3774.1,3773.9,3778.5,3780.6,3787.7,3790,3787.7,3785.3,3789.9,3794.5,3799.2,3799.2,3803.9,3806.2,3820.5,3822.9,3820.5,3830,3832.3,3827.5,3832.3,3834.7,3839.4,3841.8,3849,3853.8,3856.2,3861,3866,3868.4,3863.5,3858.7,3853.9,3844.2,3837.1,3837.3,3830.1,3823.7,3814.5,3810.1,3808.4,3790,3783.6,3772.4,3765.6,3756.4,3742.6,3726.8,3711.1,3701.8,3692.6,3687.9,3679,3669.8,3667.4,3669.5,3671.3,3673.4,3680.2,3690.9,3699.9,3708.9,3729,3735.6,3749.1,3760.6,3783.6,3797.4,3813.7,3830.2,3841.9,3851.5,3858.6,3865.9,3851.4,3844.2,3827.5,3806.3,3787.7,3762.5,3740.3,3715.8,3689.2,3658.4,3617.5,3556.6,3509.7,3466.1,3415.9,3365.7,3318.7,3274.6,3238.8,3207.2,3196.1,3178.7,3159.6,3145.4,3135.9,3120.1,3109.1,3088.8,3073.1,3057.6,3037.5,3022.5,3004.5,2988.1,2973.3,2961.7,2951.9,2953.6,2963.5,2969.6,2987.1,2997.7,3014,3033.5,3048.6,3063.7,3069.4,3075.1,3069.9,3074.2,3075.4,3073.7,3067.4,3062.7,3053.7,3043.1,3028.1,3014.9,3000.4,2981.5,2961.9,2945.4,2928.6,2916,2903.7,2896.9,2893.1,2896.2,2896.4,2904.9,2913.3,2922.7,2926.4,2932.7,2933.4,2924.7,2906.7,2873.2,2832.5,2783,2725.4,2666.3,2357.9,2286.1,1994.7,2413.8,2364.6,2088.1,2059.8,2253.7,1977.3,2199,1951.9,1937.2,1926.5,1688.7,1677.3,1666.6,1899.7,1649.7,1642.7,1414.2,1631.7,1841,1830.7,1601.8,1587.2,1773.2,1743,1517.4,1683.2,1841.7,1817.1,1795.5,1780.5,1771.5,1764.9,1767,1768,1770.5,1772.5,1067.5,0,1443,3729.2,3728.4,3721.6,3714.9,3699.4,3693.3,3682.3,3671.4,3658.2,3659.4,3645,3634.7,3618.3,3602,3600.9,3588.9,3583.4,3578.1,3566.1,3565.1,3561.1,3544.7,3530.1,3515.6,2412.4,3466,3441.7,3426.9,3407.5,3394.3,3387.8,3380.8,3369,3350.2,3338.2,3327.6,3316,3319.2,3310.5,3294.8,3292.8,3287,3284.2,3285.5,3286.5,3284.3,3278,3277.6,3290.3,3298.8,3310.7,3321,3334.4,3336.9,3346.8,3355.1,3361.7,3368.7,3386.5,3401.2,3414.1,3418.1,3434.8,3454.2,3467.9,3495.1,3519,3541.3,3561.8,3571.9,3588.6,3601.2,3612,3622.8,3618.8,3608.1,3599.6,3572.6,3556.2,3550,3566.4,3572.8,3587.7,3602.3,3612.7,3636.3,3674.9,3701.5,3714.6,3707.8
3862.8,3872.4,3877.3,3894.5,3913.7,3931.1,3948.1,3963.5,3971,3988.7,3999.1,4004.3,4004.2,3996.4,3991.3,3986.1,3978.4,3958.1,3945.3,3922.3,3892.9,3866,3846.7,3810.8,3789.8,3775.8,3773.5,3771.2,3768.8,3771.1,3782.6,3787.2,3810.8,3818,3822.7,3830,3837.1,3839.5,3842.2,3847,3847.2,3839.9,3835.5,3826,3816.3,3804.7,3795.2,3783.8,3774.4,3755.6,3748.6,3737.3,3726,3712.5,3710.2,3699,3688.2,3681.3,3670.8,3657.8,3647.5,3639.4,3635.4,3621.1,3606.8,3589.9,3576.4,3560.9,3544.7,3523.2,3518.1,3511,3501.1,3498.3,3488.9,3484.6,3478,3477.4,3478.9,3479.3,3482.5,3491,3498.1,3510,3532.3,3553.5,3587.7,3258.5,3635.7,3297.3,3679,3701,3721,3741.4,3750.5,3762,3759.7,3762,3764.6,3757.8,3753.3,3728.5,3707,3675.1,3308.1,3610.2,3575.8,3174.9,3144.4,2755.1,3100.2,2775.5,2038.9,2355.9,2352,2346.6,1701.8,1701,1995.5,1987.9,1992.1,1994.2,1690.6,1695.6,2081.7,2482,2858.5,3197.9,3208.1,2532.3,2531.8,2923.9,2654.1,2659.2,2373.9,2384.1,2381.5,2384.1,2384.1,2386.7,2386.7,2386.7,2386.7,2381.5,2381.5,2381.5,2381.5,2376.3,2376.4,2376.4,2373.8,2373.8,2373.8,2371.2,2366.1,2363.5,2363.5,2360.9,2358.5,2358.5,2356.1,2351.2,2346.2,2343.7,2341.2,2341.2,2338.7,2333.7,2328.8,2326.4,2316.8,2314.4,2309.6,2307.1,2304.8,2300,2295.2,2295.2,2295.2,2295.1,2295.1,2297.5,2299.9,2299.9,2302.2,2302.2,2304.6,2307,2307,2302.2,2297.4,2295.1,2292.7,2285.6,2285.6,2278.7,2636.4,3392.1,3391.8,3382.6,3769.9,3769.8,3769.8,3771.8,3774.1,3776.4,3774.1,3778.5,3787.6,3787.7,3785.3,3785.3,3785.2,3782.8,3789.9,3794.5,3792.1,3799.2,3806.3,3813.5,3811.1,3818.2,3827.5,3827.5,3832.3,3834.7,3844.3,3853.9,3861.1,3871,3873.4,3873.4,3880.6,3885.6,3878.1,3873.3,3868.4,3858.8,3856.5,3854.1,3842.3,3833.2,3826.6,3824.3,3815.3,3806.6,3795,3784.1,3775,3765.4,3752.1,3742.7,3733.5,3717.8,3708.6,3701.5,3696.7,3690.1,3687.5,3687.5,3687.4,3696,3705,3709.4,3711.4,3726.9,3738.2,3753.7,3767.4,3783.8,3800.2,3816.3,3835.2,3849.2,3856.4,3866.1,3870.8,3866,3861.2,3846.7,3825.3,3801.8,3774.1,3756,3731.5,3700.4,3682.6,3650,3611,3556.9,3507.8,3460.3,3412.4,3367.6,3318.7,3273.1,3239,3212.5,3199.6,3185.6,3163,3150.7,3140.9,3130,3115.4,3098,3082.2,3066.5,3048,3032.7,2724.2,2706,2691.2,2687.1,2678.3,2969.4,2978.3,2988.8,3002,3018.6,3036.3,3051.3,3065.2,3080.2,3087.5,3085.4,3086.6,3087.7,3086.1,3084.4,3076.5,3064.3,3055.3,3046.3,3029.7,3016.4,2993.3,2978.6,2958.9,2943.8,2925.4,2914.5,2901.1,2894.4,2892.1,2889.6,2890,2891.8,2895.9,2902,2900,2898.1,2886.5,2864.6,2840.2,2802.2,2753.6,2700.3,2380.1,2586.6,2279.7,2228.9,2182.1,2365.2,2059.4,2055.2,2031.3,1981.4,1735,2175.4,1934.1,1921.8,1908.9,1678.8,1667,1656.3,1648.3,1639.3,1632.4,1845.2,1834,1824.7,1816.5,2006.9,1987.2,1962.8,1930.5,1897.2,1867.4,1841.1,1816.7,1795.4,1781.5,1772,1766,1764.9,1765.4,1768,0,349.9,1426.4,3727.8,3727.4,3726.7,3724,3710.7,3706.3,3695,3686.3,3682.3,3669,3667.4,3650.8,3640.8,3624.8,3618.8,3609.1,3597.9,3596.6,3588.9,3587.4,3580.2,3578.8,3571.2,3558.6,3541,1699.1,3501.8,3475.3,3454.8,3436.8,3431,3426.3,3415.2,3399.1,3377.6,3363.8,3354.6,3343.1,3336.3,3326.4,3318.4,3309.2,3309,3306.9,3310.9,3315.3,3311.4,3309.1,3315.5,3328,3333.4,3345.5,3353.9,3354.6,3362.5,3367,3377,3385.5,3392.4,3414.3,3427.3,3448.1,3455.9,3475.6,3497.3,3521.4,3547.4,3563.9,3576.1,3592.8,3599.1,3616.3,3620.6,3633.7,3635.9,3629.6,3623.2,3616.7,3589.4,3572.5,3564.4,3570.6,3583.2,3600.1,3614.8,3634,3651.4,3690.3,3710.3,3716.8,3714.6
3882.5,3884.9,3884.9,3892,3913.9,3913.7,3925.9,3935.5,3940.4,3947.8,3952.9,3952.8,3942.6,3922.4,3912.6,3897.8,3888,3863.5,3844.2,3827.4,3806,3787.3,3764.2,3739.2,3727.9,3730.1,3730.1,3743.6,3748.1,3764.2,3775.7,3787.2,3810.7,3829.8,3834.6,3839.5,3839.5,3844.3,3846.9,3851.7,3846.9,3849.5,3847.1,3840.3,3828.1,3818.6,3811.6,3797.4,3783.5,3776.4,3767.1,3750.8,3741.8,3732.8,3723.7,3710.2,3708,3692.3,3688.1,3677.7,3669.6,3658.8,3648.5,3642.4,3627.8,3609.3,3593.3,3576.4,3563.4,3550.5,3540.9,3531.4,3527.8,3518.3,3514.5,3511,3506,3505.9,3505.3,3511,3519.2,3526.3,3531.4,3545.4,3561.8,3579.2,3609.5,3281.8,3651,3674.6,3694.5,3714.3,3736.9,3752.9,3764.3,3768.9,3773.5,3775.9,3773.9,3769.6,3758,3738,3711.8,3686.3,3314.8,3622,3586.1,3545.8,2817.1,3120.8,3101.9,2774.4,3073.1,3057.5,2697.7,2328.2,2323,2323.5,1971.8,1975.2,1973.8,1979.1,1992,2438.9,2779.3,3159.7,3184.4,2873,3592.3,3601.5,3281.2,3279.2,3342.4,2645.4,2649.1,2973.6,2654,2369.1,2376.5,2379.1,2379.1,2376.5,2376.5,2379.1,2376.5,2373.9,2373.7,2373.7,2368.7,2368.7,2368.7,2366.1,2366,2366.2,2366.1,2363.6,2363.6,2363.6,2358.6,2356.1,2356.1,2353.7,2351.3,2346.2,2343.7,2343.7,2338.7,2333.7,2326.4,2316.8,2314.4,2307.1,2304.7,2292.8,2292.8,2285.7,2283.3,2283.3,2285.6,2283.2,2287.9,2290.3,2290.3,2290.3,2295,2292.6,2292.6,2295,2295,2295,2295,2290.3,2290.3,2283.3,2283.3,2276.3,2636.4,3389.8,3387.4,3382.7,3382.7,3776.8,3772.3,3774.4,3772.1,3774.4,3774.2,3771.8,3780.7,3778.4,3776,3778.3,3780.5,3782.7,3787.4,3785.2,3785.2,3792.1,3799.3,3801.7,3808.8,3813.4,3818.1,3825.1,3829.9,3842.1,3846.8,3858.8,3868.4,3878.4,3885.7,3890.5,3890.4,3895.4,3893,3890.5,3878.3,3871.2,3871.2,3864,3854.4,3845.4,3840.9,3834,3824.9,3818.2,3807.1,3788.6,3788.6,3772.6,3760.7,3751.7,3747.1,3728.9,3722.1,3717.3,3710.6,3710.4,3703.7,3703.7,3710.1,3716.6,3720.9,3725.3,3736.5,3747.9,3756.7,3768.2,3786.3,3800.3,3816.9,3462.4,3471.8,3488.6,3491,3493.3,3875.8,3873.3,3856.4,3837.2,3818.2,3792.8,3769.8,3747.4,3724.8,3691.5,3667.5,3639.3,3600.9,3548.7,3498.1,3453,3408.9,3362.4,3324.4,3276.9,3242.7,3217.7,3206.7,3190.8,3173.1,3160.3,3146.3,3138.3,3126.7,3107.3,3086.7,3069.4,2759.5,2745.2,2730.1,2418.7,2405.3,2398.1,2398.2,2404.2,2701.1,2713,3019.7,3033.2,3055.9,3069.4,3086.1,3093.8,3099.6,3100.5,3098.6,3098.3,3093.5,3087.4,3079.6,3062.9,3052.3,3044.8,3031.2,3013.5,2994.7,2974.2,2957.7,2939.3,2925.3,2911.7,2899.7,2894.6,2889.5,2887.4,2888.9,2885.2,2881.2,2879.2,2871.9,2857.9,2838.9,2807.3,2774.4,2725,2672.8,2359.5,2326.7,2512.6,2462.5,2413,2364.6,2324,2287.3,2255.1,1986.6,2207.3,2182.2,1940.1,1924.6,1909.5,1896.5,1885.3,1658.6,1647.5,1638.6,1630.4,1837.2,1829.1,2022.3,2012.8,2002.2,1991,1974.3,1951.3,1923.1,1894.1,1866.9,1840.6,1817.3,1797.4,1783,1772,1765.5,1763.1,1763.8,1414.5,0,1794.9,3704.7,3708.5,3712.1,3720.3,3712.6,3710.4,3699.2,3697,3687.5,3688.2,3679.6,3675.8,3661,3646.7,3638.8,3630.6,3623,3611.6,3602.6,3601.2,3595.1,3597,3594.4,2599.8,2255.4,3572.7,3561.5,3541.1,3515,3494,3473.7,3472.1,3457.5,3454.3,3437.3,3416.6,3404.8,3391.3,3379.7,3369.1,3357.6,3339.2,3332.6,3325.5,3329.1,3333.5,3340.2,3339.8,3341.4,3347.7,3360.6,3369.9,3378.4,3385.1,3385.8,3386.2,3394.6,3399.6,3408.1,3428.1,3444.7,3465.7,3477.6,3493.1,3513.2,3535.3,3562.1,3588.7,3601.5,3603.7,3612.5,3625.3,3633.8,3646.4,3642.2,3646.5,3640.1,3629.6,3631.7,3606.3,3580.6,3578.9,3587.5,3597.9,3616.8,3625.1,3644.6,3664.3,3701.2,3723.8,3725.8,3714.4
3907.1,3902.4,3900,3904.2,3913.8,3920.9,3915.7,3915.5,3907.8,3907.6,3907.5,3897.8,3885.5,3851.5,3834.6,3808.5,3787.4,3768.8,3748.3,3730.2,3714.1,3696.4,3687.7,3674.4,3674.3,3687.6,3703.1,3725.5,3741.3,3757.3,3778,3794.3,3817.9,3837,3846.7,3851.5,3851.5,3856.3,3861.3,3863.8,3859,3851.8,3854.4,3854.4,3840.1,3830.5,3821,3811.5,3795.1,3792.6,3776.4,3767.1,3757.7,3744.2,3732.8,3726.2,3717.1,3710.6,3703.8,3695.4,3687.1,3674,3666.1,3659.8,3649.7,3632.8,3617,3603.5,3584.3,3564.9,3555.6,3554.2,3544.6,3537.2,3536.2,3530.4,3526.1,3531.6,3537,3541.3,3549.8,3556.4,3258.7,3573.9,3271.4,3607.4,3631.1,3308.2,3672.9,3692.7,3712.4,3730.2,3750.7,3766.7,3775.9,3785.2,3787.6,3792.5,3783.4,3779,3763,3752,3725.8,3693.6,3666.7,3630.8,3266.2,3558.6,3524.8,3480,3106.1,3434.2,3111.9,3055.6,3042.4,2064.5,1995.9,2319.2,2314.4,1971.6,1978.3,1986.7,1335.6,2042.3,2784.5,3172.1,3194.1,3579.2,3207.4,3602.6,3614,3615.6,2882,3253.1,3244.2,3236.2,2897.7,3190,3182.3,2922.7,2904.8,2364.2,2366.6,2366.6,2364,2364,2361.4,2358.9,2356.3,2361.1,2361.1,2358.7,2356.2,2358.7,2361.1,2361.1,2363.6,2363.6,2363.6,2361,2361,2358.5,2356.1,2356.1,2346.2,2341.2,2336.2,2333.7,2321.6,2316.8,2307,2297.5,2288,2288,2278.5,2276.2,2271.5,2276.1,2276.1,2278.4,2276.1,2278.4,2280.8,2283.2,2285.5,2290.2,2290.2,2290.2,2287.8,2287.8,2292.6,2285.5,2283.2,2280.9,2271.5,2271.5,2629.5,3385.3,3385.3,3383,3770.4,3774.9,3772.6,3772.5,3774.6,3769.8,3769.7,3774.4,3781.3,3780.9,3778.5,3783.1,3778.4,3775.8,3780.5,3778.2,3787.5,3789.8,3789.8,3794.6,3797,3803.9,3813.3,3822.7,3832.3,3844.4,3849.2,3868.4,3878.3,3888.3,3897.9,3902.9,3905.4,3902.9,3905.3,3900.3,3893,3888.4,3886,3878.8,3869.2,3862.2,3850.4,3843.9,3834.3,3818.4,3814,3800.1,3793.2,3779.3,3772.5,3761.3,3757,3743.1,3738.6,3738.4,3729.3,3729.3,3728.6,3724.3,3726.3,3735.7,3739.4,3746,3754.8,3766.5,3777.9,3786.9,3798.6,3450.7,3462.5,3474.5,3486.3,3493.4,3120.6,3113.4,3113.4,3481.1,3466.7,3445.3,3424.1,3398.7,3383.1,3364.8,3696,3676.5,3654.6,3626.2,3586.4,3532.8,3488.4,3449.3,3407,3360.7,3319.6,3278.7,3246.2,3224.5,3213.4,3199.1,3183.1,3169,3160.9,3146.4,3133.1,3116.9,3094.2,2778.3,2805.5,2795.9,2482.9,2464.8,2502.4,2455.1,2461,2464.2,2473.5,2481.4,2738.5,2752.4,2767.6,3089.4,3103.1,3108.8,3111.7,3112.8,3110.9,3109.1,3102.8,3090.4,3078.1,3064.5,3049.4,3038.9,3025.4,3006.1,2988.6,2970.1,2953.4,2939.1,2921.1,2906.2,2898.4,2888.1,2888.2,2880.8,2875.7,2868.2,2862.9,2850.1,2836.4,2812,2783.5,2749.3,2704.7,2657.7,2602.3,2552.2,2001.6,2453.9,2409.3,2366.6,2327.6,2295.7,2020.4,2241.5,2218.2,2197.2,2173.1,2150.4,1917.4,1902.3,1887.5,1875.3,1860.5,1847,2043.9,2031,2023,2012.4,2000.3,1993.8,1986.3,1977.8,1963.8,1942.6,1917.9,1889.6,1863.6,1840.2,1818.4,1799.4,1784.5,1771.5,1763.7,1763.1,1409.6,0,707.9,3690.2,3691.4,3706.1,3712.3,3709.1,3706.1,3708.2,3701.2,3699,3692.1,3696.4,3688.2,3684,3677.6,3663.1,3654.8,3648.9,3641.4,3627.4,3620.2,3610.8,3607.2,3608.8,3605.8,2274,2269.3,2262.5,3598.2,3577.8,3549.5,3532.1,3515.3,3511.5,3501.9,3492.8,3474.7,3455.8,3443.8,3429.9,3414.9,3397.7,3380.2,3360.7,3356.5,3346.5,3346.5,3354,3355.8,3361.4,3360.6,3373.8,3378.9,3391.4,3402,3406.9,3409.6,3408.7,3418.9,3429.7,3438.4,3456.9,3481.5,3497.2,3517.2,3531.3,3551.6,3570.2,3591.1,3612.5,3629.6,3627.7,3631.9,3644.8,3644.8,3642.7,3649.2,3644.6,3638.1,3635.9,3642.3,3610.5,3597.8,3591.5,3600,3608.4,3627.2,3644.4,3662,3677.3,3710,3734.8,3739.2,3723.3
3933.9,3924.2,3924.1,3918.9,3918.5,3920.9,3908.1,3900.3,3890.6,3878.2,3863.4,3853.8,3820.3,3785.1,3748.3,3718.7,3692.2,3674.5,3659.3,3644,3622.5,3613.9,3607.4,3603.1,3620.2,3641.9,3674.5,3705.3,3732.2,3755,3778,3806,3834.6,3851.5,3858.7,3853.9,3856.3,3861.1,3863.6,3863.8,3863.8,3863.8,3859,3856.7,3849.5,3840.1,3835.1,3820.9,3811.6,3802.2,3792.8,3776.5,3769.5,3760.3,3753.4,3744.5,3735.4,3724.2,3722.1,3711.3,3700.5,3691.9,3683.9,3672.8,3658.4,3652.6,3636,3622.4,3605.2,3594,3584.3,3574.9,3567.1,3564.6,3261.1,3562,3263,3565.3,3573.3,3575.5,3288.8,3592.8,3293,3297.3,3308.1,3643.9,3668.6,3682.8,3699.7,3712.8,3739.7,3755.4,3773.7,3783,3794.6,3799.3,3806.5,3802,3799.7,3800.2,3793.4,3768.2,3748.6,3718.5,3687.2,3320.5,3615.3,3576.8,3540.5,3502.8,3114.1,3449.4,3427.4,3409.9,3393.3,3029.7,3032.5,3040.3,2716,2036.2,2354.2,2019.5,1700.9,2814.7,3154.3,3166.7,3571.4,3198.9,3597.7,3605,3616.4,2955.8,2961.7,3342.9,2874.3,2878.9,3202.7,2878.5,3196.8,3549.5,3548,3190,3243.9,2887.2,3248.5,2351.4,2348.9,2348.8,2348.6,2348.5,2348.6,2351.2,2348.7,2351.2,2351.2,2356,2358.6,2358.6,2358.6,2358.5,2361,2358.5,2358.5,2356.1,2348.6,2341.2,2336.2,2328.9,2319.2,2307,2295.1,2290.3,2278.5,2269.1,2264.5,2259.9,2259.9,2259.9,2259.9,2259.9,2264.5,2266.8,2269.2,2271.5,2276.1,2276.1,2278.4,2280.8,2280.8,2283.1,2280.8,2283.1,2276,2273.7,2269.1,2627.5,2625.2,3388.2,3385.8,3383.3,3380.7,3772.9,3775.1,3772.8,3772.8,3774.9,3770,3774.6,3771.9,3774,3769.4,3774,3769.2,3769,3771.3,3771.2,3778.2,3782.9,3780.6,3787.6,3789.9,3801.6,3808.6,3822.7,3834.7,3846.7,3861.2,3873.3,3888.1,3902.7,3910.2,3915.3,3920.2,3927.8,3920.4,3917.9,3910.4,3905.6,3898.4,3888.6,3881.5,3879.2,3864.9,3855.6,3841.2,3829.9,3816,3809,3800.2,3788.3,3786.5,3772.9,3766.6,3757.4,3757.4,3754.7,3745.5,3743.1,3741.5,3740.9,3747.4,3749.4,3758.8,3769.7,3771.5,3780.8,3789.9,3803.9,3448.9,3468,3477.5,3489.2,3496.3,3503.4,3127.8,3125.4,3118.3,3481.4,3454.9,3438.3,3415.1,3394.6,3369.6,3351.7,3325.1,3305.3,3641.7,3616.1,3577.9,3524.6,3474.7,3437.8,3396,3359.1,3317.8,3282.6,3249.9,3228.2,3222.2,3206.3,3195.2,3182.4,3167.6,3157.7,3146.2,3129.7,2803.5,2787.4,2823.6,2510.4,2542.9,2524.7,2515.8,2512.8,2516,2476.2,2485.7,2496.7,2801.7,2817.1,2784.2,3107.5,3116.7,3124.1,3126.8,3125,3121.5,3113.6,3105.7,3092,3079.5,3063,3049.5,3037.5,3017.9,3004.7,2677.8,2662.2,2649.7,2638.8,2920.8,2908.7,2898.2,2893.3,2885.5,2878.2,2869.3,2860.5,2840.9,2824.2,2801.8,2769.8,2735.8,2689.5,2649.3,2593.1,2541.7,2242.4,2197.1,2404.9,2123.2,2328.5,2300.4,2029.6,2247.6,2227.1,2208,2189.1,2168.3,2148.1,1913.4,1900,1885.6,1871.6,1860.4,2053.1,2040.2,2027.2,2017.8,2010.2,2003.1,1995.4,1989.2,1979.6,1965.1,1753.1,1918,1891.5,1865.9,1842.9,1821,1801.1,1785,1773,1762.6,704.8,0,0,3304.5,3686.1,3685.1,3695.1,3699.4,3700.5,3711.2,3706.1,3705.8,3699,3703,3705.2,3702.9,3703.1,3690.2,3679.5,3671,3665,3654.8,3640.6,3633.2,3627.7,3615.9,3616.7,3618.7,3621,2269.3,2267,2262.6,3604.7,3588.7,3567.5,3554.7,3542.6,3538.9,3529.2,3507.3,3487.8,3479.4,3464.7,3449.9,3426.1,3398.3,3382.9,3381.6,3371,3371.5,3370.1,3375.5,3373.2,3374.9,3385.4,3393.1,3407.4,3416.2,3425.1,3428.4,3435.2,3443.9,3458.4,3469.3,3490.2,3513.5,3527.4,3545.6,3561.9,3580.4,3603.8,3619,3640.2,3647.1,3645.3,3647.9,3649.9,3643,3647.7,3647.6,3643,3645,3644.7,3646.6,3631.6,3614.6,3616.9,3623.1,3633.6,3648.8,3670.6,3681.6,3696.7,3721.2,3741.4,3743.7,3732.4
3959.2,3943.6,3938.6,3936,3935.9,3933.2,3915.4,3905.3,3885.6,3868.4,3846.6,3825,3791.9,3743.6,3698.6,3665.9,3639.7,3613.9,3590.8,3572.1,3555.6,3551.5,3551.6,3557.7,3572.1,3599,3639.7,3674.4,3714.1,3743.6,3775.7,3806.1,3841.8,3861.1,3873.3,3866.1,3868.6,3873.4,3870.9,3873.4,3873.5,3876.1,3871.2,3866.4,3864,3854.4,3844.8,3832.9,3823.6,3814,3804.5,3792.9,3783.7,3774.3,3762.7,3756.1,3747.1,3742.5,3733.5,3729.2,3721.1,3712.6,3701.6,3690.7,3682.1,3665.3,3651.1,3643.5,3626.1,3614.5,3605.5,3597.7,3589,3583.7,3289,3575.6,3286.5,3586.9,3595.7,3306.2,3317.1,3323.8,3323.8,3334.9,3341.8,3687.6,3703.9,3723.2,3736.1,3753.6,3769.6,3787.8,3799.4,3811.2,3815.9,3823.1,3832.8,3832.9,3828.4,3826.1,3814.7,3794,3773.9,3743.8,3712.1,3343,3640.5,3601.7,3220,3524.3,3494.4,3471.8,3087,3428.3,3409.6,3402.6,3048.3,3415.3,3082.5,2064.2,2369.4,3104.9,3129.9,3194,3541.2,3558.9,3574.6,3590.3,3602,3610.6,3617.7,2958.4,3349.2,3240.1,2936.4,2936.9,3268.2,3556.7,3552.5,3550.9,3550.7,3546.9,3549.7,3556.3,3569.5,3249.4,2883.8,2887.4,2619.6,2331.4,2333.8,2331.3,2336.3,2341.3,2346.2,2348.6,2351,2351,2356.2,2356,2353.5,2356,2358.5,2356.1,2348.5,2343.5,2333.7,2324.1,2314.2,2299.8,2292.7,2278.6,2266.8,2259.9,2255.3,2255.3,2250.7,2253,2250.7,2250.7,2255.3,2259.9,2262.2,2264.5,2266.8,2269.1,2271.4,2271.4,2269.1,2271.4,2271.4,2271.4,2266.8,2266.8,2264.5,2616.1,2620.5,3383.8,3378.9,3376.6,3376.3,3770.9,3770.9,3770.7,3770.6,3770.7,3765.8,3765.8,3772.3,3774.3,3769.5,3769.4,3771.5,3769,3769,3766.7,3771.2,3768.9,3778.2,3780.5,3782.8,3799.2,3810.9,3822.7,3841.9,3854,3870.8,3885.6,3900.4,3917.7,3925.3,3932.8,3935.2,3937.9,3935.6,3933.1,3925.6,3923.1,3913.3,3903.5,3896.1,3886.6,3876.8,3864.6,3850.5,3836.6,3825,3811.2,3804.4,3800.3,3788.8,3784.9,3783,3778.9,3778.5,3774.1,3771.7,3762.3,3760,3759.5,3757.3,3768.6,3777.5,3779.8,3788.6,3795.7,3437.6,3449.4,3470.8,3480.5,3489.9,3501.6,3508.6,3138,3138,3132.8,3125.5,3474.6,3452.9,3429.2,3403.6,3381.3,3354.1,3334.1,3309.9,3288.1,3270.8,3603.6,3563.8,3512.7,3468.7,3430.3,3388.7,3351.7,3319.7,3282.6,3255.2,3231.9,3227.5,2906.9,2895.7,2885.7,2879.2,2867.1,3157.2,2829.5,2857.6,2841.3,2526,2514.8,2502.3,2532,2523,2524.6,2526.3,2532.7,2496.2,2505.4,2514.8,2525.7,2489.8,2813.2,3130.1,3137.8,3140.7,3140.5,3132.5,3123.1,3110.5,3095.1,3081.6,3063.1,3048,2718.8,2704.1,2686.3,2720.5,2706.2,2693.7,2638.5,2630.3,2908.7,2900.8,2893.2,2884.2,2872.7,2860.2,2843.5,2822.7,2512.5,2765.6,2728,2687.3,2641.3,2592.2,2539.4,2491.5,2443.6,2403,2364.2,2330.7,2302.5,2277.5,2255.7,2235.6,2219.5,2201.5,2184.2,2167.4,2148.9,1912.5,1899.9,1886.9,1872.5,2068.6,2053.6,2042.4,2030.3,2022.5,2015.4,2007.5,2001.2,1994.7,1983.9,1968.8,1948.8,1922.5,1897.2,1869.2,1846.2,1824.2,1805.5,1787,1774,1763.7,0,0,3295.7,3674.3,3676.4,3675.2,3683.1,3695.6,3705.7,3705.3,3708.5,3710.6,3705.5,3712.3,3727.8,3727.8,3725.4,3714.4,3698.8,3688,3686.1,3673.3,3658.8,3653,3638.7,3635.1,3638.2,3645.6,3648,3644.2,2271.7,2267,2599.3,3260.5,3593.5,3579,3570.8,3563.2,3553.1,3539.7,3519.5,3145.2,2418.1,3478.9,3452.6,3426.5,3411.1,3405.7,3397,3397.3,3391.9,3389.5,3394.9,3392.8,3406.2,3418.5,3429.1,3440.2,3451,3456.4,3465.2,3474.2,3499.3,3518.5,3534,3556.2,3572.4,3586.8,3597.3,3614.6,3634,3651.2,3662.7,3665.1,3663.4,3667.8,3661.2,3661,3661,3654.3,3653.9,3651.5,3653.5,3661.9,3650.8,3638,3635.8,3646.3,3661.9,3675,3696.8,3708,3719.2,3739.3,3750.6,3752.8,3736.9
3974.1,3966.3,3953.5,3948.3,3943.3,3935.6,3920.4,3902.9,3888,3868.4,3837,3810.6,3782.6,3730.1,3685.4,3648.3,3609.6,3584.5,3557.7,3537.3,3519.1,3503.1,3499,3505,3529.2,3553.4,3596.9,3648.4,3685.4,3732.2,3766.5,3806,3841.8,3866,3885.4,3880.6,3878.3,3878.3,3878.3,3880.7,3880.7,3883.5,3883.5,3871.3,3868.8,3863.9,3849.6,3847.3,3837.9,3826,3823.5,3809.6,3795.5,3788.5,3786.5,3777.1,3767.9,3763.2,3749.9,3743.3,3741.6,3730.3,3724.2,3717.8,3704,3689,3680.9,3668.2,3651,3637.5,3311.2,3309.1,3311.3,3611.5,3608.3,3605.4,3607.3,3626.5,3332.5,3346.1,3352.9,3357.5,3364.4,3695.2,3715.2,3724.8,3743.7,3754.3,3769.8,3785.9,3799.9,3818.7,3825.7,3837.7,3847.2,3854.4,3859.3,3856.9,3857.4,3850.3,3841,3825.2,3806.8,3771.5,3742.5,3704.8,3669.3,3628.9,3590.7,3555,3527.5,3194.4,3478.5,3461.2,3442.3,3435.6,3439.5,3083.1,2809.3,2807.6,2805.1,3179.3,3197.2,3213.9,3224.8,3559.9,3570.6,3016.1,3323.5,3335.1,3343.8,3347.5,3343.7,3028,3021.3,2663.9,3577.8,3294.7,3290,3287.9,3281,3550.9,3545.3,3184.3,2594.3,2870.4,2866.7,2871.6,2871.5,2873.9,2882.3,2606.2,2893.8,2619.6,2326.6,2333.9,2341.3,2351,2351,2351.1,2353.5,2358.6,2358.6,2358.5,2348.5,2343.5,2336.1,2319.1,2311.8,2295,2285.5,2269.1,2255.3,2253,2246.2,2244,2239.5,2239.3,2237,2237,2241.6,2248.5,2253.1,2253.1,2257.7,2259.9,2259.9,2259.9,2259.9,2257.6,2262.2,2259.9,2257.6,2257.6,2255.3,2253,2606.9,3375,3372.9,3370.5,3368.2,3367.7,3372.3,3761.9,3761.6,3759.1,3763.6,3763.5,3765.4,3765.1,3765.1,3767.1,3764.6,3762.2,3759.8,3764.4,3766.6,3768.9,3768.9,3778.2,3780.5,3794.4,3813.3,3825,3844.3,3861.2,3880.6,3892.9,3910.2,3930.3,3943,3945.6,3950.6,3948.2,3943.1,3943.1,3933.2,3928.3,3918.5,3915.9,3903.9,3896.3,3879.3,3869.5,3852.7,3846,3834.5,3825.5,3819,3814.4,3808.1,3804,3797.2,3793,3795.2,3790.4,3785.6,3779.3,3779.1,3775,3781.4,3785.7,3787.6,3801,3807.4,3447.9,3452.3,3466.3,3483.5,3493.1,3502.5,3507.2,3148.1,3148.1,3145.6,3140.6,3123,3472.6,3446.4,3418,3390.7,3370,3343.3,3319.3,3301.6,3277.7,3260.3,3236.9,3205.5,3503,3459.4,3418.9,3379.5,3344.7,3310.8,3279.3,2935.8,2922.7,2919.9,2911.9,2900.7,2892.2,2882.1,2873.5,2553.4,2579.6,2562.8,2549.7,2533.6,2522.3,2553.3,2539.6,2533.6,2529.3,2530.9,2540.4,2505.5,2513.3,2525.4,2536.3,2548.5,2828.7,3148.9,3148.7,3151.6,3150,3142,3127.8,3117,3098.4,3081.6,3064.9,2729.2,2764.6,2751.3,2733.4,2421.4,2410.2,2400.3,2390.5,2383.6,2624.9,2903.6,2893.2,2880.3,2870.5,2852.5,2831.9,2800.2,2765.4,2731.6,2686.2,2639.4,2591.9,2542.2,2487.6,2440.8,2398.1,2358.8,2330.5,2301.2,2279.7,2258.5,2244.5,2228.7,2213.7,2197.3,2181.9,2165.8,2150.2,1916.3,1903.3,2099.7,1874.5,2069.2,2055.3,2045.8,2036.9,2027.5,2022.3,2015.8,2009.5,2003.2,1992.9,1978.7,1957.9,1933,1905.9,1877.7,1855,1830.6,1810.8,1791.6,1774.5,1236.4,0,1367,3682,3680.6,3674.9,3678.3,3683.4,3698.1,3706,3714,3717.8,3724.1,3726.1,3732.3,3738.9,3743.3,3743.3,3731.6,3711.9,3705.1,3701,3696.4,3683.8,3673.3,3669.8,3672.1,3677.1,3690.4,3693.1,3690.4,2283.3,3693.6,2616.3,2587,3622,3609.3,3599.3,3580.4,3570.8,3563.4,3543.6,3532.6,3529.9,3507.9,3489,3460.5,3443.3,3437.8,3434.4,3423.3,3425.5,3426.6,3426,3433.2,3444.6,3459.2,3477.6,3486.8,3496,3503.5,3511.2,3527,3551.1,3564.9,3581.2,3606.2,3620.8,3627.4,3634.1,3651,3666.5,3679.8,3686.9,3687.2,3681.1,3683.4,3674.6,3678.7,3672.4,3665.4,3662.5,3662.2,3666.3,3672.6,3664,3661.7,3662,3673,3686.2,3708.2,3721.7,3739.6,3739.5,3753.2,3764.4,3757.5,3743.8
3994.2,3989.2,3973.7,3963.4,3950.5,3945.4,3930.3,3912.8,3892.9,3868.3,3841.8,3810.6,3778,3730,3689.8,3646.2,3615.9,3586.6,3559.9,3527.2,3509.1,3497.2,3495.1,3497.1,3517.1,3537.2,3586.5,3631,3680.8,3723.2,3761.9,3803.6,3846.6,3873.2,3890.3,3892.8,3890.4,3890.5,3890.5,3895.3,3888.1,3890.7,3885.9,3886,3878.5,3868.8,3859.2,3854.7,3852.4,3840.5,3833.6,3824,3814.5,3805.2,3798.1,3791.3,3782,3777.1,3768,3761.3,3757.3,3748.1,3741.6,3737.2,3723.8,3710.7,3706.5,3691.2,3677.5,3665.7,3337.5,3333.2,3644.2,3639.4,3638.5,3645.2,3649.5,3357.1,3368.4,3382.4,3389.4,3389.4,3398.7,3400.7,3754.4,3767.2,3784.5,3786.6,3800.3,3814.4,3828.3,3837.7,3849.8,3859.2,3864,3878.6,3886,3891.1,3886.3,3884.1,3877.5,3858.1,3845.2,3818.8,3783,3747.2,3387.8,3673.8,3636.1,3599.2,3573.4,3554.2,3532.1,3508.2,3492,3487.4,3181.7,3194.1,3198.2,3207.7,3525.9,3541.1,3566.5,3581.8,3322.7,3600,3600,3611.8,3349.1,3352.6,3362.7,3361.4,3360.7,3356.8,3343.2,3290.2,3592.5,3569.7,3561.9,3554.4,3178.2,3542.7,3544.7,3172.3,3181.8,3191.9,3198.5,3202.4,3207.6,3210.9,3212.5,3219.5,3231.8,2956.6,2966.3,2974,2985.8,2988.1,2995.8,2637.2,2640.4,2640,2639.8,2633.4,2350.9,2341.1,2331.3,2316.6,2304.6,2295,2280.7,2259.9,2250.8,2243.9,2232.6,2230.3,2230.3,2230.3,2232.5,2232.5,2234.7,2237.1,2237.1,2239.4,2241.7,2241.7,2241.7,2244,2241.7,2243.9,2246.2,2246.1,2243.8,2243.8,2241.6,2589.3,2955.6,3352.8,3352.9,3357,3356.8,3354.4,3359,3365.8,3370.2,3370,3369.9,3376.7,3383,3753.6,3753.5,3382.6,3760,3755.4,3755.3,3755.2,3757.5,3766.7,3766.7,3775.9,3785.3,3796.7,3817.9,3837,3856.3,3875.7,3895.3,3912.8,3927.9,3943,3945.6,3945.7,3955.8,3953.4,3948.6,3946,3938.6,3931.3,3921.4,3918.9,3911.4,3899,3889.3,3874.5,3864.9,3848.5,3846.6,3835.3,3825.8,3821.6,3819.8,3820.1,3820.8,3816.2,3809.3,3809.5,3807.1,3797.9,3791.3,3793.7,3796.1,3799.9,3811.4,3442.9,3446.3,3460.1,3467.2,3479.1,3493.3,3505.6,3515.5,3155.7,3155.5,3155.5,3150.5,3143.2,3128.2,3103.8,3435.2,3407,3379.5,3357.4,3337.2,3311,3287.4,3271.8,3250.5,3226.9,3197.7,3491.2,3449.5,3411.1,3373.8,3341,3307.4,2963.4,2620,2610,2607.1,2602.4,2595.9,2587.3,2573.7,2609.9,2599.2,2585.6,2567.4,2554.2,2584.5,2571.7,2559.2,2547.2,2539.6,2535.2,2538.7,2544.9,2508.5,2525.3,2531.5,2545.2,2562.4,2844.3,2847.2,3164.6,3166.2,3163.1,3153.5,3139.3,3123.4,3103.5,2765.7,2748.9,2776.4,2458,2446.4,2433,2468,2457.7,2452.2,2398.6,2389,2376.8,2619.8,2894.6,2879,2863.9,2842.3,2818.3,2782.9,2745.1,2703.4,2656.5,2604.1,2553.2,2504.9,2455,2158.3,2369.9,2336,2309.1,2285.5,2266.7,2252.4,2235.3,2224.7,2210.4,2198.6,2185,2166.5,2153.1,2136.9,2119.8,2103.3,2086.7,2073.3,2058.4,2048.9,2042.1,2036.2,2030.2,2025.1,2017.3,2014.3,2003.7,1990.1,1971.8,1947,1919,1891.8,1866.8,1841.7,1819.8,1796,1600,1236.4,0,1017.1,3687.4,3690.2,3691.7,3694.7,3700,3716.9,3724.4,3732.6,3738.4,3748.9,3743.6,3752.7,3768.4,3772.7,3765.4,3751.5,3735.8,3731.2,3729,3722.3,3711.3,3707,3701.2,3708.2,3727.1,3731.2,3736,1894.9,1532.4,3736.7,3722.5,3686.9,2586.9,3633.8,3621.7,3607.8,3593.8,3582,3562.1,3557.3,3554.3,3535.7,3516.7,3490.5,3478.1,3472.3,3464.8,3462.8,3464.6,3457.6,3462.9,3468.2,3483.5,3498.6,3515.3,3525.1,3535,3546.9,3553.1,3571.5,3594.1,3611.1,3636.2,3650.9,3666,3664,3679.4,3683.8,3694.9,3709.1,3716,3711.7,3700.8,3698.7,3694.1,3689.7,3687.4,3682.8,3673.2,3679.6,3683.7,3685.9,3679.1,3674.9,3683.5,3690.2,3705.7,3724,3739.6,3748.9,3755.7,3769.3,3769.1,3764.4,3748.3
4022.8,4007,3993.9,3981,3965.9,3958.2,3940.2,3924.9,3900.3,3883.1,3856.2,3822.6,3791.9,3752.7,3705.3,3668,3633.1,3609.6,3580.4,3557.7,3533.2,3509.1,3503,3501,3519.1,3543.3,3586.5,3633.1,3676.6,3718.8,3766.5,3813.1,3858.7,3892.8,3912.8,3905.3,3897.8,3897.8,3897.8,3900.2,3902.8,3900.5,3895.6,3890.6,3888.1,3880.9,3876.3,3866.6,3861.9,3852.4,3840.8,3833.6,3826.4,3824.4,3817.3,3810.2,3801.1,3791.5,3786.9,3777.4,3775.4,3761.6,3754.9,3755.3,3741.4,3736.8,3732.6,3721.6,3713.5,3362.5,3364.7,3360.2,3362.3,3373.6,3373.5,3684.3,3384.6,3393.7,3405.4,3417,3424.3,3429.1,3773.8,3788.2,3801.6,3806.3,3817.5,3819.6,3462.2,3838,3847.5,3869.3,3876.6,3883.8,3893.5,3900.9,3910.9,3911.1,3911.3,3911.7,3902.1,3895.1,3883.7,3863.9,3832.4,3802.7,3779,3738.7,3703.5,3662.9,3638.4,3615.8,3588.3,3560.1,3543.1,3534.7,3530.8,3537,3539.4,3549.9,3560,3575.1,3600.7,3342,3343,3045.5,3044.5,3045.2,3365.1,3364.1,3370.5,3373.2,3366.6,3366.3,2990.1,3351.3,3329.5,3312.1,3302.3,2982.4,2978.5,2978.6,2971.1,2604.9,2604.4,2902.9,2906,2911.1,2908,2910.3,2915.9,2918.9,2924.2,2937.1,2947.2,2607.1,2967.3,2976.5,2981.8,2977.8,2972.4,2975.1,2972,2962.7,2951.8,2936.5,2922.6,2916.7,2616.4,2602.1,2587.9,2571.1,2832.3,2506.2,2228.1,2225.8,2223.6,2223.7,2223.7,2221.6,2223.8,2223.7,2230.3,2232.6,2230.3,2230.3,2230.3,2230.3,2230.3,2234.9,2232.6,2234.9,2230.4,2573.8,2919.5,2925.6,2931.7,3333.1,3335.2,3332.8,3337.1,3339.2,3343.8,3352.7,3357,3358.8,3358.6,3365.6,3367.4,3371.6,3375.9,3742.5,3382.3,3748.9,3750.9,3748.6,3753.1,3762.2,3768.9,3778.2,3792.2,3808.5,3834.6,3846.7,3873.4,3892.9,3915.3,3927.9,3938.1,3958,3960.8,3955.7,3966.3,3961.4,3951.4,3948.8,3943.9,3941.6,3934.2,3921.7,3916.7,3909,3896.8,3889.5,3872.5,3863.4,3856.2,3849.4,3847.5,3845.7,3841.4,3836.6,3839.6,3837.4,3830,3826,3823.3,3819.7,3812.9,3808.2,3809.9,3817.1,3457.5,3464.5,3463.6,3475,3479.6,3496.6,3506,3158.3,3160.6,3165.8,3165.8,3163.2,3160.7,3148.2,3121,3099.2,3426.4,3396.2,3375.8,3348.9,3320.1,3300.6,3280.9,3259.2,3244.4,3225.5,3187.5,3141,3103.4,3396.2,3036.8,3004.3,2660.4,2633.7,2617.8,2609.6,2608.1,2603.6,2593.6,2586.9,2621.2,2567.7,2557.5,2587,2617,2605.1,2587.5,2576.2,2562.3,2553.1,2542.8,2541.4,2544.8,2510.2,2519.6,2534.8,2543.5,2559.1,2578.1,2857.1,2863.6,2868.4,2865.1,3176.2,3166.7,3153.8,3133.3,2793.8,2819,2803.6,2786.9,2466.8,2497.3,2485.6,2476.5,2467.7,2457.6,2450.4,2440.7,2389.1,2374.1,2313.3,2881.8,2859.9,2834.5,2804.2,2766.5,2722,2678.5,2383.7,2578,2527.3,1952.3,2177.6,2143.4,2112.6,2086.4,2064.4,2047,2033.5,2022.7,2010.4,2221.5,2212,2200.4,2185.7,2171.2,2155.5,2138.9,2121.1,2104.9,2089.5,2077.4,2065.4,2057.2,2049,2045.1,2039.8,2034.4,2030,2026.2,2017.7,2004.6,1985.7,1961.5,1934.3,1907.1,1878.5,1850.7,1825.9,1798.6,1600.5,1589.3,0,0,1374.7,3713,3714.3,3715.5,3722.5,3734.9,3752,3759.8,3767.5,3773.6,3771.1,3775.2,3791,3797.9,3790.8,3771.9,3762.5,3751,3758,3746.5,3746.5,3733.6,3727.2,3729.7,3750.4,3754.8,3761.8,3747.7,2283.3,3749.2,3732.9,3710.4,3684.2,3658.3,3637.8,3627.9,3616.2,3602.1,3586.8,3582.1,3581.6,3564.8,3537.1,3514,3505.6,3501.6,3501.4,3499.4,3494.5,3497.4,3503,3506.5,3519.7,3539.6,3553,3563.3,3577.5,3585.6,3598.5,3613.1,3640.6,3660,3686.4,3694.8,3703.8,3701.6,3717.5,3717.5,3724.4,3724.6,3731.8,3718.1,3709.6,3709.6,3707,3695.7,3689.2,3697.8,3697.4,3695.1,3697.3,3701.5,3699.3,3703.6,3699.1,3714.7,3730.5,2997.8,2253.7,2636.1,2640.7,3781,3773.7,3771.3,3755.2
4030.6,4020,4004.3,3991.3,3975.9,3970.7,3950.3,3935,3910.2,3892.9,3868.3,3841.8,3813,3773.4,3736.9,3705.2,3676.8,3652.5,3628.9,3599.1,3576.2,3551.5,3541.3,3537.2,3547.4,3566,3609.5,3644,3692,3736.8,3782.6,3825,3870.8,3905.4,3929.8,3917.8,3920.1,3912.9,3910.3,3910.3,3915.5,3915.3,3910.4,3900.4,3898,3893.1,3881.2,3881.3,3866.8,3859.9,3857.7,3845.8,3843.5,3833.9,3826.9,3822.3,3815.3,3805.7,3793.7,3789,3791.6,3782.4,3773.3,3773.5,3759.6,3761.6,3757.1,3747.9,3390.4,3390,3389.9,3392.1,3389.7,3713.8,3717.7,3414.7,3419.2,3423.9,3440.5,3447.7,3455,3455.2,3460.5,3460.6,3830.1,3835,3841.9,3844.3,3486.8,3870,3882,3889,3903.8,3911.2,3921.2,3926.2,3933.7,3933.5,3938.7,3936.6,3939.4,3932.2,3918.2,3904.7,3877.9,3851.5,3828.8,3796.7,3768.1,3741.3,3717.4,3692.8,3666.6,3640.9,3619.4,3301.1,3289.7,3603,3289.3,3289.2,3296.1,3291.7,3300.4,3308.9,3312.8,3317.6,3009.8,2734.9,3324.3,3051.4,3052.6,3047.4,3320,2921.3,3293.9,3652.3,3253.2,3612.2,3602.2,3205.3,3567.8,3189.6,3174.6,3171.1,3172.1,3174,3176.9,3174.3,3178.7,3179.6,3179.9,3186.9,3201.9,2913.7,3232.4,3244.3,3252.9,3265.7,3280.3,2974.4,2969.4,3547.2,3531.9,3514.1,3505.7,3493.2,3472.7,3200,3185,2883,2863.5,2565.8,2554.5,2546.5,2543.7,2219.1,2214.7,2210.1,2208,2210.3,2212.6,2212.6,2217,2219.3,2217.1,2217.1,2217.1,2547.8,2548.1,2549.9,2549.9,2547.8,2549.6,2551,2888.6,2894.3,3278.9,3291.6,3293.4,3293.2,3304,3308,3319.1,3323.4,3330.2,3334.6,3347.9,3349.7,3353.8,3358.1,3369.3,3373.6,3731.3,3740,3739.7,3748.7,3755.5,3766.9,3776.1,3787.5,3803.8,3822.7,3849,3868.5,3890.5,3915.2,3930.5,3938,3953,3971,3981.4,3976.5,3966.5,3964.1,3959.2,3952,3954.6,3944.5,3934.3,3929.6,3922.1,3912,3902.2,3887.6,3882.7,3868.5,3869.2,3869,3862.4,3860.2,3853,3855.6,3858.5,3861,3851.2,3851.6,3844.8,3837.8,3836.1,3833.9,3836.1,3464.9,3474,3481,3488.1,3497.1,3504.2,3158.4,3168.5,3171.1,3176.2,3173.6,3171,3171,3160.7,3143.3,3113.8,3089.5,3061.2,3389.9,3362.7,3340.2,3311.8,3294.2,3272.5,3251,3234.3,3213,3181.5,3129.2,3093.6,2728.3,2698.4,2678.1,2654.7,2633.5,2614.3,2609.2,2607.7,2608.1,2596.3,2630.9,2577.5,2608.4,2555.3,2636.2,2624.5,2609.6,2593.7,2579.4,2567,2557.7,2550.5,2547.8,2552.8,2513.4,2570,2542.7,2562.7,2576.7,2591.1,2922.9,2883.5,2885.1,2880.3,2872.1,2859,2839.8,2825.5,2850.4,2833.1,2503.3,2488,2517.9,2507.5,2497.2,2489.7,2479.4,2470.6,2460.4,2452.1,2396.2,2380.8,2313.1,2293.6,2558.4,2828.3,2796.6,2753.5,2711.3,2663.1,2367.8,2280.7,2238.1,1947,1663.7,1644.4,1383.8,1373.3,1365.4,1357.7,1577.3,1569,1563.4,1554.6,1768.9,1538.9,1961.9,1736.7,1935.7,1918.9,1903.7,1889.3,1885,2082.3,2070.4,2062,2058.1,2053.5,2050.2,2047.5,2043,2039.1,2033.1,2021.8,2003.8,1979.9,1954,1924.3,1892.2,1861,1828.6,1798.5,1601,1238.5,0,0,1382.3,2954.1,3741.4,3739.9,3750.1,3764.9,3781.5,3790.1,3795,3801.6,3803.4,3807.6,3809.5,3821.1,3814,3792.4,3785.3,3785.3,3778.2,3775.9,3773.6,3762.4,3758.1,3765.3,3774.6,3781.6,3776.7,3763,3764.9,3760,3743.9,3716.8,3701.6,3684,3667.1,3656.9,3640.8,3630.8,3617.1,3612.5,3612.3,3589.2,3561.5,3538.4,3532.1,3525.8,3527.7,3524.4,3525.6,3522.2,3529.5,3535.4,3553.6,3569.4,3225.6,3593.9,3615,3623.4,3642.7,3651.6,3679.7,3704.3,3722.1,3730.9,3740,3737.9,3742.7,3747.4,3742.7,3740.7,3746,3729.6,3727.4,3725.3,3718.3,3706.6,3704.5,3711.1,3706.3,3710.6,3708.4,3708.4,3703.9,3710.2,3712.4,3726.1,2993.1,1522.9,1530,2283.5,2652.6,2269.9,2267.2,2642.5,3379.8
4019.9,4014.6,4004.2,3996.4,3980.9,3975.7,3960.4,3942.7,3919.8,3900.4,3880.5,3856.2,3825,3796.6,3764.2,3736.8,3714.3,3691.9,3672.5,3648.2,3618.1,3596.9,3586.4,3580.2,3590.5,3605.3,3641.7,3685.3,3721,3768.8,3813.1,3856.3,3895.3,3925,3940,3932.4,3932.4,3922.7,3925.1,3927.7,3925.1,3920.3,3920.4,3912.9,3902.8,3898.2,3890.9,3883.8,3884.1,3869.5,3862.6,3860.2,3858.2,3848.3,3843.7,3836.9,3827.3,3822.1,3812.6,3800.7,3798.4,3793.7,3786.9,3784.7,3782.5,3775.2,3777.3,3779.5,3775,3411,3410.5,3424.8,3755.9,3429.6,3441,3450.3,3454.8,3464.4,3474.2,3483.7,3489.1,3489.1,3491.7,3491.9,3497.2,3499.6,3506.9,3509.3,3509.3,3518.9,3533.9,3917.3,3921.9,3936.5,3941.5,3948.7,3956.5,3964.1,3964.2,3966.9,3964.9,3962.7,3955.5,3941.2,3915.7,3901.3,3881.8,3858.6,3832.1,3810.2,3796.5,3771.6,3743.6,3723.8,3706.7,3690,3366.6,3368.8,3674.8,3343.5,3673.6,3664.5,3345,3347.2,3669.3,3667.1,2904.2,2947.4,3230.2,3240.5,3396.3,2645.2,3348.5,2952.9,2947.8,2945.8,2938.7,3266.5,3257.2,2952.4,2613.6,2606.8,2276.7,2274.3,2550,2845.1,2841,2841,3175.4,3175.4,3173,3178.7,3190.4,3212.6,3227,2928,2943.3,3270.9,3277.7,3264.9,3250.4,3548.6,3541.3,3523.8,3508.8,3498.7,3481.9,3465.2,3451.2,3169.1,3151.1,3400.8,3095.2,2813.6,2205.9,2527.3,2526.5,2197.3,2195.1,2537.4,2535.3,2533.5,2199.4,2199.4,2201.5,2203.8,2203.8,2203.8,2201.5,2201.5,2201.5,2199.4,2195,2195.1,2190.8,2863.8,3238.2,3246.5,3259,3263.2,3273.5,3284.1,3288.6,3301.1,3636.9,3651.5,3659.7,3672.2,3678.7,3684.8,3697.1,3710.4,3716.5,3718.4,3729.3,3738,3758.3,3773.9,3787.7,3801.6,3820.5,3837.1,3866.1,3888,3915.2,3927.8,3942.7,3960.6,3971,3978.8,3984,3976.6,3971.8,3966.9,3962.3,3955.1,3957.3,3942.4,3932.5,3927.3,3922.3,3919.7,3907.5,3900.1,3892.8,3885.6,3885.9,3881.1,3881.2,3878.9,3879.6,3879.2,3874.7,3877.2,3877.5,3865.5,3863,3862,3857.5,3479.8,3481.2,3491.5,3500.7,3502.9,3505.6,3514.9,3166.6,3176.4,3178.9,3181.3,3181.2,3181.3,3178.7,3173.6,3158.1,3138.4,3111.1,3082.2,3051.8,3371.6,3351.8,3325.2,3301.5,2935.3,3264,3244.7,3227.9,3204.7,3167.7,2784.8,2751.3,2717,2691,2670.9,2654.5,2631.5,2616,2607.4,2605.7,2602.6,2596,2628.6,2619.7,2611.3,2649,2637.4,2627.3,2616.1,2603.1,2584.3,2574.9,2567.3,2563.4,2562.4,2566.9,2571.8,2293.8,2265.6,2275.3,2283.3,2609,2622.2,2618.7,2620.4,2893.9,2929.6,2911.3,2853.1,2878.9,2863.2,2525,2553,2540.7,2531.6,2521.2,2510.6,2503.1,2494.4,2485.2,2475,2461.8,2159.8,2141.5,2034.5,2010.8,1982.6,1950,1922,1599.4,1567.6,1284.7,1288.5,1739.2,1447.7,1424.4,1407.1,1469.3,1456.8,1369.8,1362,1433.1,1427.2,1500.3,1419.8,1632.5,1702.8,1617.2,1528.2,1519.7,1507.7,1921.4,1905.9,1892.3,1881.4,1874.3,2074.6,2067.2,2064.4,2061.8,2057.7,2055.2,2052.7,2051.6,2046.9,2034.6,2019.1,1997.4,1971.6,1942.2,944.2,927.5,731,1798,1600,1413.3,0,0,1397.9,1411.9,3777.5,3781,3781.5,3796.1,3815.8,3817.1,3825.5,3822.4,3819.3,3826.1,3839.9,3846.9,3830.2,3815.8,3803.8,3803.8,3815.6,3806,3798.9,3796.9,3794.9,3797.3,3806.8,3811.4,3797.2,3776,2654.1,3764.5,3746.1,3723.6,3710.3,3694.9,3681.7,3668.7,3652.3,3640.3,3633.6,3627.2,3624.2,3605.8,3580.2,3562.8,3552.4,3546.1,3549.4,3550.1,3553.3,3551.9,3557.5,3565.4,3586,3600.3,3621.4,3632.1,3651.2,3670.5,3677.5,3697.3,3722.2,3744.6,3753.9,3756.2,3756.5,3761.5,3757.3,3759.8,3757.1,3750.8,3746.4,3743.8,3739.2,3732.2,3734.2,3717.9,3720.1,3717.6,3719.7,3715,3712.6,3712.6,3716.9,3719.2,3728.4,3741.8,3375.5,1905.5,1532.4,2293,1917.5,1912.7,2272,2262.5,2621.8
4006.9,4001.6,4001.6,3988.6,3988.6,3983.4,3965.5,3947.9,3922.2,3900.4,3885.5,3865.8,3844.2,3813,3789.5,3766.5,3745.8,3727.7,3712,3689.7,3672.2,3652.7,3637.4,3637.4,3648.4,3665.9,3700.7,3730.1,3766.5,3805.9,3851.4,3885.5,3920.1,3942.6,3955.5,3942.6,3940,3937.6,3937.8,3935.3,3927.6,3922.7,3923,3920.5,3905.6,3908.4,3901.2,3891.4,3891.8,3879.5,3879.5,3870,3863,3858.4,3848.5,3846.4,3841.7,3829.8,3822.2,3817.5,3810.4,3807.9,3798.4,3796,3789.5,3789.2,3795.9,3800.4,3802.8,3427.3,3434.3,3443.8,3451,3463,3477.1,3484.3,3486.5,3491.2,3505.8,3510.9,3513.9,3511.5,3516.6,3514.7,3515,3520.1,3525.2,3525.1,3534.8,3541.9,3556.7,3930.1,3942.2,3951.9,3959.4,3967.2,3977,3987.2,3989.8,3992.4,3987.8,3980.4,3980.8,3971.6,3960,3941.8,3926.9,3911.7,3541.2,3525.3,3864.2,3838.1,3817.1,3795.5,3781.9,3438,3755.5,3744,3744.2,3394.1,3391.9,3387.4,3390,3389.5,3390.9,3707,3692.8,3698,3394.4,3398.7,3411.4,2981.7,2667.5,3045.2,3342.7,3018.9,3003.8,2649.6,2647.7,2296.1,2289.1,2289.1,2282,2272.3,2265.2,2260.5,2256,2249.2,2840.8,2834.6,2834.5,3174.5,3188.5,2858.5,3221,3233.2,3248,3261,3268.4,3556.8,3546.8,3539.6,3540,3528.4,3510.8,3498.4,3482.7,3462.9,3453.2,3441.6,3138.8,3117.1,3378.5,3365.3,3093.2,3091.6,3097.2,3105.1,2818,2514.2,2831.6,2514.5,2516.9,2519.5,2515.5,2824.6,2828.4,2830.8,2830.3,2824.2,2825.9,2506.2,2506.2,2503.3,2832.1,2833.4,3201.4,3211.3,3219.3,3228.8,3241.4,3254.3,3260.2,3273.1,3608.5,3614.6,3624.8,3632.7,3649.7,3659.8,3674.3,3682.8,3697.5,3703.6,3716.5,3729.8,3749.9,3769.8,3790.4,3809.1,3830.3,3856.5,3892.9,3907.9,3930.2,3950.2,3960.4,3973.6,3986.4,3991.7,3989.3,3984.4,3974.5,3972.7,3965.3,3952.8,3950.3,3943,3938,3930.6,3928,3925,3917.4,3907.6,3907.9,3900.6,3897.8,3902.7,3897.9,3903.2,3905.8,3903.3,3901,3903.8,3896.4,3891.6,3887.1,3490.8,3494,3499,3503.6,3508.5,3518,3162.6,3172.1,3176.8,3186.7,3191.7,3191.5,3194,3191.4,3191.4,3183.7,3171,3153.2,3133.2,3099,3070.5,3042.3,3019.1,2992.3,3311.7,3290.1,3272.6,3257.2,3236.1,3219.1,3194.3,2819.1,2779,2743.9,2709.5,2687.2,2667,2650.9,2627.9,2614.1,2605.4,2603.8,2641.6,2636.4,2624.5,2664,2650.6,2648.9,2640.4,2628.9,2617.6,2603.1,2590.8,2581.4,2278.1,2566.8,2570.2,2284.4,2297.2,2309.8,2324.4,2293.5,2298.3,2625.8,2634.1,2590.2,2628.9,2617,2936.3,2923.2,2905,2890.5,2550.6,2578,2570.1,2556.2,2547.1,2537.9,2527.4,2520,2510.9,2204.2,2193.7,1884.1,1871.1,1849.8,1779.9,1706.5,1678.4,1652,1625.5,1591.4,1557.7,1267.8,1254.2,1231.3,1211.8,1272.2,1256.7,1242.4,1309.5,1377.9,1448.5,1664,1357.8,1575.9,1573.2,1568.8,1564.8,1771.3,1684.3,1596,1585.3,1571.6,1342,1535.8,1666.1,1874.4,1870.3,1866.1,2067.2,2065.3,2061.3,2060.2,2059,2059.4,2053.8,2044.7,2031.4,2012.6,1989.6,1561.7,186.6,0,0,357.5,1244,881.8,0,0,0,1430.3,2626.1,3813.9,3820.3,3840.6,3858.2,3867.2,3858.5,3857.7,3845.6,3859.6,3859.2,3858.9,3842,3839.5,3829.9,3832.3,3832.2,3832.2,3832.2,3827.5,3827.6,3825.3,3834.8,3832.4,3815.7,3794.6,3789.8,3773.5,3757.5,3739.4,3732.4,2977,3701.2,3326.2,2960,3672.6,3665.7,3654.8,3649.9,3628.9,3607.2,3588.1,3577.8,3572.6,3579.9,3580.5,3581.6,3584.5,3596.5,3606.7,3627.8,3648.9,3666.2,3681.6,3690.4,3708.1,3719.3,3733.1,3763,3775,3786.8,3784.3,3784.3,3778.3,3774,3771.4,3769.1,3767.3,3748.8,3755.3,3750.7,3745.9,3734.1,3729.1,3728.9,3733.3,3726.2,3725.8,3721.4,3716.9,3721.4,3730.6,3741.9,3380,1129.4,0,0,0,0,0,0,0,1122
