0,0,0,0,0,0,0,0,0,0,0,0,0,0,0,0,0,0,0,0,0,0,1360.5,1366.05,1368.14,1367.71,1367.52,1366.96,1367.28,1367.03,1367.05,1366.66,1365.65,1364.04,1362.51,1360.66,1358.39,1355.8,1353.53,1351.48,1349.69,1348.33,1346.94,1345.94,1344.95,1344.35,1344.03,1343.62,1343.46,1343.43,1343.77,1344.68,1345.28,1345.31,1346.46,1347.67,1348.87,1350.41,1352.24,1354.15,1356.04,1358.01,1360.36,1362.22,1364.45,1366.05,1366.82,1366.69,1366.79,1366.22,1365.97,1365.15,1364.49,1363.29,1361.97,1360.93,1360.51,1359.77,1359.17,1358.9,1358.98,1359.39,1360.54,1361.72,1363.48,1364.63,1365.96,1367.42,1369.57,1371.31,1372.48,1373.48,1374.07,1374.14,1374.17,1374.33,1373.94,1372.45,1370.77,1368.41,1366.03,1363.36,1361.09,1358.4,1354.97,1351.49,1347.78,1343.94,1340.37,1337.12,1334.29,1331.54,1329.7,1328.18,1326.85,1326.61,1326.91,1327.67,1328.45,1329.95,1331.98,1333.36,1335.01,1336.38,1337.96,1339.25,1340.88,1341.93,1342.78,1342.97,1343.46,1343.51,1344.25,1344.98,1345.65,1347.05,1348.1,1349.36,1350.67,1351.74,1352.55,1353.84,1354.62,1355.27,1355.73,1356.65,1357.25,1357.66,1358.58,1359.03,1359.21,1358.96,1358.57,1358.82,1358.74,1358.53,1358.11,1357.93,1357.97,1358.27,1358.09,1358.19,1357.79,1357.07,1356.91,1356.73,1356.9,1356.69,1356.48,1356.45,1356.57,1356.92,1356.81,1357.44,1357.73,1358.27,1358.92,1359.45,1360.2,1361.22,1362.72,1364.91,1367.28,1370.34,1373.19,1376.34,1379.32,1382.16,1384.51,1387.17,1388.97,1390.17,1390.5,1390.46,1389.71,1389.12,1388.26,1386.91,1385.09,1383.13,1381.75,1381.02,1379.53,1378.6,1377.32,1376.77,1376.43,1375.19,1373.6,1372.11,1369.38,1367.61,1365.19,1362.43,1359.65,1357.25,1355.89,1355.21,1354.17,1352.78,1351.5,1350.59,1350.22,1350.04,1349.63,1349.21,1348.73,1348.49,1348.65,1349.32,1349.26,1348.79,1348.76,1348.65,1348.46,1348.97,1349.98,1349.66,1349.42,1349.78,1350.48,1350.85,1351.05,1351.32,1351.18,1350.29,1350.46,1350.73,1350.63,1350.53,1350.69,1350.85,1351.5,1353.18,1354.54,1355.55,1356.72,1358.47,1360.92,1362.11,1363,1363.56,1363.08,1362.74,1363.21,1362.8,1361.4,1359.46,1357.97,1356.75,1355.41,1353.98,1352.43,1350.84,1350.09,1349.89,1349.63,1349.72,1349.65,1349.37,1348.73,1348.65,1348.32,1347.18,1345.81,1344.9,1343.85,1342.63,1341.9,1341.19,1340.24,1339.17,1338.85,1338.19,1337.68,1337.95,1339.29,1340.44,1341.47,1342.65,1344.17,1344.9,1346.23,1348.92,1350.71,1351.49,1352.14,1353.04,1353.76,1354.2,1354.93,1355.96,1355.53,1355.15,1354.79,1354.2,1353.88,1353.46,1353.1,1353.04,1352.63,1352.3,1352.1,1351.97,1351.9,1352.85,1353.45,1354.36,1355.44,1355.6,1355.64,1355.91,1357.06,1357.98,1359.79,1360.69,1361.59,1361.88,1362.65,1362.41,1361.82,1360.02,1358.65,1356.44,1353.65,1352.28,1350.81,1348.77,1347.08,1345.49,1345.14,1345.26,1347.41,1351.42,1351.8,1351.72,1351.17,1350.97,1349.19,1346.12,1342.12,1335.46,1326.11,1320.94,1316.49,1310.94,1306.12,1298.91,1287.7,1276.41,1266.23,1254.39,1238.44,1220.26,1201.98,1181.82,1163.84,0,1127.56,1112.92,1099.14,1086.02,1075.01,1066.26,1059.9,1054.72,1049.91,1045.31,1040.57,1034.98,1029.59,1024.76,1020.65,1017.31,1013.55,1010.19,1007.17,1004.93,0,0,0,0,0,0,0,0,0,0,0,0,0,0,0,0,0,0,0,0,0,0,0,0,0,0,0,0,0,0,0,0,0,0,0,0,0,0,0,0,0,0,0,0,0,0,0,0,0,0,0,0,0,0,0,0,0,0,0,0,0,0,0,0,0,0,0,0,0,0,0,0,0,0,0,0,0,0,0,0,0,0,0,0,0,0,0,0,0,0,0,0,0,0,0,0,0,0,0,0,0,0,0,0,0,0,0,0,0,0,0,0,0,0,0,0,0,0,0,0,0,0,0,0,0,0,0,0,0,0,0,0,0,0,0,0,0,0,0,0,0,0,0,0,0,0,0,0,0,0,0,0,0,0,0,0,0,0,0,0,0,0,0,0,0,0,0,0,0,0,0,0,0,0,0,0,0,0,0,0,0,0,0,0,0,0,0,0,0,0,0,0,0,0,0,0,0,0,0,0,0,0,0,0,0,0,0,0,0,0,0,0,0,0,0,0,0,0,0,0,0,0,0,0,0,0,0,0,0,0,0,0,0,0,0,0,0,0,0,0,0,0
0,0,0,0,0,0,0,0,0,0,0,0,0,0,0,0,0,0,0,0,0,0,1353,1356.49,1354.76,1353.65,1353.72,1353.74,1354.01,1354.46,1354.65,1354.5,1353.83,1352.8,1351.44,1350.23,1348.25,1345.99,1343.86,1342.07,1340.2,1338.28,1336.71,1335.27,1333.86,1332.87,1332.21,1331.37,1330.9,1330.99,1331.44,1331.78,1332.82,1333.12,1334.47,1335.85,1337.29,1338.7,1340.55,1342.58,1344.65,1346.54,1347.99,1349.97,1351.21,1352.65,1352.72,1352.62,1352.46,1351.78,1351.46,1350.88,1350.45,1349.56,1348.48,1348.09,1347.97,1347.94,1347.99,1348.17,1348.76,1349.56,1350.99,1352.54,1354,1355.51,1356.5,1357.95,1359.55,1360.72,1361.8,1362.4,1362.34,1361.94,1361.83,1361.8,1360.93,1359.26,1357.85,1355.47,1353.13,1350.8,1348.7,1346.06,1343.08,1340.02,1336.71,1332.89,1329.62,1326.62,1323.89,1321.46,1319.77,1318.29,1316.98,1316.57,1316.98,1317.34,1318.32,1319.53,1320.81,1321.56,1322.83,1324.05,1325.28,1326.5,1327.65,1328.66,1329.55,1329.82,1329.99,1330.08,1330.89,1331.64,1332.67,1333.9,1335.31,1336.78,1338.44,1339.69,1340.91,1342.27,1343.36,1344.23,1345.2,1346.17,1347.13,1347.99,1348.83,1349.12,1349.45,1349.14,1348.9,1349.11,1349.01,1348.77,1348.43,1348.44,1348.76,1348.88,1349.13,1349.37,1349.08,1348.97,1348.78,1348.76,1348.79,1348.49,1348.01,1347.93,1348.06,1348.01,1347.88,1348.17,1348,1347.89,1348.52,1349.37,1349.98,1351.02,1352.65,1354.47,1356.33,1358.95,1361.16,1363.75,1366.37,1368.61,1371.07,1373.4,1375.48,1376.23,1376.6,1376.83,1376.16,1375.68,1374.98,1373.26,1371.03,1368.91,1367.89,1367.39,1366.62,1365.56,1364.73,1364,1363.43,1362.32,1360.57,1358.68,1356.28,1354.59,1352.48,1350.11,1347.87,1345.58,1344.16,1343.84,1343.07,1342.1,1340.73,1339.95,1339.76,1339.92,1339.76,1339.44,1338.82,1339,1339.36,1339.5,1339.47,1339.53,1339.53,1339.75,1340.07,1340.79,1341.36,1341.15,1341.02,1341.7,1342.07,1342.43,1342.61,1342.77,1342.88,1342.08,1342.63,1343.24,1343.04,1343.23,1343.62,1343.76,1344.41,1346.01,1347.22,1347.73,1348.64,1349.65,1351.57,1351.87,1352.08,1352.04,1351.22,1350.41,1350.25,1349.76,1348.19,1346.22,1344.81,1343.8,1342.19,1341.01,1339.59,1338.31,1337.5,1337.37,1337,1336.99,1337.02,1336.84,1336.72,1336.21,1335.94,1335.22,1334.2,1333.81,1332.91,1332.25,1331.89,1331.06,1330.25,1329.05,1328.9,1328.24,1327.58,1327.89,1328.88,1329.87,1330.77,1332.14,1333.64,1334.36,1336,1338.68,1340.16,1340.47,1340.86,1341.46,1341.93,1341.95,1342.16,1342.8,1342.46,1341.69,1341.81,1341.74,1341.6,1341.49,1341.25,1341.2,1340.88,1340.78,1340.78,1340.48,1340.57,1341.25,1341.67,1342.6,1343.41,1343.6,1344.06,1344.7,1346.43,1347.69,1349.53,1350.51,1351.57,1352.24,1352.73,1353.03,1352.4,1350.44,1349.23,1347.2,1344.46,1342.64,1341.07,1338.99,1336.66,1334.8,1334.44,1334.59,1336.87,1341.31,1341.67,1341.93,1341.93,1341.9,1340.11,1337.14,1333.3,1327.07,1319.04,1314.33,1309.47,1305.19,1299.87,1295.69,1287.05,1278.86,1271.83,1263.1,1250.28,1235.19,1219.36,1201.81,1184.07,1163.86,0,1130.54,1115.04,1099.94,1085.06,1073.86,1064.66,1056.47,1048.83,1043.91,1038.24,1032.85,1027.25,1022.68,1018.81,1015.72,1012.28,1009.71,1007.23,1005.34,0,0,0,0,0,0,0,0,0,0,0,0,0,0,0,0,0,0,0,0,0,0,0,0,0,0,0,0,0,0,0,0,0,0,0,0,0,0,0,0,0,0,0,0,0,0,0,0,0,0,0,0,0,0,0,0,0,0,0,0,0,0,0,0,0,0,0,0,0,0,0,0,0,0,0,0,0,0,0,0,0,0,0,0,0,0,0,0,0,0,0,0,0,0,0,0,0,0,0,0,0,0,0,0,0,0,0,0,0,0,0,0,0,0,0,0,0,0,0,0,0,0,0,0,0,0,0,0,0,0,0,0,0,0,0,0,0,0,0,0,0,0,0,0,0,0,0,0,0,0,0,0,0,0,0,0,0,0,0,0,0,0,0,0,0,0,0,0,0,0,0,0,0,0,0,0,0,0,0,0,0,0,0,0,0,0,0,0,0,0,0,0,0,0,0,0,0,0,0,0,0,0,0,0,0,0,0,0,0,0,0,0,0,0,0,0,0,0,0,0,0,0,0,0,0,0,0,0,0,0,0,0,0,0,0,0,0,0,0,0,0,0
0,0,0,0,0,0,0,0,0,0,0,0,0,0,0,0,0,0,0,0,0,1336,1345.17,1343.41,1339.88,1339.49,1339.91,1340.06,1341.09,1341.52,1342.08,1342.35,1342.21,1341.7,1340.79,1340,1338.03,1336.11,1333.91,1331.9,1329.92,1327.96,1325.88,1324.04,1322.58,1321.6,1320.57,1319.96,1319.51,1319.53,1319.61,1320.58,1321.25,1321.61,1322.86,1324.32,1325.62,1326.87,1328.89,1330.61,1332.05,1333.79,1335.4,1336.97,1337.95,1338.88,1338.83,1338.23,1337.96,1337.3,1336.99,1336.11,1335.79,1335.22,1334.3,1334.09,1334.56,1335.16,1335.91,1336.7,1337.91,1339.18,1340.75,1342.76,1344.32,1345.81,1346.73,1347.75,1348.85,1349.38,1350.31,1351.15,1350.5,1349.88,1349.28,1348.79,1348.01,1346.62,1345.14,1342.99,1340.61,1338.57,1336.59,1334.11,1331.41,1328.53,1325.99,1322.75,1319.5,1316.82,1314.65,1312.3,1310.63,1309.07,1307.67,1306.52,1306.79,1307.08,1307.58,1308.31,1309.41,1309.92,1310.84,1312.1,1313.46,1314.56,1315.41,1316.15,1317.26,1317.41,1317.66,1318.23,1319.03,1319.93,1320.92,1322.11,1323.29,1324.85,1326.58,1327.89,1329.02,1330.42,1331.46,1333,1334.26,1335.59,1336.99,1337.71,1338.68,1339.37,1339.97,1339.87,1339.83,1339.95,1339.91,1339.64,1339.14,1339.17,1339.38,1339.74,1339.98,1340.13,1340,1339.8,1339.88,1339.94,1340.26,1340.06,1339.81,1339.63,1339.39,1339.39,1339.36,1338.9,1338.48,1338.35,1338.66,1339.41,1340.8,1342.03,1343.26,1344.97,1346.32,1348.39,1350.09,1351.96,1353.57,1355.31,1357.45,1359.66,1361.41,1362.42,1362.91,1362.98,1362.21,1361.75,1360.97,1359.04,1357.21,1355.49,1354.61,1354.33,1353.32,1352.97,1352.33,1351.66,1351.12,1349.81,1348.41,1346.53,1344.57,1342.89,1341.12,1338.67,1336.71,1334.69,1333.52,1332.95,1332.59,1331.9,1330.85,1330.23,1329.99,1329.84,1329.88,1329.66,1329.5,1329.65,1330.01,1330.1,1329.95,1330.1,1330.75,1331.14,1331.38,1331.44,1332.76,1332.1,1331.56,1332.1,1332.52,1332.4,1332.25,1332.25,1332.49,1332.43,1333.36,1334.23,1334.59,1335.37,1336.18,1336.57,1337.56,1338.87,1339.91,1340.37,1341.02,1341.59,1343.03,1342.79,1342.34,1341.63,1340.42,1339.08,1338.87,1337.47,1335.91,1333.99,1332.24,1331.11,1329.85,1328.7,1327.76,1326.58,1325.75,1325.59,1324.62,1324.54,1324.42,1324.24,1323.92,1323.54,1323.43,1322.97,1322.76,1322.96,1322.71,1322.13,1321.94,1321.61,1320.71,1319.83,1319.53,1318.77,1318.21,1318.25,1319.18,1319.6,1320.41,1321.81,1322.9,1323.95,1325.4,1327.5,1328.64,1328.41,1328.56,1328.62,1328.13,1328.11,1328.02,1328.17,1327.64,1327.47,1327.84,1327.6,1327.66,1327.7,1327.46,1327.18,1327.25,1326.98,1327.07,1326.8,1326.68,1327.08,1327.35,1328.14,1329.32,1329.64,1330.15,1331.41,1333.72,1335.52,1337.83,1339.24,1340.7,1341.62,1342.51,1342.61,1342.23,1339.55,1338.24,1336.36,1333.6,1331.95,1329.95,1327.8,1325.6,1323.54,1323.48,1323.7,1325.85,1329.88,1330.78,1331.2,1331.92,1332.37,1330.99,1327.94,1324.33,1319.19,1311.31,1307.01,1303.31,1298.76,1294.07,1290.47,1284.05,1278.03,1272.12,1265.8,1256.5,1245.22,1233.14,1218.22,1202.59,1184.84,1167.17,1145,1134.46,1117.21,1100.54,1085.48,1073.4,1061.93,1051.28,1042.77,1036.03,1029.96,1024.19,1019.34,1015.66,1012.15,1009.18,1006.88,1005.22,1003.24,1001.67,0,0,0,0,0,0,0,0,0,0,0,0,0,0,0,0,0,0,0,0,0,0,0,0,0,0,0,0,0,0,0,0,0,0,0,0,0,0,0,0,0,0,0,0,0,0,0,0,0,0,0,0,0,0,0,0,0,0,0,0,0,0,0,0,0,0,0,0,0,0,0,0,0,0,0,0,0,0,0,0,0,0,0,0,0,0,0,0,0,0,0,0,0,0,0,0,0,0,0,0,0,0,0,0,0,0,0,0,0,0,0,0,0,0,0,0,0,0,0,0,0,0,0,0,0,0,0,0,0,0,0,0,0,0,0,0,0,0,0,0,0,0,0,0,0,0,0,0,0,0,0,0,0,0,0,0,0,0,0,0,0,0,0,0,0,0,0,0,0,0,0,0,0,0,0,0,0,0,0,0,0,0,0,0,0,0,0,0,0,0,0,0,0,0,0,0,0,0,0,0,0,0,0,0,0,0,0,0,0,0,0,0,0,0,0,0,0,0,0,0,0,0,0,0,0,0,0,0,0,0,0,0,0,0,0,0,0,0,0,0,0
0,0,0,0,0,0,0,0,0,0,0,0,0,0,0,0,0,0,0,0,0,1342,1332.25,1326.38,1326.97,1327.33,1326.8,1327.63,1328.2,1329.1,1329.81,1330.08,1330.48,1330.4,1329.92,1329.09,1327.49,1325.74,1323.86,1321.89,1319.78,1317.87,1315.18,1313.21,1311.39,1310.09,1309.28,1308.56,1308.17,1308.14,1308.36,1309.46,1310.19,1310.6,1311.68,1312.83,1313.99,1315.36,1317.09,1318.39,1319.68,1320.88,1322.02,1323.27,1323.64,1324.2,1323.94,1322.86,1322.4,1321.91,1321.48,1320.7,1320.64,1320.23,1319.94,1320.39,1321.23,1322.5,1323.61,1324.99,1326.74,1328.23,1330.5,1332.35,1333.97,1335.44,1336.34,1337.19,1337.99,1338.17,1338.8,1338.79,1337.99,1336.91,1336.05,1334.88,1333.87,1332.5,1331.63,1329.4,1327.24,1325.41,1323.97,1322.14,1320.29,1317.98,1315.71,1312.85,1310.06,1307.97,1305.59,1303.62,1301.81,1300.2,1298.68,1297.42,1297.17,1297.2,1297.11,1297.5,1298.2,1298.51,1299.51,1300.86,1302.12,1302.83,1303.61,1304.45,1305.21,1305.99,1306.32,1307.26,1308,1309.09,1310.08,1310.98,1312.24,1313.88,1315.22,1316.88,1318,1319.15,1319.91,1321.16,1322.68,1324.34,1325.79,1326.87,1327.5,1328.27,1329.26,1329.57,1329.48,1329.16,1328.75,1328.33,1328.12,1328.1,1328.14,1328.38,1328.67,1328.99,1329.28,1329.64,1330.23,1330.86,1331.48,1331.57,1331.78,1331.36,1331.35,1330.78,1330.42,1329.97,1328.86,1328.55,1328.73,1328.94,1330.21,1331.64,1332.86,1334.1,1335.07,1336.67,1338.3,1339.9,1341.32,1342.4,1344.03,1345.94,1347.21,1348.43,1348.67,1348.28,1347.96,1347.24,1346.54,1345.1,1343.57,1342.22,1341.48,1341.03,1340.51,1340.28,1339.98,1339.38,1339.03,1337.19,1335.91,1334.45,1332.65,1331.44,1329.93,1328.01,1326.27,1324.33,1323.78,1323.25,1322.77,1322.11,1321.32,1320.83,1320.57,1320.26,1320.78,1321.07,1321.04,1321.52,1321.75,1321.89,1321.96,1322.34,1322.84,1323.02,1323.62,1323.79,1324.09,1323.29,1322.62,1322.89,1323.62,1323.25,1322.79,1322.43,1322.61,1322.91,1324.13,1325.12,1325.75,1325.9,1326.91,1327.57,1328.7,1329.96,1331.1,1331.67,1332.53,1332.7,1333.29,1332.9,1332.63,1331.88,1330.29,1328.92,1328.17,1327.14,1325.46,1323.96,1322.4,1320.95,1319.51,1318.62,1317.87,1316.8,1316.14,1315.59,1314.23,1313.99,1313.8,1313.88,1313.47,1313.1,1313.19,1313.3,1313.33,1313.65,1313.54,1313.01,1312.89,1312.32,1311.5,1310.34,1309.96,1309.22,1308.52,1308.42,1308.84,1309.21,1309.81,1311.21,1312.18,1313.1,1314.85,1316.59,1317.28,1316.92,1316.75,1316.61,1316.14,1315.7,1315.15,1314.52,1314,1313.87,1314.17,1313.82,1313.74,1313.91,1313.7,1313.77,1313.84,1313.72,1313.86,1313.73,1313.25,1313.61,1313.71,1314.17,1314.9,1315.23,1315.81,1317.09,1320.26,1322.35,1323.81,1325.25,1327.07,1328.26,1329.31,1329.64,1329.13,1326.42,1324.75,1323.66,1321.4,1319.88,1318.37,1316.54,1314.4,1312.77,1313.13,1313.5,1315.89,1319.56,1320.39,1320.9,1321.86,1322.53,1321.26,1318.97,1315.63,1310.38,1303.81,1299.5,1295.54,1291.79,1287.32,1284.37,1279.84,1274.39,1269.87,1264.38,1257.56,1249.7,1241.09,1230.2,1217.69,1202.02,1186.59,1170.6,1151.3,1136.21,1120,1101.2,1085.54,1070.77,1056.82,1045.89,1036.42,1028.67,1021.36,1015.98,1012.17,1008.63,1005.14,1003.06,1002.13,1005,0,0,0,0,0,0,0,0,0,0,0,0,0,0,0,0,0,0,0,0,0,0,0,0,0,0,0,0,0,0,0,0,0,0,0,0,0,0,0,0,0,0,0,0,0,0,0,0,0,0,0,0,0,0,0,0,0,0,0,0,0,0,0,0,0,0,0,0,0,0,0,0,0,0,0,0,0,0,0,0,0,0,0,0,0,0,0,0,0,0,0,0,0,0,0,0,0,0,0,0,0,0,0,0,0,0,0,0,0,0,0,0,0,0,0,0,0,0,0,0,0,0,0,0,0,0,0,0,0,0,0,0,0,0,0,0,0,0,0,0,0,0,0,0,0,0,0,0,0,0,0,0,0,0,0,0,0,0,0,0,0,0,0,0,0,0,0,0,0,0,0,0,0,0,0,0,0,0,0,0,0,0,0,0,0,0,0,0,0,0,0,0,0,0,0,0,0,0,0,0,0,0,0,0,0,0,0,0,0,0,0,0,0,0,0,0,0,0,0,0,0,0,0,0,0,0,0,0,0,0,0,0,0,0,0,0,0,0,0,0,0,0
0,0,0,0,0,0,0,0,0,0,0,0,0,0,0,0,0,0,0,0,0,0,1319.8,1317.4,1317.35,1317.25,1316.34,1316.5,1317.17,1317.71,1318.29,1318.89,1319.14,1319.35,1319.14,1318.37,1316.96,1315.02,1313.3,1311.15,1309.14,1306.78,1304.16,1301.73,1300.23,1298.94,1297.92,1296.95,1296.67,1296.81,1297.13,1298.08,1298.52,1298.98,1299.75,1300.88,1302.12,1303.28,1304.67,1305.89,1306.73,1307.64,1308.52,1309.04,1309.46,1309.27,1308.67,1307.86,1307.39,1306.97,1306.77,1306.24,1306.33,1306.18,1306.38,1307.44,1308.87,1310.73,1312.42,1314.13,1316.37,1318.01,1320.24,1322.45,1323.88,1324.89,1325.37,1325.81,1326.14,1325.94,1326.26,1325.77,1324.56,1322.99,1321.81,1320.64,1319.45,1318.07,1317.08,1315.65,1314.11,1312.9,1311.83,1310.56,1309.16,1307.57,1305.64,1303.43,1301.09,1299.06,1297.22,1295.25,1293.52,1291.78,1290.29,1288.83,1288.45,1288.01,1287.86,1287.81,1288.23,1288.6,1289.26,1290.48,1291.19,1292.07,1292.9,1293.71,1294.59,1295.25,1295.48,1296.58,1297.4,1298.57,1299.22,1300.16,1301.53,1302.86,1304.23,1305.52,1306.64,1307.61,1308.5,1309.81,1311.56,1313.53,1315.03,1316.03,1317.22,1318.21,1318.94,1319.41,1319.5,1318.99,1318.13,1317.48,1317.18,1316.92,1316.96,1317.04,1317.44,1318.22,1318.96,1320.15,1321.1,1322.27,1323.2,1323.55,1323.88,1323.53,1323.53,1322.84,1321.84,1320.89,1319.66,1318.79,1318.36,1318.26,1319.37,1320.12,1321.13,1321.77,1322.57,1323.83,1324.91,1326.28,1327.45,1328.69,1329.97,1331.33,1332.5,1333.63,1333.79,1333.39,1332.54,1332.09,1331.67,1330.16,1329.23,1328.18,1327.66,1327.43,1327.26,1327.59,1327.28,1326.75,1326.22,1324.61,1323.9,1322.87,1321.91,1320.8,1319.31,1317.71,1316.53,1315.35,1314.78,1313.97,1313.35,1312.72,1312.17,1311.75,1311.71,1311.83,1312.61,1313.37,1313.52,1314.15,1314.84,1314.78,1315.06,1315.42,1316.11,1316.67,1315.99,1316.27,1316.29,1315.13,1314.45,1314.47,1314.28,1313.47,1312.76,1312.33,1312.32,1312.79,1314.05,1315.01,1315.6,1316.42,1317.51,1318.59,1319.82,1321.11,1322.43,1323.12,1324.17,1324.83,1325.34,1325.24,1325.17,1324.43,1322.93,1321.31,1320.53,1319.35,1317.61,1316.29,1314.36,1312.63,1311.41,1310.8,1309.91,1308.88,1307.66,1306.93,1305.04,1305,1304.64,1304.63,1304.3,1303.92,1304.3,1304.3,1304.53,1305.2,1305.06,1304.54,1304.27,1303.67,1302.74,1301.61,1301.04,1299.93,1299.62,1299.34,1299.48,1299.87,1300.56,1301.93,1302.67,1303.34,1305.02,1306.27,1306.74,1306.36,1306.25,1305.86,1304.86,1304.2,1303.6,1302.49,1301.68,1301.28,1301.69,1301.42,1301.39,1301.15,1301.08,1301.11,1301.57,1301.51,1301.6,1301.44,1300.96,1301,1300.72,1301.31,1301.52,1301.65,1302.35,1303.28,1306.17,1308.21,1309.42,1310.44,1311.94,1313.22,1314.63,1315.19,1315.02,1312.79,1311.4,1310.78,1308.8,1307.41,1306.15,1304.51,1302.72,1301.52,1301.84,1302.62,1304.91,1308.4,1309.42,1310.56,1312.05,1312.82,1311.82,1309.23,1306.14,1301.82,1295.82,1292.47,1288.55,1284.88,1281.04,1278.1,1274.38,1270.06,1265.6,1260.59,1254.66,1248.5,1243.06,1235.97,1227.18,1215.36,1203.64,1190.43,1175.3,1157.74,0,1121.65,1102.38,1085.43,1069.48,1054.57,1042.16,1031.54,1022.16,1014.63,1009.51,1005.3,1001.73,1000.76,1000.44,1000.25,0,0,0,0,0,0,0,0,0,0,0,0,0,0,0,0,0,0,0,0,0,0,0,0,0,0,0,0,0,0,0,0,0,0,0,0,0,0,0,0,0,0,0,0,0,0,0,0,0,0,0,0,0,0,0,0,0,0,0,0,0,0,0,0,0,0,0,0,0,0,0,0,0,0,0,0,0,0,0,0,0,0,0,0,0,0,0,0,0,0,0,0,0,0,0,0,0,0,0,0,0,0,0,0,0,0,0,0,0,0,0,0,0,0,0,0,0,0,0,0,0,0,0,0,0,0,0,0,0,0,0,0,0,0,0,0,0,0,0,0,0,0,0,0,0,0,0,0,0,0,0,0,0,0,0,0,0,0,0,0,0,0,0,0,0,0,0,0,0,0,0,0,0,0,0,0,0,0,0,0,0,0,0,0,0,0,0,0,0,0,0,0,0,0,0,0,0,0,0,0,0,0,0,0,0,0,0,0,0,0,0,0,0,0,0,0,0,0,0,0,0,0,0,0,0,0,0,0,0,0,0,0,0,0,0,0,0,0,0,0,0,0
0,0,0,0,0,0,0,0,0,0,0,0,0,0,0,0,0,0,0,0,0,1310,1311.7,1309.67,1309.49,1308.91,1307.11,1306.75,1307.24,1307.47,1307.73,1308.11,1308.36,1308.58,1307.91,1307.2,1305.53,1303.94,1301.57,1299.84,1297.89,1294.98,1292.67,1290.3,1288.72,1287.16,1286.58,1285.56,1285.27,1285.48,1285.67,1286.45,1286.7,1287.34,1288.11,1289.06,1290.24,1291.16,1292.42,1293.11,1293.72,1294.34,1294.8,1294.96,1294.81,1294.51,1294.02,1293.1,1292.53,1292.2,1292.12,1292.03,1292.29,1292.71,1293.57,1294.77,1296.7,1298.81,1300.8,1303.12,1305.17,1307.68,1309.92,1311.8,1313.28,1314.07,1314.15,1314.47,1314.44,1313.75,1313.39,1312.37,1310.74,1308.66,1307.31,1305.54,1304.26,1303.22,1302.28,1301.09,1300.15,1299.66,1298.97,1298.38,1297.76,1296.35,1295.03,1293.26,1291.55,1289.9,1288.41,1286.63,1285.14,1283.53,1282.1,1280.75,1280.1,1279.71,1279.44,1279.05,1279.11,1279.29,1280.27,1281.05,1282.06,1282.73,1283.64,1284.39,1285.16,1285.77,1286.18,1286.91,1287.74,1288.72,1289.45,1290.08,1291.07,1292.1,1293.31,1294.3,1295.24,1295.94,1296.89,1298.3,1300.04,1302.26,1303.72,1304.98,1305.78,1307.31,1308.44,1309.02,1308.67,1307.93,1306.73,1305.82,1305.7,1305.69,1305.96,1305.86,1306.27,1306.98,1307.95,1308.73,1310.07,1311.14,1312.54,1312.68,1312.71,1312.68,1312.88,1312.32,1311.17,1310.09,1308.6,1307.05,1306.2,1305.61,1306.07,1306.34,1306.89,1307.27,1307.85,1309.11,1310.08,1311.47,1312.56,1313.55,1314.51,1315.85,1316.63,1317.25,1317.53,1316.4,1316.57,1315.92,1315.73,1314.87,1313.94,1313.58,1313.44,1313.55,1313.6,1313.95,1314.28,1313.76,1313.02,1312.05,1311.86,1310.83,1310.06,1309.29,1308.31,1307.58,1306.74,1305.92,1305.57,1304.91,1304.61,1304.37,1304.24,1304.35,1304.51,1305.12,1305.47,1305.89,1306.69,1307.75,1308.18,1308.06,1308.26,1308.7,1309.2,1309.41,1309.5,1308.67,1308.38,1307.2,1306.25,1305.89,1305.1,1303.68,1302.92,1301.91,1301.96,1302.22,1303.4,1304.07,1304.69,1305.54,1306.89,1308.07,1308.94,1310.44,1311.45,1312.59,1313.97,1314.91,1315.57,1315.54,1315.8,1315.51,1314.52,1313.26,1312.56,1311.28,1309.99,1308.99,1307.31,1305.43,1304.21,1303.68,1302.97,1301.58,1300.25,1298.57,1296.96,1296.2,1296.19,1295.94,1295.31,1295.09,1295.66,1295.92,1296.37,1297.14,1296.69,1296.31,1295.87,1295.25,1294.32,1293.2,1292.52,1291.59,1290.84,1290.55,1290.47,1290.98,1291.65,1292.51,1293.46,1294.02,1295.25,1296.26,1296.37,1296.15,1296.14,1295.66,1294.65,1294.03,1293.14,1292.08,1291.44,1290.87,1290.84,1290.73,1290.33,1290.4,1290.34,1290.44,1290.6,1290.01,1290.11,1289.82,1289.42,1289.13,1289.08,1289.11,1289.18,1288.79,1289.37,1289.97,1292.47,1293.67,1294.6,1295.77,1296.76,1298,1299.19,1299.99,1299.91,1298.17,1297.37,1297.1,1295.22,1294.22,1293.21,1292.02,1290.8,1289.66,1290.57,1291.27,1293.42,1296.56,1297.58,1299.07,1300.8,1301.45,1300.84,1298.8,1296.2,1292.54,1287.7,1284.82,1281.26,1278.1,1274.43,1271.24,1268.51,1265.19,1260.8,1257.03,1252.1,1246.71,1242.68,1238.81,1233.26,1224.93,1216.5,1206.06,1193.37,1177.87,1158,1143,1123.1,0,1082.73,1065.43,1050.14,1035.92,1023.89,1013.75,1006.33,1002.08,1000.6,1000,0,0,0,0,0,0,0,0,0,0,0,0,0,0,0,0,0,0,0,0,0,0,0,0,0,0,0,0,0,0,0,0,0,0,0,0,0,0,0,0,0,0,0,0,0,0,0,0,0,0,0,0,0,0,0,0,0,0,0,0,0,0,0,0,0,0,0,0,0,0,0,0,0,0,0,0,0,0,0,0,0,0,0,0,0,0,0,0,0,0,0,0,0,0,0,0,0,0,0,0,0,0,0,0,0,0,0,0,0,0,0,0,0,0,0,0,0,0,0,0,0,0,0,0,0,0,0,0,0,0,0,0,0,0,0,0,0,0,0,0,0,0,0,0,0,0,0,0,0,0,0,0,0,0,0,0,0,0,0,0,0,0,0,0,0,0,0,0,0,0,0,0,0,0,0,0,0,0,0,0,0,0,0,0,0,0,0,0,0,0,0,0,0,0,0,0,0,0,0,0,0,0,0,0,0,0,0,0,0,0,0,0,0,0,0,0,0,0,0,0,0,0,0,0,0,0,0,0,0,0,0,0,0,0,0,0,0,0,0,0,0,0,0,0
0,0,0,0,0,0,0,0,0,0,0,0,0,0,0,0,0,0,0,0,1311,1307.06,1305.88,1304.45,1303.29,1301.78,1299.39,1298.65,1298.65,1298.69,1298.69,1298.76,1298.75,1298.8,1298.31,1297.5,1295.73,1293.79,1291.96,1290.07,1287.69,1285.09,1282.59,1280.38,1278.63,1277.37,1276.42,1275.66,1275.25,1275.4,1275.79,1276.29,1276.95,1277.43,1277.92,1278.54,1279.57,1280.3,1281.27,1282.01,1282.12,1282.1,1282.15,1281.82,1281.4,1281.08,1280.13,1279.48,1279.25,1278.81,1278.95,1279.36,1279.85,1280.83,1281.91,1283.23,1285.54,1288.01,1290.37,1292.61,1294.7,1296.93,1299.06,1300.65,1301.99,1302.49,1302.56,1302.39,1301.87,1300.62,1300.01,1298.63,1296.54,1294.3,1292.71,1290.86,1289.53,1288.47,1288.21,1287.47,1286.87,1286.89,1286.7,1286.53,1286.24,1285.33,1284.71,1283.25,1281.69,1280.62,1279.45,1278.15,1277.02,1275.45,1274.16,1272.97,1272.2,1271.51,1270.8,1270.43,1270.45,1270.68,1271.13,1271.97,1272.93,1273.7,1274.7,1275.39,1276.29,1276.82,1277.06,1277.88,1278.45,1279.01,1279.39,1279.93,1280.66,1281.56,1282.37,1283.3,1283.92,1284.57,1285.57,1286.67,1288.51,1290.36,1292.2,1293.57,1294.59,1296.22,1297.3,1297.66,1297.39,1296.73,1295.73,1294.49,1294.35,1294.6,1294.52,1294.31,1294.71,1295.34,1296,1297.01,1297.79,1299.06,1300.05,1300.5,1300.55,1300.64,1301.24,1300.42,1299.31,1298.25,1296.5,1294.69,1293.35,1292.3,1292.3,1292.1,1292.08,1292.32,1292.54,1293.54,1294.6,1295.42,1296.67,1297.48,1298.45,1298.95,1299.73,1300.04,1300.12,1300.23,1299.52,1299.42,1299,1298.62,1299.09,1299.3,1299.86,1300.41,1301.19,1301.86,1301.93,1301.98,1302.58,1302.01,1302.02,1301.83,1300.89,1299.75,1299.19,1298.54,1297.94,1297.07,1296.37,1295.38,1294.75,1294.88,1295.51,1295.74,1296.32,1296.86,1298.04,1298.6,1299.82,1300.93,1301.59,1301.36,1301.38,1301.62,1302.05,1302.23,1302.32,1301.83,1300.85,1299.53,1298.62,1297.29,1296.14,1294.46,1293.18,1292.26,1291.72,1291.94,1292.83,1293.44,1293.99,1294.77,1295.88,1296.9,1297.87,1299.02,1300.37,1301.56,1303.12,1304.11,1304.79,1305.32,1305.72,1305.85,1305.38,1304.43,1303.67,1303.12,1302.35,1301.28,1299.79,1297.79,1296.4,1295.73,1294.47,1292.83,1291.31,1289.31,1287.42,1286.91,1286.81,1286.65,1286.23,1286.28,1287.04,1287.54,1288.22,1288.68,1288.52,1287.98,1287.23,1286.68,1285.67,1284.59,1283.79,1282.76,1282.16,1281.76,1281.79,1281.85,1282.48,1283.29,1283.84,1284.32,1285.28,1285.9,1286.06,1286.14,1286.17,1285.75,1284.9,1284.2,1283.28,1282.31,1282.31,1281.87,1281.65,1281.29,1281.1,1280.94,1280.63,1280.71,1280.64,1279.56,1279.48,1279.21,1278.82,1278.09,1277.88,1277.6,1277.37,1276.97,1277.41,1277.88,1280.34,1281.42,1281.87,1282.67,1283.58,1284.92,1285.87,1286.39,1286.51,1284.26,1283.75,1283.37,1282.45,1281.8,1281.07,1280.02,1278.97,1278.4,1279.19,1280.11,1281.74,1284.63,1285.73,1287.35,1289,1290.17,1289.71,1288.34,1286.35,1283.28,1279.57,1276.87,1273.96,1271.34,1268.29,1265.64,1263.49,1260.58,1257.08,1253.7,1249.63,1245.25,1241.63,1238.99,1235.83,1230.17,1224.77,1217.02,1207.09,1193.58,1177.27,1159.51,1143.95,1123.25,1101.73,1075.24,1055.66,1038.03,1023,1009.94,1002.59,1000.33,0,0,0,0,0,0,0,0,0,0,0,0,0,0,0,0,0,0,0,0,0,0,0,0,0,0,0,0,0,0,0,0,0,0,0,0,0,0,0,0,0,0,0,0,0,0,0,0,0,0,0,0,0,0,0,0,0,0,0,0,0,0,0,0,0,0,0,0,0,0,0,0,0,0,0,0,0,0,0,0,0,0,0,0,0,0,0,0,0,0,0,0,0,0,0,0,0,0,0,0,0,0,0,0,0,0,0,0,0,0,0,0,0,0,0,0,0,0,0,0,0,0,0,0,0,0,0,0,0,0,0,0,0,0,0,0,0,0,0,0,0,0,0,0,0,0,0,0,0,0,0,0,0,0,0,0,0,0,0,0,0,0,0,0,0,0,0,0,0,0,0,0,0,0,0,0,0,0,0,0,0,0,0,0,0,0,0,0,0,0,0,0,0,0,0,0,0,0,0,0,0,0,0,0,0,0,0,0,0,0,0,0,0,0,0,0,0,0,0,0,0,0,0,0,0,0,0,0,0,0,0,0,0,0,0,0,0,0,0,0,0,0,0,0,0,0
0,0,0,0,0,0,0,0,0,0,0,0,0,0,0,0,0,0,0,1324,1311.1,1305.08,1301.19,1299.66,1298.11,1295.79,1292.83,1291.72,1291.25,1291.08,1291,1291.09,1290.94,1290.8,1290.55,1289.88,1288.04,1286.24,1284.52,1282.29,1280.25,1277.76,1275.42,1273.55,1271.85,1270.69,1269.84,1268.93,1268.38,1268.22,1268.1,1268.56,1268.9,1269.17,1269.32,1269.78,1270.16,1270.77,1271.26,1271.69,1271.44,1271.16,1270.82,1270.65,1269.98,1269.61,1268.89,1268.19,1267.83,1267.9,1268.04,1268.79,1269.62,1270.7,1272,1273.4,1275.87,1278.26,1280.55,1282.68,1284.69,1286.54,1288.71,1289.83,1290.98,1291,1290.81,1290.57,1289.83,1288.55,1287.43,1285.97,1284.04,1281.73,1279.7,1278.11,1276.74,1275.83,1275.55,1275.14,1274.76,1275.17,1275.36,1275.49,1275.57,1275.35,1274.73,1273.89,1273.05,1272.19,1271.66,1270.42,1269.07,1267.94,1266.81,1265.71,1264.9,1263.95,1263.1,1262.49,1262.43,1262.59,1263.05,1263.85,1264.71,1265.48,1266.5,1267.23,1267.95,1268.52,1268.59,1269.21,1269.49,1269.9,1270.07,1270.35,1270.8,1271.26,1271.77,1272.6,1273.06,1273.71,1274.44,1275.76,1277.38,1279.42,1281.59,1283.01,1284.27,1285.75,1286.54,1286.93,1286.84,1285.99,1284.7,1283.92,1283.33,1283.15,1283.17,1283.36,1283.56,1284.08,1284.84,1285.47,1286.36,1287.15,1288.18,1288.78,1288.94,1288.97,1289.41,1288.59,1287.5,1285.95,1284.22,1282.38,1280.51,1279.4,1278.75,1278.31,1278.29,1278.24,1278.49,1279.39,1280.01,1281.01,1281.77,1282.38,1282.73,1283.16,1283.19,1283.41,1283.33,1282.87,1282.7,1282.75,1282.89,1282.74,1283.78,1284.58,1285.55,1286.39,1287.66,1289.11,1290,1290.07,1290.98,1291.13,1291.78,1291.67,1291.34,1290.58,1289.94,1289.04,1288.63,1288.09,1287.47,1286.39,1285.75,1286.27,1287.2,1287.69,1288.4,1289.25,1290.4,1291.26,1292.67,1294.11,1294.9,1294.74,1294.61,1294.72,1295.01,1295.32,1295.19,1294.07,1292.64,1291.29,1290.05,1288.59,1287.12,1285.07,1283.03,1281.9,1281.25,1281.16,1281.82,1282.38,1283.15,1283.94,1284.94,1285.73,1287.03,1288.04,1289.07,1290.3,1291.85,1292.8,1293.28,1293.86,1294.55,1294.71,1293.98,1293.38,1292.74,1292.3,1291.45,1291.49,1290.04,1288.44,1286.86,1286.1,1284.91,1283.15,1281.36,1279.91,1278.12,1277.47,1277.35,1277.41,1277.26,1277.58,1278.61,1278.94,1279.66,1280.11,1279.87,1279.27,1278.43,1277.93,1276.99,1275.54,1274.41,1273.45,1272.49,1271.77,1271.28,1271.5,1271.75,1272.41,1272.84,1273.42,1274.47,1275.13,1275.54,1275.96,1275.88,1275.46,1274.77,1274.26,1273.74,1272.67,1272.7,1272.53,1272.23,1271.73,1271.25,1270.81,1270.51,1270.24,1269.61,1268.48,1268.46,1268.26,1267.85,1266.91,1266.72,1266.69,1266.1,1265.96,1266.09,1266.24,1268.04,1268.56,1269.13,1269.7,1270.36,1271.44,1272.44,1272.7,1273.04,1271.58,1271.43,1271.3,1270.87,1270.26,1269.8,1268.82,1268.45,1268.02,1268.59,1269.39,1270.89,1272.78,1273.87,1275.46,1277.24,1278.29,1278.26,1277.35,1276.06,1273.67,1270.88,1268.99,1266.99,1264.72,1262.39,1260,1258.25,1256.11,1253.31,1250.66,1247.43,1244.02,1240.93,1238.49,1235.06,1230.87,1228.09,1222.45,1215.42,1204.7,1191.15,1175.95,1158.29,1135.23,1111.13,1086.33,1066.43,1039.58,1021.24,1005.75,1000.38,0,0,0,0,0,0,0,0,0,0,0,0,0,0,0,0,0,0,0,0,0,0,0,0,0,0,0,0,0,0,0,0,0,0,0,0,0,0,0,0,0,0,0,0,0,0,0,0,0,0,0,0,0,0,0,0,0,0,0,0,0,0,0,0,0,0,0,0,0,0,0,0,0,0,0,0,0,0,0,0,0,0,0,0,0,0,0,0,0,0,0,0,0,0,0,0,0,0,0,0,0,0,0,0,0,0,0,0,0,0,0,0,0,0,0,0,0,0,0,0,0,0,0,0,0,0,0,0,0,0,0,0,0,0,0,0,0,0,0,0,0,0,0,0,0,0,0,0,0,0,0,0,0,0,0,0,0,0,0,0,0,0,0,0,0,0,0,0,0,0,0,0,0,0,0,0,0,0,0,0,0,0,0,0,0,0,0,0,0,0,0,0,0,0,0,0,0,0,0,0,0,0,0,0,0,0,0,0,0,0,0,0,0,0,0,0,0,0,0,0,0,0,0,0,0,0,0,0,0,0,0,0,0,0,0,0,0,0,0,0,0,0,0,0,0,0,0
0,0,0,0,0,0,0,0,0,0,0,0,0,0,0,0,0,0,0,0,1307.29,1301.1,1296.67,1294.96,1293.1,1290.29,1287.26,1285.21,1284.58,1284.13,1284,1283.98,1283.93,1283.56,1283.15,1282.12,1280.45,1278.57,1276.61,1274.61,1272.66,1270.03,1267.98,1266.22,1264.94,1263.69,1262.64,1261.77,1260.95,1260.74,1260.63,1260.59,1260.74,1260.71,1260.66,1260.56,1260.89,1261.19,1261.43,1261.57,1261.28,1260.6,1260.28,1259.82,1259.09,1258.67,1258.18,1257.65,1257.39,1257.41,1257.93,1258.75,1259.69,1261.02,1262.36,1263.94,1266.29,1268.74,1270.76,1273.04,1274.96,1276.61,1278.39,1279.67,1280.75,1280.56,1280.17,1279.57,1278.34,1277.17,1276.18,1274.78,1272.78,1270.67,1268.94,1267.62,1266.73,1266.04,1266.05,1265.7,1265.51,1265.89,1266.15,1266.7,1266.92,1266.79,1266.63,1266.08,1265.57,1265.13,1264.53,1263.36,1262.18,1260.87,1259.9,1258.36,1257.62,1256.54,1255.72,1255.15,1255.28,1255.47,1256.03,1256.67,1257.57,1258.56,1259.42,1260.27,1260.71,1261.07,1261.12,1261.98,1261.78,1262,1261.59,1261.54,1261.77,1261.86,1262.14,1262.94,1263.08,1263.03,1263.66,1265.02,1266.71,1268.88,1270.84,1272.62,1273.74,1275.55,1276.26,1276.64,1276.55,1275.62,1274.43,1273.34,1272.67,1272.42,1272.23,1272.44,1272.72,1273.28,1273.76,1274.74,1275.38,1276.29,1277.17,1277.73,1277.98,1278.34,1278.36,1277.63,1275.83,1274.22,1272.17,1270.1,1268.36,1266.91,1265.91,1265.09,1264.96,1265.15,1265.47,1266.13,1267.05,1267.61,1268.44,1268.68,1268.45,1268.2,1267.7,1267.52,1267.25,1267.08,1266.99,1267.25,1267.9,1268.55,1270.04,1271.43,1272.94,1274.37,1276.32,1277.97,1279.18,1279.8,1280.79,1281.55,1281.99,1282.02,1281.77,1280.8,1280.08,1279.23,1278.43,1277.95,1277,1276.05,1275.45,1276.03,1277.14,1277.93,1278.77,1279.37,1280.5,1281.32,1282.96,1284.1,1284.37,1283.93,1283.57,1283.35,1283.99,1284.2,1283.67,1282.87,1282.06,1280.38,1279.07,1277.78,1276.07,1274.26,1272.41,1271.15,1270.72,1270.47,1271.38,1271.58,1272.32,1272.89,1273.79,1274.65,1275.75,1276.79,1277.94,1279.27,1280.5,1281.71,1282.29,1282.94,1283.93,1284.35,1283.89,1283.39,1283.13,1282.85,1282.12,1281.66,1280.57,1279.03,1277.5,1276.67,1275.4,1273.55,1272.12,1270.45,1268.89,1268.56,1268.34,1268.46,1268.14,1268.4,1269.2,1269.82,1270.51,1270.96,1270.87,1270.27,1269.59,1269.25,1268.42,1267.23,1265.99,1265.01,1263.69,1262.35,1261.12,1260.87,1261.05,1261.9,1262.11,1262.39,1263.55,1265.05,1265.66,1266.29,1266.63,1266.28,1265.82,1265.7,1265.43,1264.72,1263.91,1263.66,1263.03,1262.38,1261.48,1260.67,1260.02,1259.27,1258.45,1257.45,1257.33,1256.74,1256.5,1256.05,1255.62,1255.3,1255.18,1255.17,1255.23,1254.94,1256.35,1256.47,1256.69,1257.05,1257.75,1258.53,1259.56,1260.09,1260.51,1259.16,1259.51,1259.86,1259.61,1259.2,1258.93,1258.42,1258.21,1257.9,1258.25,1258.9,1260.1,1261.65,1262.64,1264.15,1265.88,1266.87,1267.08,1266.86,1265.92,1264.62,1263.06,1261.75,1259.78,1258.23,1256.54,1255.18,1253.92,1252.19,1249.74,1247.37,1244.7,1242.26,1239.58,1237.37,1234.43,1230.58,1227.58,1223.18,1218.06,1210,1199.02,1186.55,1171.37,1149.62,1124.28,1095.15,1069.02,1041.91,1021.34,1003.86,0,0,0,0,0,0,0,0,0,0,0,0,0,0,0,0,0,0,0,0,0,0,0,0,0,0,0,0,0,0,0,0,0,0,0,0,0,0,0,0,0,0,0,0,0,0,0,0,0,0,0,0,0,0,0,0,0,0,0,0,0,0,0,0,0,0,0,0,0,0,0,0,0,0,0,0,0,0,0,0,0,0,0,0,0,0,0,0,0,0,0,0,0,0,0,0,0,0,0,0,0,0,0,0,0,0,0,0,0,0,0,0,0,0,0,0,0,0,0,0,0,0,0,0,0,0,0,0,0,0,0,0,0,0,0,0,0,0,0,0,0,0,0,0,0,0,0,0,0,0,0,0,0,0,0,0,0,0,0,0,0,0,0,0,0,0,0,0,0,0,0,0,0,0,0,0,0,0,0,0,0,0,0,0,0,0,0,0,0,0,0,0,0,0,0,0,0,0,0,0,0,0,0,0,0,0,0,0,0,0,0,0,0,0,0,0,0,0,0,0,0,0,0,0,0,0,0,0,0,0,0,0,0,0,0,0,0,0,0,0,0,0,0,0,0,0,0,0
0,0,0,0,0,0,0,0,0,0,0,0,0,0,0,0,0,0,0,1303,1299.05,1295.19,1291.74,1289.96,1287.66,1285.3,1281.56,1279.45,1277.91,1277.3,1277,1276.68,1276.51,1276.2,1275.33,1274.04,1272.36,1270.41,1268.47,1266.41,1264.06,1261.82,1259.95,1258.4,1257,1255.96,1255.16,1254.21,1253.54,1252.91,1252.31,1252.14,1251.65,1251.36,1250.94,1250.64,1250.99,1251.06,1250.93,1251.02,1250.65,1249.76,1249.25,1248.58,1248.07,1247.77,1247.04,1246.93,1246.83,1246.93,1247.82,1248.58,1249.79,1251.31,1252.55,1254.42,1256.57,1258.95,1261.18,1263.26,1265.19,1266.88,1268.07,1269.48,1270.38,1270.24,1269.61,1268.99,1267.81,1266.34,1265.23,1263.83,1261.76,1260.05,1258.46,1257.05,1256.14,1255.66,1255.96,1255.85,1255.85,1256.49,1257.1,1258.06,1258.85,1259.27,1259.68,1259.68,1259.19,1258.88,1258.33,1256.87,1255.64,1254.04,1252.79,1251.29,1250.06,1249.29,1248.22,1247.62,1247.5,1247.98,1248.59,1249.59,1250.39,1251.32,1252.3,1253.16,1253.8,1254.1,1253.81,1254.65,1254.96,1254.62,1253.96,1253.21,1253.17,1252.82,1252.83,1253.6,1253.24,1253.17,1253.48,1254.58,1256.18,1258.37,1260.57,1262.29,1263.16,1264.58,1265.68,1266.13,1266.2,1265.07,1263.69,1262.69,1261.89,1261.48,1261.4,1261.33,1261.58,1262.02,1262.79,1263.83,1264.49,1265.53,1266.47,1267.12,1267.66,1267.9,1268.11,1267.18,1265.52,1263.87,1261.85,1259.6,1257.66,1255.87,1255,1253.79,1253.84,1253.78,1253.93,1254.44,1255.06,1255.86,1256.33,1256.24,1255.84,1255.38,1254.82,1254.63,1254.51,1254.72,1254.86,1255.68,1256.47,1258.53,1260.14,1261.47,1262.9,1264.19,1265.68,1267.58,1268.72,1269.22,1269.53,1270.14,1270.62,1270.86,1270.51,1269.15,1268.26,1267.15,1266.34,1266.06,1265.8,1264.84,1264.61,1265.5,1266.93,1267.76,1268.57,1269.39,1270.08,1270.44,1271.51,1272.4,1272.32,1271.78,1270.9,1270.61,1271.23,1271.68,1271.71,1271.12,1270.26,1269,1268.02,1266.59,1265.21,1263.36,1261.57,1260.66,1260.14,1259.68,1260.26,1260.4,1261.2,1261.73,1262.53,1263.31,1264.36,1265.45,1266.72,1267.99,1269.33,1270.48,1271.24,1271.85,1272.8,1273.52,1273.35,1273.32,1273.17,1273.02,1272.73,1272.28,1271.42,1270.25,1268.48,1267.86,1266.4,1264.77,1263.18,1261.24,1259.99,1259.43,1259.08,1258.89,1258.6,1259.32,1259.89,1261.09,1261.65,1262.5,1262.37,1261.99,1261.14,1260.84,1259.71,1258.58,1256.85,1255.53,1254.2,1252.69,1251.11,1251.09,1251.1,1251.62,1251.74,1252.19,1253.13,1254.51,1255.29,1256.42,1256.87,1256.74,1256.58,1256.83,1256.82,1256.19,1255.1,1254.76,1253.88,1252.71,1251.76,1250.61,1249.56,1248.1,1247.03,1245.85,1245.96,1245.3,1245.17,1245.2,1245.49,1245.22,1245.15,1245.1,1244.93,1244.48,1244.91,1244.61,1244.23,1244.46,1245.09,1245.61,1246.42,1247.29,1247.83,1247.05,1247.41,1248.25,1248.41,1248.04,1247.95,1247.59,1247.75,1247.48,1247.72,1248.22,1249.29,1250.42,1251.61,1252.74,1254.54,1255.41,1256.1,1256.28,1256.03,1255.55,1255.08,1254.35,1253.72,1252.64,1251.42,1250.59,1249.62,1248.28,1246.18,1244.22,1242.03,1239.94,1237.7,1235.38,1232.36,1228.44,1224.9,1220.5,1215.7,1210.11,1201.91,1191.69,1178.97,1159.81,1135.61,1104.63,1073.28,1042.52,1018.46,1002.2,0,0,0,0,0,0,0,0,0,0,0,0,0,0,0,0,0,0,0,0,0,0,0,0,0,0,0,0,0,0,0,0,0,0,0,0,0,0,0,0,0,0,0,0,0,0,0,0,0,0,0,0,0,0,0,0,0,0,0,0,0,0,0,0,0,0,0,0,0,0,0,0,0,0,0,0,0,0,0,0,0,0,0,0,0,0,0,0,0,0,0,0,0,0,0,0,0,0,0,0,0,0,0,0,0,0,0,0,0,0,0,0,0,0,0,0,0,0,0,0,0,0,0,0,0,0,0,0,0,0,0,0,0,0,0,0,0,0,0,0,0,0,0,0,0,0,0,0,0,0,0,0,0,0,0,0,0,0,0,0,0,0,0,0,0,0,0,0,0,0,0,0,0,0,0,0,0,0,0,0,0,0,0,0,0,0,0,0,0,0,0,0,0,0,0,0,0,0,0,0,0,0,0,0,0,0,0,0,0,0,0,0,0,0,0,0,0,0,0,0,0,0,0,0,0,0,0,0,0,0,0,0,0,0,0,0,0,0,0,0,0,0,0,0,0,0,0,0
0,0,0,0,0,0,0,0,0,0,0,0,0,0,0,0,0,0,0,1306.67,1294.49,1289.16,1286.43,1284.81,1282.32,1279.72,1275.87,1273.22,1271.66,1270.55,1270.04,1269.62,1269.18,1268.51,1267.4,1266.1,1264.2,1262.02,1259.8,1257.73,1255.56,1253.39,1251.8,1250.36,1249.4,1248.55,1247.57,1246.44,1245.51,1244.68,1243.96,1243.32,1242.51,1241.69,1241.14,1240.66,1240.7,1240.83,1240.44,1240.25,1239.74,1239.14,1238.45,1237.87,1237.47,1237.15,1236.54,1236.75,1236.84,1237.2,1238.04,1239.09,1240.62,1242.19,1243.59,1245.23,1247.44,1249.88,1251.84,1254.02,1255.42,1257.09,1258.34,1259.37,1260.08,1259.76,1259.26,1258.69,1257.24,1255.98,1254.81,1253.47,1252.07,1250.52,1249.06,1248.11,1247.7,1247.47,1247.83,1247.92,1248.29,1249.28,1250.13,1251.63,1252.63,1253.33,1253.91,1254.1,1253.79,1253.18,1252.15,1250.84,1249.01,1247.18,1245.68,1243.94,1242.99,1242.11,1241.5,1241.32,1241.35,1241.8,1242.47,1243.35,1244.33,1245.08,1246.24,1247.15,1247.79,1248.14,1248.38,1249.04,1249.03,1248.4,1247.32,1246.17,1245.3,1244.68,1244.6,1244.91,1244.53,1244.32,1244.29,1245.06,1246.53,1248.58,1250.68,1252.16,1253.59,1254.87,1256,1256.51,1256.37,1255.4,1254.1,1253.08,1251.82,1251.34,1250.76,1250.81,1250.74,1251.17,1251.77,1253.12,1253.75,1254.55,1255.57,1256.24,1257.03,1257.52,1257.83,1257.22,1255.51,1254.09,1252.61,1250.3,1248.39,1246.67,1245.3,1244.45,1244.17,1243.98,1244.17,1244.75,1245.24,1245.95,1246.33,1246.12,1245.17,1245.22,1244.56,1244.62,1244.9,1245.41,1245.58,1246.63,1247.84,1249.71,1250.87,1252.02,1252.84,1253.41,1254.8,1255.65,1256.22,1256.26,1256.05,1256.31,1256.97,1257.11,1256.75,1255.72,1254.84,1254.27,1253.79,1254.09,1254.21,1253.74,1253.78,1255.17,1256.69,1257.74,1258.54,1259.26,1259.35,1259.08,1259.78,1260.4,1259.96,1259.16,1258.58,1258.32,1258.64,1259.08,1259.15,1258.61,1258.04,1257.04,1256.18,1255.13,1253.65,1252.1,1250.53,1249.57,1249.04,1248.51,1248.76,1248.8,1249.05,1249.85,1250.79,1251.33,1252.32,1253.45,1254.62,1256.03,1257.35,1258.6,1259.53,1260.13,1261.26,1262.07,1262.28,1262.35,1262.38,1262.51,1262.47,1262.26,1261.62,1260.76,1259.52,1258.83,1257.3,1255.7,1253.89,1252.06,1250.72,1250.33,1249.93,1249.5,1249.6,1250.7,1251.22,1252.6,1253.72,1254.46,1254.47,1254.19,1253.49,1252.83,1251.7,1250.29,1249.04,1246.73,1244.93,1242.93,1241.55,1241.19,1240.97,1240.89,1241,1241.26,1242.47,1244,1245.15,1246.53,1246.87,1247.21,1247.64,1248.39,1248.74,1247.93,1246.8,1246.32,1245.07,1243.69,1242.47,1240.88,1239.31,1237.26,1236.08,1234.79,1234.78,1233.98,1233.89,1234.18,1234.67,1234.29,1234.29,1234.66,1234.5,1233.56,1233.43,1233.08,1232.62,1232.21,1232.55,1233.08,1233.9,1234.35,1235.33,1234.88,1235.74,1236.64,1236.87,1236.89,1236.95,1236.51,1236.93,1237.14,1237.59,1238.3,1239.17,1240.24,1241.57,1242.86,1244.56,1246.01,1246.67,1247.37,1247.58,1247.74,1247.94,1247.64,1247.41,1246.85,1246.47,1245.96,1245.27,1244.21,1242.3,1240.51,1238.74,1236.99,1235.11,1232.6,1229.21,1225.06,1221.65,1217.53,1212.64,1206.95,1200.67,1192.47,1182.07,1165.62,1144.71,1112.92,1075.1,1043.77,1015.11,1002.25,0,0,0,0,0,0,0,0,0,0,0,0,0,0,0,0,0,0,0,0,0,0,0,0,0,0,0,0,0,0,0,0,0,0,0,0,0,0,0,0,0,0,0,0,0,0,0,0,0,0,0,0,0,0,0,0,0,0,0,0,0,0,0,0,0,0,0,0,0,0,0,0,0,0,0,0,0,0,0,0,0,0,0,0,0,0,0,0,0,0,0,0,0,0,0,0,0,0,0,0,0,0,0,0,0,0,0,0,0,0,0,0,0,0,0,0,0,0,0,0,0,0,0,0,0,0,0,0,0,0,0,0,0,0,0,0,0,0,0,0,0,0,0,0,0,0,0,0,0,0,0,0,0,0,0,0,0,0,0,0,0,0,0,0,0,0,0,0,0,0,0,0,0,0,0,0,0,0,0,0,0,0,0,0,0,0,0,0,0,0,0,0,0,0,0,0,0,0,0,0,0,0,0,0,0,0,0,0,0,0,0,0,0,0,0,0,0,0,0,0,0,0,0,0,0,0,0,0,0,0,0,0,0,0,0,0,0,0,0,0,0,0,0,0,0,0,0,0
0,0,0,0,0,0,0,0,0,0,0,0,0,0,0,0,0,0,0,1292.19,1287.54,1283.87,1281.02,1279.24,1276.84,1273.97,1270.07,1267.4,1265.51,1264.19,1263.31,1262.46,1261.56,1260.36,1258.78,1257.06,1255.13,1252.75,1250.62,1248.48,1246.55,1244.51,1242.93,1241.75,1240.82,1240.19,1239.23,1238.29,1237.03,1236.1,1235.28,1234.34,1233.56,1232.55,1231.71,1231.18,1231.05,1230.86,1230.33,1229.97,1229.31,1228.53,1228.07,1227.76,1227.43,1227.17,1226.72,1226.93,1227.24,1227.58,1228.82,1229.97,1231.51,1233.16,1234.62,1236.39,1238.73,1241.05,1243.15,1244.95,1246.62,1248.03,1249.16,1250.21,1250.7,1250.24,1249.64,1249.03,1247.74,1246.61,1245.28,1243.73,1242.29,1241.52,1240.26,1239.71,1239.25,1239.34,1239.58,1240.14,1240.87,1241.79,1242.8,1244.15,1245.23,1245.96,1246.53,1246.86,1246.73,1246.02,1245.02,1243.64,1242.11,1240.36,1238.83,1237.64,1236.68,1236.09,1235.61,1235.38,1235.24,1235.88,1236.69,1237.61,1238.47,1239.24,1240.1,1240.68,1241.65,1241.73,1241.64,1242.14,1242.11,1241.24,1239.94,1238.78,1237.63,1236.61,1236.61,1236.97,1236.17,1236.02,1235.63,1236.38,1237.78,1239.68,1241.98,1243.55,1244.78,1246.18,1247.18,1247.61,1247.59,1246.18,1244.28,1243.05,1242.07,1241.1,1240.34,1240.14,1240.12,1240.56,1241.38,1242.67,1243.36,1244.21,1244.99,1245.82,1246.44,1247.08,1247.44,1247.36,1245.68,1244.45,1242.89,1241.18,1239.21,1237.83,1236.35,1235.27,1234.93,1235.05,1235.03,1235.21,1235.65,1236.05,1236.14,1235.85,1234.95,1234.94,1234.17,1234.38,1234.96,1235.66,1236.18,1237.3,1238.72,1240.52,1241.84,1243.08,1243.64,1243.67,1244.18,1244.67,1244.76,1244.17,1243.86,1243.76,1244.23,1244.21,1243.72,1242.66,1242.04,1241.67,1241.58,1242.26,1242.76,1243.06,1243.18,1245.1,1246.77,1247.86,1248.33,1248.71,1248.3,1247.59,1247.87,1248.21,1247.63,1246.44,1246.03,1245.79,1246.33,1246.71,1247.11,1246.56,1246.15,1245.55,1244.88,1244.16,1242.97,1241.76,1240.31,1239.6,1238.83,1238.11,1238.14,1237.83,1237.77,1238.42,1239.1,1239.31,1240.16,1241.12,1242.58,1243.74,1245.13,1246.12,1247.29,1248.1,1248.96,1250.01,1250.27,1250.42,1250.72,1251.3,1251.39,1251.14,1250.63,1250.04,1248.82,1248.35,1246.85,1245.2,1243.69,1241.75,1240.66,1240.22,1239.89,1239.85,1239.94,1241,1241.68,1243.12,1244.83,1245.7,1245.85,1245.32,1244.37,1243.84,1242.8,1241.3,1239.47,1237.09,1235.41,1233.43,1232.53,1232.64,1232.17,1232.02,1231.67,1232.25,1233.15,1234.29,1235.7,1236.95,1237.15,1237.94,1238.69,1239.89,1240.75,1239.83,1238.47,1237.74,1236.41,1234.85,1233.51,1231.33,1229.53,1227.36,1225.73,1224.61,1224.34,1223.54,1223.52,1223.68,1224.1,1223.63,1223.91,1224.23,1224.19,1223,1222.46,1221.74,1221.13,1221.14,1221.44,1221.59,1222.16,1222.7,1223.42,1223.75,1224.78,1225.67,1225.95,1226.18,1226.28,1226.32,1226.69,1227.24,1227.73,1228.52,1229.45,1230.67,1232.28,1233.56,1235.45,1236.93,1238.16,1239.04,1239.63,1240.54,1240.78,1240.62,1241.11,1241.21,1241.11,1240.81,1240.28,1239.19,1237.68,1236.08,1234.61,1232.85,1230.99,1228.78,1225.23,1221.42,1218.04,1213.85,1209.16,1203.81,1197.6,1191.17,1183.13,1170.49,1153.36,1134,1091.06,1053.35,1019.55,1002,0,0,0,0,0,0,0,0,0,0,0,0,0,0,0,0,0,0,0,0,0,0,0,0,0,0,0,0,0,0,0,0,0,0,0,0,0,0,0,0,0,0,0,0,0,0,0,0,0,0,0,0,0,0,0,0,0,0,0,0,0,0,0,0,0,0,0,0,0,0,0,0,0,0,0,0,0,0,0,0,0,0,0,0,0,0,0,0,0,0,0,0,0,0,0,0,0,0,0,0,0,0,0,0,0,0,0,0,0,0,0,0,0,0,0,0,0,0,0,0,0,0,0,0,0,0,0,0,0,0,0,0,0,0,0,0,0,0,0,0,0,0,0,0,0,0,0,0,0,0,0,0,0,0,0,0,0,0,0,0,0,0,0,0,0,0,0,0,0,0,0,0,0,0,0,0,0,0,0,0,0,0,0,0,0,0,0,0,0,0,0,0,0,0,0,0,0,0,0,0,0,0,0,0,0,0,0,0,0,0,0,0,0,0,0,0,0,0,0,0,0,0,0,0,0,0,0,0,0,0,0,0,0,0,0,0,0,0,0,0,0,0,0,0,0,0,0,0
0,0,0,0,0,0,0,0,0,0,0,0,0,0,0,0,0,0,0,1286.4,1282.32,1277.55,1274.91,1273.15,1270.63,1267.7,1263.87,1260.9,1259.02,1257.52,1256.67,1255.45,1254.16,1252.5,1250.54,1248.5,1246.38,1244.17,1241.57,1239.19,1237.17,1235.05,1233.89,1232.89,1231.99,1231.24,1230.35,1229.45,1228.14,1227.31,1226.2,1225.32,1224.22,1223.14,1222.31,1221.61,1221.41,1221.19,1220.51,1220.08,1219.55,1218.81,1218.57,1218.31,1218.08,1217.77,1217.68,1217.94,1218.25,1219.15,1220.09,1221.16,1222.44,1224.17,1225.54,1227.47,1229.62,1231.6,1233.82,1235.29,1237.35,1238.84,1239.88,1240.87,1241.4,1240.98,1240.33,1239.57,1238.72,1237.57,1236.11,1234.61,1233.62,1232.83,1231.94,1231.4,1231.45,1231.66,1232.03,1232.44,1233.22,1234.17,1235.16,1236.43,1237.4,1238.07,1238.71,1239.13,1239.14,1238.59,1237.8,1236.73,1235.26,1233.68,1232.69,1231.68,1230.77,1230.45,1229.98,1229.83,1230,1230.54,1231.5,1232.35,1232.93,1233.14,1234.95,1235.09,1235.74,1235.63,1235.17,1235.18,1234.88,1234,1232.93,1231.35,1230.66,1229.54,1229.24,1229.54,1229.04,1228.35,1228.39,1228.89,1230.13,1232.21,1234.28,1235.74,1236.69,1237.59,1238.51,1238.79,1238.59,1237.1,1235.06,1233.53,1232.48,1231.56,1230.76,1230.54,1230.44,1230.74,1231.12,1232.35,1233.04,1233.34,1234.19,1234.9,1235.49,1236.29,1236.84,1236.5,1235.31,1234.41,1233.3,1231.87,1230.03,1228.84,1227.57,1226.28,1226.01,1225.84,1225.73,1225.64,1225.59,1225.91,1225.97,1225.71,1224.71,1224.97,1224.09,1224.37,1225.33,1226.18,1227.07,1228.21,1229.46,1231.27,1232.65,1233.68,1233.89,1233.85,1233.85,1233.65,1233.28,1232.71,1232.07,1231.61,1231.53,1231.44,1230.82,1230,1229.81,1230.04,1230.43,1231.21,1232.43,1233.02,1233.19,1235.09,1236.9,1237.65,1238.13,1238.26,1237.42,1236.38,1236.03,1236.42,1235.21,1234.12,1233.86,1233.68,1234.21,1234.47,1235.17,1234.73,1234.48,1234.35,1234.27,1233.61,1232.57,1231.86,1230.14,1229.57,1228.97,1228.52,1228.49,1228.19,1228.01,1228.62,1229.07,1229.56,1230.12,1231.02,1232.27,1233.19,1233.94,1235.08,1235.86,1236.57,1237.04,1237.56,1237.66,1237.98,1238.41,1238.99,1239.08,1238.86,1238.48,1238.25,1237.26,1236.68,1236.48,1234.96,1232.93,1231.07,1230.09,1230.04,1230.24,1230.15,1229.93,1230.38,1231.05,1232.7,1234.63,1235.26,1235.46,1235.08,1234.08,1233.83,1232.71,1231.4,1229.84,1227.44,1225.67,1223.56,1222.99,1222.89,1222.35,1221.88,1221.88,1222.13,1222.99,1224.59,1226,1227.44,1227.93,1228.8,1230.27,1231.57,1232.7,1231.89,1230.54,1229.57,1228.04,1226.41,1224.7,1222.38,1220.35,1217.81,1216.49,1215.49,1215.41,1214.7,1214.62,1214.64,1215,1214.66,1214.93,1215.25,1215.1,1213.74,1213.12,1212.03,1211.55,1210.89,1210.87,1211.05,1211.31,1211.59,1212.45,1213.53,1214.65,1215.47,1215.57,1215.7,1216.16,1216.47,1216.99,1217.6,1218.36,1219.16,1220.01,1221.39,1222.85,1224.49,1226.15,1227.79,1229.26,1230.6,1231.49,1232.77,1233.34,1233.53,1234.33,1234.84,1235.14,1235.02,1234.66,1233.79,1232.24,1230.96,1230.06,1228.28,1226.61,1224.61,1221.91,1218.23,1214.65,1210.97,1206.49,1201.53,1195.89,1189.87,1181.96,1171.61,1157.71,1124,1096.11,1056.8,1023.24,1000.71,0,0,0,0,0,0,0,0,0,0,0,0,0,0,0,0,0,0,0,0,0,0,0,0,0,0,0,0,0,0,0,0,0,0,0,0,0,0,0,0,0,0,0,0,0,0,0,0,0,0,0,0,0,0,0,0,0,0,0,0,0,0,0,0,0,0,0,0,0,0,0,0,0,0,0,0,0,0,0,0,0,0,0,0,0,0,0,0,0,0,0,0,0,0,0,0,0,0,0,0,0,0,0,0,0,0,0,0,0,0,0,0,0,0,0,0,0,0,0,0,0,0,0,0,0,0,0,0,0,0,0,0,0,0,0,0,0,0,0,0,0,0,0,0,0,0,0,0,0,0,0,0,0,0,0,0,0,0,0,0,0,0,0,0,0,0,0,0,0,0,0,0,0,0,0,0,0,0,0,0,0,0,0,0,0,0,0,0,0,0,0,0,0,0,0,0,0,0,0,0,0,0,0,0,0,0,0,0,0,0,0,0,0,0,0,0,0,0,0,0,0,0,0,0,0,0,0,0,0,0,0,0,0,0,0,0,0,0,0,0,0,0,0,0,0,0,0,0
0,0,0,0,0,0,0,0,0,0,0,0,0,0,0,0,0,0,0,1278.95,1273.73,1270.84,1268.74,1267.08,1264.54,1261.3,1257.56,1254.56,1252.9,1251.66,1250.53,1249.21,1247.33,1245.4,1243.34,1240.82,1238.44,1235.87,1233.16,1230.28,1228.28,1226.31,1225,1223.79,1222.91,1222.15,1221.28,1220.18,1219.12,1218.22,1217.32,1216.24,1215.17,1214.18,1213.39,1212.77,1212.55,1212.4,1211.78,1211.43,1210.86,1210.55,1210.21,1210.11,1210.06,1209.96,1209.95,1210.24,1210.64,1211.23,1212.38,1213.2,1214.58,1216.08,1217.3,1218.85,1220.71,1222.65,1224.42,1225.97,1227.79,1229.17,1230.52,1231.21,1231.69,1231.31,1230.75,1230.07,1229.31,1228.32,1226.92,1225.67,1224.76,1224.02,1223.48,1223.2,1223.52,1224.06,1224.3,1224.79,1225.52,1226.72,1227.46,1228.65,1229.82,1230.35,1231.03,1231.75,1231.88,1231.51,1230.75,1229.7,1228.82,1227.44,1226.51,1225.56,1225.06,1224.76,1224.45,1224.43,1224.29,1224.51,1225.02,1225.48,1225.98,1225.93,1227.03,1226.89,1227.5,1227.67,1227.1,1227.65,1227.47,1226.64,1225.78,1224.86,1224.22,1223.2,1222.9,1223.15,1222.68,1222.38,1222.39,1222.74,1223.74,1225.09,1226.89,1227.79,1228.43,1228.81,1228.8,1228.84,1228.49,1227.14,1225.61,1223.96,1222.77,1221.82,1221.02,1220.7,1220.53,1220.82,1220.98,1221.85,1222.27,1222.54,1223.28,1223.97,1224.32,1224.92,1225.67,1225.78,1224.87,1224.27,1223.6,1222.49,1221.24,1220.31,1218.88,1217.65,1217.33,1216.99,1216.39,1216.05,1215.94,1216.15,1216.01,1216,1215.2,1215.56,1214.94,1215.43,1216.56,1217.66,1218.23,1219.36,1220.51,1222.39,1223.47,1224.28,1224.52,1224.13,1223.52,1223.07,1222.43,1221.24,1220.16,1219.44,1219.37,1219.21,1219.02,1218.66,1218.85,1219.44,1220.31,1221.69,1223.26,1224.34,1224.86,1226.49,1227.52,1228.11,1228.01,1227.53,1226.71,1225.38,1224.59,1224.42,1223.32,1222.37,1222.25,1222.45,1222.75,1223.17,1223.61,1223.68,1223.41,1223.79,1223.46,1223.11,1222.3,1221.76,1220.55,1219.64,1219.39,1219.04,1218.69,1218.64,1218.72,1219.18,1219.54,1219.82,1220.33,1221.18,1221.83,1222.45,1222.62,1223,1223.52,1223.43,1223.44,1223.71,1223.62,1223.97,1224.42,1225.08,1225.47,1225.2,1225.25,1225.32,1224.58,1224.86,1224.36,1223.33,1221.49,1219.49,1218.71,1218.88,1218.97,1219.06,1218.75,1218.48,1218.83,1219.99,1221.82,1222.74,1222.98,1222.47,1221.48,1221.18,1220.74,1219.71,1218.77,1216.99,1215.32,1213.37,1212.68,1212.36,1211.75,1211.39,1211.13,1211.38,1212.35,1214.2,1215.7,1217.18,1217.96,1218.99,1220.24,1221.55,1222.84,1221.91,1220.47,1219.5,1217.91,1216.66,1215.03,1212.93,1210.64,1208,1206.75,1205.95,1205.96,1205.32,1205.39,1205.52,1205.82,1205.49,1206.22,1206.69,1206.31,1205.18,1204.46,1203.26,1202.83,1202.71,1202.87,1202.79,1202.84,1202.91,1203.57,1204.4,1205.38,1205.98,1206.39,1206.03,1206.58,1206.94,1207.6,1208.47,1209.14,1209.99,1211.01,1212.54,1213.9,1215.6,1217.04,1218.63,1220.28,1222.03,1223.14,1224.76,1225.45,1225.82,1227.06,1227.85,1228.19,1228.26,1228.15,1227.08,1225.97,1225.02,1224.47,1222.93,1222.71,1220.78,1217.94,1214.21,1210.77,1207.68,1203.59,1198.66,1193.66,1188.01,1179.99,1171.13,1159.15,1127.77,1089,1055.03,1018.52,0,0,0,0,0,0,0,0,0,0,0,0,0,0,0,0,0,0,0,0,0,0,0,0,0,0,0,0,0,0,0,0,0,0,0,0,0,0,0,0,0,0,0,0,0,0,0,0,0,0,0,0,0,0,0,0,0,0,0,0,0,0,0,0,0,0,0,0,0,0,0,0,0,0,0,0,0,0,0,0,0,0,0,0,0,0,0,0,0,0,0,0,0,0,0,0,0,0,0,0,0,0,0,0,0,0,0,0,0,0,0,0,0,0,0,0,0,0,0,0,0,0,0,0,0,0,0,0,0,0,0,0,0,0,0,0,0,0,0,0,0,0,0,0,0,0,0,0,0,0,0,0,0,0,0,0,0,0,0,0,0,0,0,0,0,0,0,0,0,0,0,0,0,0,0,0,0,0,0,0,0,0,0,0,0,0,0,0,0,0,0,0,0,0,0,0,0,0,0,0,0,0,0,0,0,0,0,0,0,0,0,0,0,0,0,0,0,0,0,0,0,0,0,0,0,0,0,0,0,0,0,0,0,0,0,0,0,0,0,0,0,0,0,0,0,0,0,0,0
0,0,0,0,0,0,0,0,0,0,0,0,0,0,0,0,0,0,0,1274,1268.58,1265.24,1262.41,1260.83,1258.26,1254.93,1251.51,1248.43,1246.76,1245.6,1244.3,1242.94,1240.72,1238.75,1236.29,1233.61,1230.89,1228.12,1225.02,1222.13,1219.73,1217.78,1216.08,1214.93,1214.02,1213.14,1212.33,1211.02,1209.94,1208.92,1208.24,1207.42,1206.22,1205.29,1204.69,1204.36,1204.24,1204.21,1203.65,1203.41,1203.18,1202.92,1202.99,1202.97,1203.04,1203.02,1203.11,1203.58,1203.74,1204.31,1205.19,1206.24,1207.36,1208.58,1209.73,1211.3,1212.89,1214.48,1216.01,1217.22,1218.54,1219.87,1220.88,1221.7,1221.82,1221.5,1221.02,1220.56,1219.69,1219.02,1218.2,1216.87,1216.27,1215.9,1215.46,1215.52,1215.94,1216.44,1216.94,1217.49,1218.37,1219.42,1220.15,1221.25,1222.22,1223.2,1223.88,1224.48,1224.86,1224.71,1224.1,1223.32,1222.45,1221.2,1220.35,1219.61,1218.96,1218.56,1218.18,1217.74,1217.38,1217.33,1217.74,1217.93,1218.07,1217.7,1218.51,1218.27,1218.67,1218.87,1218.55,1218.72,1218.34,1217.97,1217.48,1216.71,1216.47,1215.8,1215.87,1216.31,1216.34,1216.32,1216.3,1216.52,1217.24,1218.37,1219.66,1220.11,1220.41,1220.07,1219.56,1219.36,1218.92,1217.84,1216.36,1215.07,1214.62,1213.52,1212.89,1213.02,1213,1213.31,1213.7,1214.42,1214.92,1214.62,1215.34,1216.07,1216.52,1217,1217.38,1217.51,1216.77,1216.43,1215.95,1215.24,1214.39,1213.63,1212.38,1211.56,1211.13,1210.71,1209.7,1209.05,1208.72,1208.6,1208.25,1208.09,1206.82,1206.59,1206.06,1206.52,1207.25,1208.3,1208.78,1209.58,1210.68,1212.81,1214.24,1215.04,1215.11,1214.82,1213.87,1213.79,1212.95,1211.77,1210.91,1209.77,1209.38,1209.55,1209.62,1210.02,1210.41,1211.16,1212.04,1213.49,1215.19,1216.29,1216.92,1217.81,1218.24,1218.38,1217.8,1217.16,1216.04,1214.53,1213.71,1213.23,1212.47,1211.91,1211.56,1211.65,1212.19,1212.39,1212.66,1212.57,1213.15,1213.52,1213.41,1213.27,1212.64,1212.35,1211.38,1210.85,1210.26,1209.97,1209.82,1209.98,1210.31,1210.74,1211.14,1211.39,1211.73,1212.43,1213.1,1213.2,1212.79,1212.68,1212.94,1212.45,1211.68,1211.31,1211.07,1210.79,1210.92,1211.41,1211.58,1211.13,1211.21,1211.44,1211.02,1211.56,1211.36,1210.51,1209.07,1207.27,1206.96,1206.86,1207.19,1207.23,1206.88,1206.44,1206.46,1207.3,1208.65,1209.32,1209.7,1209.42,1208.98,1208.93,1208.52,1207.98,1207.41,1206.11,1204.65,1202.99,1202.52,1201.84,1201.25,1201.01,1200.82,1201.1,1202.1,1203.9,1205.18,1206.87,1207.76,1208.92,1209.72,1211.21,1212.2,1211.43,1209.83,1209.01,1207.5,1206.18,1205.07,1203.25,1201.15,1198.91,1197.83,1197.27,1197.47,1197.1,1197.34,1197.37,1197.79,1197.57,1198.45,1199.18,1198.72,1197.55,1196.81,1195.93,1195.57,1195.43,1195.71,1195.43,1195.11,1195.05,1195.39,1196.21,1197.03,1197.63,1197.69,1197.55,1198.09,1198.58,1199.41,1200.27,1201.5,1202.3,1203.15,1204.33,1206.08,1207.62,1209.12,1210.81,1212.94,1213.76,1215.27,1216.99,1217.58,1217.7,1219.31,1221.34,1221.72,1221.74,1221.84,1221.23,1220.15,1219.63,1219.59,1218.4,1217.31,1216.62,1214.17,1211.07,1208.2,1205.13,1202.05,1197.54,1192.8,1187.3,1179.7,1170.53,1155.26,1113.14,1076.91,1041.28,1012.8,0,0,0,0,0,0,0,0,0,0,0,0,0,0,0,0,0,0,0,0,0,0,0,0,0,0,0,0,0,0,0,0,0,0,0,0,0,0,0,0,0,0,0,0,0,0,0,0,0,0,0,0,0,0,0,0,0,0,0,0,0,0,0,0,0,0,0,0,0,0,0,0,0,0,0,0,0,0,0,0,0,0,0,0,0,0,0,0,0,0,0,0,0,0,0,0,0,0,0,0,0,0,0,0,0,0,0,0,0,0,0,0,0,0,0,0,0,0,0,0,0,0,0,0,0,0,0,0,0,0,0,0,0,0,0,0,0,0,0,0,0,0,0,0,0,0,0,0,0,0,0,0,0,0,0,0,0,0,0,0,0,0,0,0,0,0,0,0,0,0,0,0,0,0,0,0,0,0,0,0,0,0,0,0,0,0,0,0,0,0,0,0,0,0,0,0,0,0,0,0,0,0,0,0,0,0,0,0,0,0,0,0,0,0,0,0,0,0,0,0,0,0,0,0,0,0,0,0,0,0,0,0,0,0,0,0,0,0,0,0,0,0,0,0,0,0,0,0,0
0,0,0,0,0,0,0,0,0,0,0,0,0,0,0,0,0,0,0,1271.5,1262.49,1259.23,1256.12,1254.27,1251.28,1248.43,1245.27,1242.17,1240.38,1239.18,1238.07,1236.5,1234.47,1231.96,1229.45,1226.45,1223.74,1220.38,1217.35,1214.3,1211.28,1209.14,1207.41,1205.99,1204.92,1203.77,1202.81,1201.5,1200.57,1199.62,1198.76,1197.92,1197,1196.29,1195.84,1195.54,1195.84,1195.74,1195.49,1195.46,1195.52,1195.43,1195.65,1196,1196.08,1196.21,1196.48,1196.89,1197.28,1197.96,1198.85,1199.51,1200.55,1201.72,1202.4,1203.69,1204.94,1206.19,1207.45,1208.42,1209.61,1210.62,1211.36,1212.29,1212.41,1212.08,1211.79,1211.2,1210.49,1209.8,1208.69,1207.59,1207.28,1207.14,1206.77,1206.99,1207.55,1208.31,1209.01,1210.03,1210.76,1211.71,1212.52,1213.7,1214.76,1215.58,1216.58,1217.29,1217.71,1217.66,1217.11,1216.81,1216.07,1215.14,1214.35,1213.53,1212.58,1211.84,1211.44,1210.43,1209.76,1209.58,1209.54,1209.3,1208.88,1208.51,1209.44,1209.08,1209.42,1209.24,1208.96,1209.03,1208.68,1208.28,1207.87,1207.37,1207.41,1207.07,1207.62,1208.58,1209.05,1209.49,1209.83,1210.07,1210.5,1211.42,1212.39,1212.83,1212.8,1212.08,1211.45,1211.22,1210.82,1209.58,1208.35,1207.11,1206.56,1205.76,1205.14,1205.27,1205.5,1205.77,1206.3,1207.03,1207.65,1207.77,1208.55,1209.43,1209.98,1210.33,1210.42,1210.55,1210.12,1209.85,1209.39,1208.82,1208.06,1207.45,1206.5,1205.84,1204.99,1204.24,1203.21,1202.34,1201.77,1201.68,1201.25,1200.7,1199.34,1199.02,1198.59,1198.8,1199.51,1200.3,1200.8,1201.7,1202.64,1204.62,1206.19,1206.96,1207.02,1206.77,1205.73,1204.57,1204.14,1203.06,1202.31,1201.55,1201.32,1201.41,1202,1202.34,1202.39,1202.87,1203.78,1205.14,1206.66,1207.78,1207.83,1208,1208.01,1207.83,1207.03,1206.39,1205.45,1204.4,1203.86,1203.56,1203.22,1202.64,1202.29,1202.11,1202.12,1202.03,1201.75,1201.74,1202.45,1202.31,1202.52,1202.53,1202.26,1202.25,1201.59,1201.43,1201.33,1201.07,1201.1,1201.77,1202.17,1202.71,1203.34,1203.89,1204.45,1205.18,1205.74,1205.39,1204.9,1204.54,1204.65,1203.69,1202.58,1201.77,1201.05,1200.37,1200.24,1200.35,1200.01,1199.48,1199.87,1200.34,1200.5,1201.02,1201.1,1200.89,1199.73,1198.46,1197.92,1197.76,1197.7,1197.49,1196.77,1196.25,1195.79,1196.37,1197.42,1198.09,1198.32,1197.71,1197.35,1197.43,1197.66,1197.49,1197.36,1196.37,1195.14,1193.69,1193.28,1192.66,1192.12,1191.88,1191.97,1192.16,1193.18,1195,1196.65,1198.14,1199.12,1200.07,1200.89,1201.76,1202.21,1201.38,1199.66,1198.47,1197.17,1196.17,1195.42,1193.83,1192.1,1190.34,1189.46,1189.63,1189.9,1189.75,1189.79,1189.89,1190.09,1190.14,1191.06,1191.82,1191.42,1190.21,1189.78,1189.08,1188.69,1188.6,1188.87,1188.42,1188.25,1188.14,1188.36,1188.69,1189.26,1189.65,1189.81,1189.5,1190,1190.79,1191.36,1192.01,1193.16,1193.98,1195.03,1196.05,1197.55,1199.04,1200.64,1202.25,1204.17,1205.19,1206.85,1208.59,1209.55,1209.91,1211.15,1213.42,1213.85,1214.03,1214.31,1214.1,1213.49,1213.48,1213.85,1213.37,1212.57,1212.16,1210.48,1207.86,1206.17,1203.58,1200.99,1196.71,1192.42,1187.73,1180.05,1170.62,0,0,0,0,0,0,0,0,0,0,0,0,0,0,0,0,0,0,0,0,0,0,0,0,0,0,0,0,0,0,0,0,0,0,0,0,0,0,0,0,0,0,0,0,0,0,0,0,0,0,0,0,0,0,0,0,0,0,0,0,0,0,0,0,0,0,0,0,0,0,0,0,0,0,0,0,0,0,0,0,0,0,0,0,0,0,0,0,0,0,0,0,0,0,0,0,0,0,0,0,0,0,0,0,0,0,0,0,0,0,0,0,0,0,0,0,0,0,0,0,0,0,0,0,0,0,0,0,0,0,0,0,0,0,0,0,0,0,0,0,0,0,0,0,0,0,0,0,0,0,0,0,0,0,0,0,0,0,0,0,0,0,0,0,0,0,0,0,0,0,0,0,0,0,0,0,0,0,0,0,0,0,0,0,0,0,0,0,0,0,0,0,0,0,0,0,0,0,0,0,0,0,0,0,0,0,0,0,0,0,0,0,0,0,0,0,0,0,0,0,0,0,0,0,0,0,0,0,0,0,0,0,0,0,0,0,0,0,0,0,0,0,0,0,0,0,0,0,0,0,0,0,0,0
0,0,0,0,0,0,0,0,0,0,0,0,0,0,0,0,0,0,0,0,1255.7,1252.34,1249,1246.75,1244.3,1241.5,1238.58,1235.79,1234.22,1232.87,1231.61,1230.12,1227.93,1225.61,1222.81,1219.46,1216.47,1212.88,1209.27,1205.96,1202.97,1200.68,1198.81,1197.41,1196.08,1194.84,1193.63,1192.34,1191.22,1190.41,1189.6,1188.78,1187.96,1187.24,1187.06,1187.06,1187.6,1187.59,1187.6,1187.82,1187.84,1188.22,1188.76,1189.04,1189.51,1189.59,1189.91,1190.37,1190.82,1191.54,1192.41,1193,1193.9,1194.59,1195.02,1196.17,1197.27,1198.21,1199.27,1199.99,1200.89,1201.81,1202.62,1203.07,1203.09,1203.08,1202.59,1202.08,1201.2,1200.42,1199.57,1198.5,1198.3,1198.19,1197.85,1198.27,1198.83,1199.7,1200.59,1201.71,1202.57,1203.58,1204.36,1205.42,1206.54,1207.35,1208.36,1208.98,1209.49,1209.37,1208.95,1208.5,1207.93,1207.04,1206.14,1205.25,1204.19,1203.28,1202.63,1201.73,1201.03,1200.36,1200.33,1200.02,1199.55,1199.49,1200.27,1199.89,1200.26,1199.94,1199.49,1199.11,1198.79,1198.29,1198,1197.91,1197.89,1197.89,1198.56,1199.9,1200.75,1201.57,1202.17,1202.63,1203.01,1203.83,1204.45,1204.78,1204.74,1204.15,1203.65,1203.2,1202.78,1201.82,1200.73,1199.55,1199.21,1198.32,1197.99,1198.04,1198.11,1198.7,1199.26,1200.02,1200.7,1201.02,1201.91,1202.99,1203.21,1203.37,1203.68,1203.85,1203.61,1203.45,1202.9,1202.37,1201.85,1201.48,1200.6,1199.97,1198.56,1197.68,1196.64,1195.44,1194.95,1194.59,1193.74,1193.42,1192.09,1192.03,1191.33,1191.34,1191.85,1192.32,1192.66,1192.86,1193.56,1194.8,1195.79,1196.63,1196.7,1196.18,1195.02,1194.29,1193.84,1193.19,1192.85,1192.51,1192.49,1192.3,1193.08,1193.5,1194.17,1195.14,1195.92,1197.14,1198.41,1198.76,1198.86,1198.63,1198.38,1197.9,1197.37,1196.38,1195.61,1194.96,1194.67,1194.56,1194.65,1194.21,1194.03,1194.07,1194.16,1194.09,1193.81,1193.51,1193.49,1193.39,1193.29,1193.13,1192.97,1192.79,1192.75,1192.66,1192.5,1192.48,1192.99,1193.52,1194.09,1194.75,1195.62,1196.3,1196.9,1197.67,1198.39,1198.02,1197.44,1197.22,1197.28,1196.24,1195.09,1194.24,1193.52,1192.42,1192.17,1192.1,1191.82,1191.23,1191.42,1191.87,1192.3,1192.94,1192.99,1192.76,1191.84,1190.61,1189.85,1189.69,1189.23,1188.53,1187.73,1187.17,1186.5,1186.73,1187.4,1188.19,1188.25,1187.66,1187.55,1187.93,1187.95,1188.25,1188.27,1187.82,1186.94,1186.12,1185.95,1185.34,1184.82,1184.73,1184.44,1184.53,1185.46,1186.9,1188.07,1189.3,1190.51,1191.09,1191.61,1192.01,1192.26,1191.08,1189.55,1188.45,1187.4,1186.46,1185.98,1184.98,1183.6,1182.08,1181.71,1181.79,1182.47,1182.5,1182.85,1182.75,1182.9,1182.98,1184.03,1184.5,1184.1,1183.45,1182.91,1182.23,1181.8,1181.75,1182.11,1181.59,1181.38,1181.29,1181.21,1181.54,1181.8,1182.13,1182.41,1182.24,1182.69,1183.01,1183.53,1184.22,1185.69,1186.4,1187.2,1188.06,1189.55,1190.83,1192.17,1193.51,1195.38,1196.35,1198.05,1200,1200.91,1201.43,1202.92,1205.14,1206.1,1206.66,1207.37,1207.6,1207.46,1207.92,1209.26,1208.93,1208.93,1208.64,1207.16,1205.76,1204.3,1202.51,1200.06,1195.66,1191.31,1187.7,1182,0,0,0,0,0,0,0,0,0,0,0,0,0,0,0,0,0,0,0,0,0,0,0,0,0,0,0,0,0,0,0,0,0,0,0,0,0,0,0,0,0,0,0,0,0,0,0,0,0,0,0,0,0,0,0,0,0,0,0,0,0,0,0,0,0,0,0,0,0,0,0,0,0,0,0,0,0,0,0,0,0,0,0,0,0,0,0,0,0,0,0,0,0,0,0,0,0,0,0,0,0,0,0,0,0,0,0,0,0,0,0,0,0,0,0,0,0,0,0,0,0,0,0,0,0,0,0,0,0,0,0,0,0,0,0,0,0,0,0,0,0,0,0,0,0,0,0,0,0,0,0,0,0,0,0,0,0,0,0,0,0,0,0,0,0,0,0,0,0,0,0,0,0,0,0,0,0,0,0,0,0,0,0,0,0,0,0,0,0,0,0,0,0,0,0,0,0,0,0,0,0,0,0,0,0,0,0,0,0,0,0,0,0,0,0,0,0,0,0,0,0,0,0,0,0,0,0,0,0,0,0,0,0,0,0,0,0,0,0,0,0,0,0,0,0,0,0,0,0,0,0,0,0,0,0
0,0,0,0,0,0,0,0,0,0,0,0,0,0,0,0,0,0,0,0,1254.14,1244.98,1241.28,1239.31,1236.94,1234.04,1231.29,1228.31,1226.69,1225.44,1224.21,1222.71,1220.59,1217.75,1215.19,1212.03,1208.93,1205.01,1201.6,1198.34,1195.2,1192.76,1190.89,1189.17,1187.81,1186.44,1184.86,1183.47,1182.27,1181.53,1180.79,1180.1,1179.39,1178.8,1178.84,1179.12,1179.74,1179.79,1180.03,1180.64,1180.99,1181.58,1182.16,1182.62,1183.15,1183.48,1183.85,1184.44,1184.87,1185.79,1186.4,1187.06,1187.41,1187.82,1188.31,1189.05,1190.06,1190.75,1191.41,1192.13,1192.67,1193.35,1193.97,1194.27,1194.12,1193.99,1193.64,1193.03,1192.1,1191.4,1190.4,1189.74,1189.37,1189.34,1189.1,1189.41,1189.97,1190.64,1191.42,1192.57,1193.52,1194.55,1195.41,1196.33,1197.43,1198.41,1199.29,1199.92,1200.08,1199.57,1199.08,1198.95,1198.37,1197.49,1196.59,1195.47,1194.63,1193.65,1193.42,1192.52,1191.43,1191.13,1190.65,1190.38,1190.23,1190.22,1190.85,1190.51,1190.72,1190.44,1189.88,1189.69,1189.29,1189.01,1188.69,1188.57,1188.99,1189.23,1190.13,1191.61,1192.76,1193.68,1194.52,1195.09,1195.58,1196.33,1197.16,1197.36,1197.23,1196.75,1196.16,1195.66,1195.32,1194.41,1193.18,1192.4,1191.94,1191.29,1190.87,1190.69,1190.89,1191.31,1191.95,1192.67,1193.68,1193.97,1194.8,1196.02,1196.49,1196.84,1196.97,1197.31,1197.25,1197.09,1196.47,1195.83,1195.37,1195.25,1194.04,1193.1,1191.66,1190.46,1189.48,1188.46,1187.64,1187.05,1186.35,1186,1185.02,1185.34,1184.72,1184.75,1184.74,1185.04,1185.18,1185.16,1185.19,1185.96,1186.41,1186.55,1186.93,1186.49,1185.89,1185.17,1184.72,1184.18,1184.06,1184.05,1184.29,1183.97,1184.26,1185.1,1185.85,1186.54,1187.61,1188.38,1189.45,1189.68,1189.86,1189.25,1188.61,1188.21,1187.58,1186.87,1186.1,1186.03,1186.09,1186.2,1186.2,1186.32,1186.38,1186.45,1186.51,1186.48,1186.23,1186.13,1185.87,1185.73,1185.52,1185.2,1184.73,1184.59,1184.34,1184.21,1184.21,1184.51,1184.91,1185.64,1186.42,1187.09,1188.21,1189.3,1189.85,1190.34,1191.08,1190.66,1190.27,1189.92,1190.01,1189.05,1188.04,1187.07,1186.22,1185.09,1184.94,1184.73,1184.11,1183.36,1183.71,1184.39,1184.69,1185.35,1185.71,1185.53,1184.63,1183.31,1182.22,1181.45,1180.7,1179.83,1178.84,1178.16,1177.4,1177.27,1177.83,1178.4,1178.65,1178.03,1177.93,1178.2,1178.45,1178.8,1179.27,1179.16,1178.37,1177.84,1177.75,1177.07,1176.82,1177.19,1176.98,1176.86,1177.55,1178.69,1179.56,1180.73,1181.56,1182.03,1182.21,1182.33,1181.91,1180.68,1179.4,1178.37,1177.42,1176.66,1176.31,1175.51,1174.7,1173.78,1173.47,1173.75,1174.47,1174.8,1175.22,1175.37,1175.71,1175.82,1176.98,1177.25,1177.25,1176.7,1176.17,1175.65,1175.54,1175.47,1175.44,1174.9,1174.82,1174.67,1174.53,1174.76,1174.84,1174.83,1175.02,1174.85,1175.27,1175.62,1176.09,1177.01,1178.24,1178.97,1179.54,1180.6,1181.73,1182.66,1183.78,1185.07,1186.54,1187.32,1189.05,1190.71,1191.77,1192.37,1194.25,1196.71,1198.2,1199.29,1200.15,1200.55,1201.04,1202.17,1203.75,1203.96,1204.46,1204.31,1203.85,1202.9,1202.04,1201.16,1199.09,0,0,0,0,0,0,0,0,0,0,0,0,0,0,0,0,0,0,0,0,0,0,0,0,0,0,0,0,0,0,0,0,0,0,0,0,0,0,0,0,0,0,0,0,0,0,0,0,0,0,0,0,0,0,0,0,0,0,0,0,0,0,0,0,0,0,0,0,0,0,0,0,0,0,0,0,0,0,0,0,0,0,0,0,0,0,0,0,0,0,0,0,0,0,0,0,0,0,0,0,0,0,0,0,0,0,0,0,0,0,0,0,0,0,0,0,0,0,0,0,0,0,0,0,0,0,0,0,0,0,0,0,0,0,0,0,0,0,0,0,0,0,0,0,0,0,0,0,0,0,0,0,0,0,0,0,0,0,0,0,0,0,0,0,0,0,0,0,0,0,0,0,0,0,0,0,0,0,0,0,0,0,0,0,0,0,0,0,0,0,0,0,0,0,0,0,0,0,0,0,0,0,0,0,0,0,0,0,0,0,0,0,0,0,0,0,0,0,0,0,0,0,0,0,0,0,0,0,0,0,0,0,0,0,0,0,0,0,0,0,0,0,0,0,0,0,0,0,0,0,0,0,0,0,0,0,0,0,0
0,0,0,0,0,0,0,0,0,0,0,0,0,0,0,0,0,0,0,0,0,1240.33,1232.13,1229.92,1228.1,1226.24,1223.19,1219.93,1218.26,1216.68,1215.33,1213.8,1211.68,1209.19,1206.46,1203.61,1200.63,1197.05,1193.98,1190.89,1187.76,1185.22,1183.21,1181.37,1179.63,1178.12,1176.65,1175.39,1174.3,1173.65,1173.25,1172.98,1172.57,1172.42,1172.64,1173.07,1173.67,1174.12,1174.61,1175.17,1175.64,1176.43,1177.17,1177.94,1178.2,1178.53,1179.1,1179.65,1180.23,1181.23,1181.66,1181.96,1182.13,1182.37,1182.48,1183.13,1183.85,1184.35,1184.7,1184.87,1185.21,1185.81,1186.12,1186.33,1186.03,1185.59,1184.84,1184.15,1183.21,1182.45,1181.43,1180.75,1180.52,1180.67,1180.47,1180.72,1181.25,1181.85,1182.51,1183.56,1184.45,1185.41,1185.94,1187.06,1187.69,1188.32,1189.17,1189.73,1189.8,1189.5,1189.15,1188.94,1188.55,1187.92,1187.25,1186.25,1185.21,1184.56,1184.15,1183.24,1182.65,1182.03,1181.74,1181.35,1181.21,1180.99,1181.6,1181.09,1181.18,1180.65,1180.29,1179.89,1179.65,1179.69,1179.58,1179.87,1180.35,1181.17,1182.42,1183.75,1185.01,1186.21,1187.31,1188.24,1188.94,1189.62,1190.19,1190.55,1190.45,1189.97,1189.54,1188.93,1188.45,1187.72,1186.76,1186,1185.62,1184.81,1184.36,1184.35,1184.52,1184.77,1185.19,1185.93,1186.57,1187.7,1188.74,1189.43,1189.91,1190.42,1190.84,1191.22,1191.22,1190.92,1190.37,1189.8,1189.37,1189,1187.61,1186.31,1184.59,1183.17,1182.06,1181.05,1180.23,1179.44,1178.6,1178.61,1178.56,1178.82,1178.38,1178.62,1178.6,1178.64,1178.17,1177.9,1177.81,1178,1177.84,1177.67,1177.6,1177.27,1176.77,1176.43,1175.9,1175.36,1175.46,1175.4,1175.69,1175.12,1175.54,1176.17,1176.65,1177.74,1178.76,1179.77,1180.46,1180.45,1180.48,1180.1,1179.4,1178.88,1178.31,1177.97,1177.54,1177.63,1177.68,1178.17,1178.85,1179.05,1178.98,1179.14,1179.21,1179.01,1179.04,1178.85,1178.29,1177.95,1177.56,1177.16,1176.74,1176.34,1176.17,1175.9,1175.82,1176.48,1176.82,1177.55,1178.6,1179.65,1180.99,1181.97,1182.67,1183.25,1183.59,1183.27,1182.5,1182.23,1182.03,1181.1,1179.82,1178.88,1178.12,1177.09,1176.75,1176.29,1175.89,1175.18,1175.52,1175.95,1176.36,1177.01,1177.44,1177.42,1176.49,1175.55,1174.55,1173.69,1172.84,1171.62,1170.76,1170,1169.28,1169.02,1169.39,1169.7,1169.49,1168.93,1169.13,1169.4,1169.48,1169.77,1170.54,1170.44,1170.02,1169.83,1169.94,1169.09,1169.16,1169.42,1169.38,1169.17,1169.33,1170.3,1170.71,1171.63,1172.28,1172.44,1172.28,1171.84,1171.37,1170.56,1169.57,1168.73,1168.01,1167.4,1167.28,1166.88,1166.3,1165.73,1165.81,1166.38,1167.1,1167.6,1168.12,1168.41,1168.93,1169.25,1170.41,1170.74,1170.75,1170.31,1170.1,1169.58,1169.29,1169.37,1169.27,1168.64,1168.56,1168.52,1168.37,1168.4,1168.35,1168.44,1168.71,1168.69,1168.98,1169.37,1169.95,1170.8,1171.6,1172.22,1172.91,1173.39,1174.51,1174.9,1175.63,1176.48,1177.83,1178.18,1180.03,1181.65,1182.65,1183.46,1185.39,1187.85,1189.39,1190.47,1191.83,1192.41,1193.27,1194.97,1197.02,1198.18,1198.69,1199.86,1199.94,1199.53,1200.19,1199.9,0,0,0,0,0,0,0,0,0,0,0,0,0,0,0,0,0,0,0,0,0,0,0,0,0,0,0,0,0,0,0,0,0,0,0,0,0,0,0,0,0,0,0,0,0,0,0,0,0,0,0,0,0,0,0,0,0,0,0,0,0,0,0,0,0,0,0,0,0,0,0,0,0,0,0,0,0,0,0,0,0,0,0,0,0,0,0,0,0,0,0,0,0,0,0,0,0,0,0,0,0,0,0,0,0,0,0,0,0,0,0,0,0,0,0,0,0,0,0,0,0,0,0,0,0,0,0,0,0,0,0,0,0,0,0,0,0,0,0,0,0,0,0,0,0,0,0,0,0,0,0,0,0,0,0,0,0,0,0,0,0,0,0,0,0,0,0,0,0,0,0,0,0,0,0,0,0,0,0,0,0,0,0,0,0,0,0,0,0,0,0,0,0,0,0,0,0,0,0,0,0,0,0,0,0,0,0,0,0,0,0,0,0,0,0,0,0,0,0,0,0,0,0,0,0,0,0,0,0,0,0,0,0,0,0,0,0,0,0,0,0,0,0,0,0,0,0,0,0,0,0,0,0,0,0,0,0,0,0,0
0,0,0,0,0,0,0,0,0,0,0,0,0,0,0,0,0,0,0,0,0,0,1224.19,1222.56,1220.54,1218.47,1215.51,1212.38,1210.1,1208.2,1206.52,1204.6,1202.45,1200.22,1197.76,1195.06,1192.42,1189.37,1186.25,1182.97,1179.82,1177.42,1175.16,1173.44,1171.51,1170.12,1168.49,1167.41,1166.69,1166.27,1166.02,1165.87,1165.99,1166.15,1166.7,1167.46,1168.25,1168.94,1169.56,1170.34,1170.81,1171.9,1172.69,1173.3,1173.74,1174.24,1174.57,1174.83,1175.52,1176.18,1176.42,1176.65,1176.8,1176.71,1176.88,1177.18,1177.31,1177.51,1177.64,1177.53,1177.55,1177.89,1178.04,1177.9,1177.39,1176.88,1176.18,1175.37,1174.75,1174.11,1173.24,1172.77,1172.78,1172.81,1172.5,1172.72,1172.87,1173.15,1173.58,1174.31,1175.07,1175.45,1175.67,1176.26,1176.88,1177.47,1178.08,1178.52,1178.56,1178.46,1178.56,1178.64,1178.47,1178.1,1177.51,1176.95,1176.09,1175.23,1174.64,1173.61,1172.75,1172.35,1171.77,1171.38,1171.19,1171.01,1171.47,1171.04,1171.01,1170.56,1170.49,1170.31,1170.2,1170.3,1170.76,1171.13,1172.02,1173.22,1174.58,1175.73,1177.18,1178.35,1179.45,1180.55,1181.36,1182.1,1182.29,1182.64,1182.75,1182.29,1181.63,1181.02,1180.47,1180.21,1179.35,1178.7,1178.23,1177.71,1177.52,1177.44,1177.61,1177.89,1178.21,1178.66,1179.46,1180.56,1181.47,1181.95,1182.75,1183.45,1183.76,1184.21,1184.31,1184.11,1183.61,1183.24,1183.01,1182.18,1180.55,1179.06,1177,1175.56,1174.53,1173.49,1172.7,1171.93,1171.71,1171.68,1171.94,1172.22,1171.93,1172.06,1171.81,1171.47,1170.67,1170.22,1169.79,1169.58,1169.51,1169.35,1169.33,1168.93,1168.41,1168.05,1167.46,1167.04,1166.9,1167.1,1167.24,1166.75,1166.94,1167.46,1168.28,1169.03,1169.96,1170.53,1171.02,1171.14,1170.87,1170.75,1170.46,1170.16,1169.86,1169.48,1169.6,1169.65,1170.21,1170.96,1171.49,1171.92,1171.74,1172.16,1172.45,1172.08,1172.18,1172.17,1171.69,1171.43,1170.98,1170.5,1169.96,1169.39,1168.92,1168.54,1168.29,1168.95,1169.3,1170.4,1171.45,1172.43,1173.79,1175.1,1175.84,1176.42,1176.48,1175.86,1175.17,1174.74,1174.57,1173.46,1172.4,1171.63,1170.94,1169.89,1169.68,1169.1,1168.38,1167.7,1168.06,1168.6,1168.87,1169.29,1169.7,1169.69,1169.33,1168.52,1167.39,1166.44,1165.1,1163.93,1163.01,1161.99,1161.57,1161.35,1161.28,1161.32,1161.1,1160.63,1160.85,1160.98,1161.24,1161.34,1162.02,1162.04,1162.13,1162.15,1162.72,1161.74,1161.85,1162.26,1162.29,1162.09,1162.3,1162.66,1162.76,1163.65,1164.42,1164.2,1163.4,1162.73,1161.77,1161,1160.35,1159.93,1159.24,1158.85,1158.57,1158.69,1158.73,1158.35,1158.54,1159.26,1159.72,1160.35,1161.09,1161.43,1161.5,1161.85,1163.15,1163.45,1163.36,1163.16,1162.93,1162.49,1162.46,1162.68,1162.72,1162.05,1162.11,1162.17,1161.9,1162.06,1162.19,1162.06,1162.56,1162.65,1162.89,1163.17,1163.82,1164.41,1165.16,1165.54,1165.84,1165.82,1166.62,1167.03,1167.46,1167.88,1169.02,1169.41,1170.97,1172.43,1173.49,1174.25,1176.05,1178.62,1180.33,1181.7,1183.53,1184.41,1185.72,1188.46,1190.72,1191.79,1193.41,1195.08,1195.64,1197.04,1198.79,0,0,0,0,0,0,0,0,0,0,0,0,0,0,0,0,0,0,0,0,0,0,0,0,0,0,0,0,0,0,0,0,0,0,0,0,0,0,0,0,0,0,0,0,0,0,0,0,0,0,0,0,0,0,0,0,0,0,0,0,0,0,0,0,0,0,0,0,0,0,0,0,0,0,0,0,0,0,0,0,0,0,0,0,0,0,0,0,0,0,0,0,0,0,0,0,0,0,0,0,0,0,0,0,0,0,0,0,0,0,0,0,0,0,0,0,0,0,0,0,0,0,0,0,0,0,0,0,0,0,0,0,0,0,0,0,0,0,0,0,0,0,0,0,0,0,0,0,0,0,0,0,0,0,0,0,0,0,0,0,0,0,0,0,0,0,0,0,0,0,0,0,0,0,0,0,0,0,0,0,0,0,0,0,0,0,0,0,0,0,0,0,0,0,0,0,0,0,0,0,0,0,0,0,0,0,0,0,0,0,0,0,0,0,0,0,0,0,0,0,0,0,0,0,0,0,0,0,0,0,0,0,0,0,0,0,0,0,0,0,0,0,0,0,0,0,0,0,0,0,0,0,0,0,0,0,0,0,0,0,0
0,0,0,0,0,0,0,0,0,0,0,0,0,0,0,0,0,0,0,0,0,0,1222,1215.34,1210.62,1209.85,1207.75,1204.68,1201.94,1199.73,1197.61,1196,1193.9,1191.66,1189.45,1187.15,1184.43,1181.57,1178.75,1175.59,1172.74,1170.21,1168.27,1166.19,1164.42,1162.67,1161.28,1160.17,1159.42,1159,1158.71,1158.94,1159.31,1159.87,1160.52,1161.46,1162.34,1163.21,1164.02,1164.82,1165.47,1166.58,1167.26,1167.73,1168.25,1168.64,1168.99,1169.47,1169.91,1170.56,1170.55,1170.78,1171.02,1170.77,1170.95,1171.02,1171.09,1171.16,1171.06,1170.84,1170.69,1170.73,1170.84,1170.47,1169.88,1169.27,1168.62,1167.91,1167.39,1166.9,1166.03,1165.68,1165.55,1165.48,1165.26,1165.18,1164.93,1164.9,1164.63,1165.2,1165.36,1165.65,1165.75,1166.3,1166.85,1167.43,1167.94,1168.41,1168.62,1168.66,1168.57,1168.71,1168.56,1168.26,1167.86,1167.11,1166.17,1165.29,1164.65,1163.68,1162.92,1162.36,1161.74,1161.18,1161.04,1161.19,1162.03,1161.45,1161.16,1160.91,1160.88,1160.82,1160.89,1161.17,1161.39,1161.84,1162.89,1164.47,1165.79,1167.03,1168.37,1169.81,1171.01,1172.02,1172.7,1173.16,1173.43,1173.43,1173.28,1173.05,1172.71,1172.13,1171.63,1171.29,1170.98,1170.47,1170.11,1169.89,1170.12,1169.99,1169.75,1170.03,1170.42,1170.93,1171.63,1172.81,1173.24,1173.55,1174.19,1175.07,1175.69,1176.28,1176.52,1176.48,1176.19,1176.16,1176.02,1174.88,1173.78,1172.42,1170.52,1169.12,1167.95,1166.92,1166.26,1165.98,1166.05,1166.11,1165.6,1166.01,1165.85,1165.82,1165.35,1164.26,1163.12,1162.54,1161.83,1161.6,1161.33,1161.04,1160.97,1160.76,1160.09,1159.75,1159.06,1158.58,1158.79,1158.79,1158.95,1158.38,1158.5,1159.03,1159.47,1160.1,1161.05,1161.45,1161.65,1161.74,1161.68,1161.36,1161.39,1161.35,1161.2,1161.19,1161.49,1161.68,1162.77,1163.5,1164.32,1164.72,1164.51,1164.92,1165.32,1165.13,1164.93,1165,1164.43,1164.29,1163.98,1163.26,1162.4,1162.02,1161.71,1161.27,1160.69,1161.05,1161.57,1162.53,1164.01,1165.01,1166.59,1168,1169.01,1169.6,1169.7,1169.05,1168.27,1167.51,1167.14,1165.76,1164.73,1163.96,1163.6,1162.63,1162.33,1161.74,1160.94,1160.58,1160.73,1161.22,1161.42,1161.84,1161.99,1162.05,1162.02,1161.58,1160.47,1159.17,1157.76,1156.08,1155.07,1154.17,1154.03,1153.65,1153.25,1153.11,1152.96,1151.94,1152.45,1152.77,1152.89,1152.88,1153.39,1154.03,1154.15,1154.45,1154.42,1153.95,1154.4,1154.83,1154.97,1154.95,1155.17,1155.64,1155.59,1155.96,1156.41,1156.02,1155.26,1154,1152.7,1152.19,1151.8,1151.58,1150.85,1150.71,1150.63,1150.86,1151.11,1151.23,1151.35,1151.67,1152.54,1153.09,1153.73,1154.72,1155.11,1155.62,1156.47,1157,1157.05,1156.8,1156.56,1156.12,1156.16,1156.11,1155.95,1155.54,1155.55,1155.54,1155.53,1155.54,1155.65,1155.43,1155.93,1155.93,1156,1156.31,1156.86,1157.36,1157.83,1158.1,1158.39,1158.03,1158.95,1159.03,1159.15,1159.23,1159.94,1160.25,1161.8,1163.1,1164.07,1165.04,1167.23,1169.87,1171.55,1173.13,1175.24,1176.49,1178.27,1181.19,1183.76,1186.01,1187.95,1189.6,1191.52,1193.64,1193,0,0,0,0,0,0,0,0,0,0,0,0,0,0,0,0,0,0,0,0,0,0,0,0,0,0,0,0,0,0,0,0,0,0,0,0,0,0,0,0,0,0,0,0,0,0,0,0,0,0,0,0,0,0,0,0,0,0,0,0,0,0,0,0,0,0,0,0,0,0,0,0,0,0,0,0,0,0,0,0,0,0,0,0,0,0,0,0,0,0,0,0,0,0,0,0,0,0,0,0,0,0,0,0,0,0,0,0,0,0,0,0,0,0,0,0,0,0,0,0,0,0,0,0,0,0,0,0,0,0,0,0,0,0,0,0,0,0,0,0,0,0,0,0,0,0,0,0,0,0,0,0,0,0,0,0,0,0,0,0,0,0,0,0,0,0,0,0,0,0,0,0,0,0,0,0,0,0,0,0,0,0,0,0,0,0,0,0,0,0,0,0,0,0,0,0,0,0,0,0,0,0,0,0,0,0,0,0,0,0,0,0,0,0,0,0,0,0,0,0,0,0,0,0,0,0,0,0,0,0,0,0,0,0,0,0,0,0,0,0,0,0,0,0,0,0,0,0,0,0,0,0,0,0,0,0,0,0,0,0,0
0,0,0,0,0,0,0,0,0,0,0,0,0,0,0,0,0,0,0,0,0,0,0,1208.82,1204.53,1201.89,1198.8,1196.13,1193.62,1191.3,1189.37,1187.24,1185.41,1183.38,1181.46,1179.43,1176.72,1174.28,1171.82,1169.02,1166.08,1163.91,1161.84,1160,1157.98,1156.28,1154.71,1153.77,1152.93,1152.55,1152.38,1152.81,1153.26,1154.07,1154.95,1155.97,1157.08,1157.72,1158.68,1159.6,1160.11,1160.8,1161.22,1161.6,1161.89,1162.13,1162.49,1162.79,1163.08,1163.51,1163.57,1163.94,1164.18,1163.95,1163.97,1164.11,1164.17,1164.3,1163.97,1163.97,1163.46,1163.51,1163.44,1162.9,1162.4,1161.9,1160.93,1160.35,1159.88,1159.51,1158.8,1158.38,1158.23,1158.02,1157.68,1157.2,1156.48,1155.84,1155.64,1155.47,1155.51,1155.8,1156.07,1156.53,1156.93,1157.44,1158.11,1158.6,1158.67,1158.46,1158.28,1158.22,1157.87,1157.76,1157.4,1156.65,1155.65,1154.68,1154.15,1153.25,1152.64,1152.12,1151.51,1150.95,1150.92,1151.15,1151.44,1151.68,1151.81,1151.65,1151.96,1152.38,1152.63,1152.9,1152.98,1153.43,1154.24,1155.31,1156.84,1158.38,1159.81,1161.11,1162.32,1163.34,1163.91,1164.13,1164.35,1164.32,1164.31,1164.3,1163.84,1163.71,1163.22,1163.3,1163.1,1162.51,1162.32,1162.11,1161.92,1161.71,1161.47,1161.61,1162.02,1162.38,1163.05,1164.2,1165.03,1165.28,1166.06,1166.98,1167.67,1168.34,1169,1169.29,1169.24,1169.15,1168.81,1167.76,1166.56,1165.29,1162.97,1161.68,1160.53,1159.53,1159.02,1158.95,1159.27,1159.45,1158.92,1159.17,1158.83,1158.44,1157.56,1156.53,1155.23,1154.32,1153.86,1153.53,1153.13,1152.76,1152.76,1152.41,1151.84,1151.24,1150.5,1149.78,1149.79,1150.03,1150.29,1149.73,1149.79,1150.38,1150.72,1151.13,1152.14,1152.43,1152.42,1152.18,1152.18,1152.1,1152.2,1152.22,1152.34,1152.31,1152.78,1153.19,1154.34,1155.28,1155.99,1156.13,1156.17,1156.85,1157.05,1156.94,1157.47,1157.69,1157.53,1157.54,1157.32,1156.74,1155.79,1155.14,1154.81,1154.04,1153.26,1153.43,1153.7,1154.87,1155.95,1157.27,1158.46,1159.6,1160.49,1161.25,1161.42,1160.64,1160.27,1159.84,1159.52,1158.43,1157.43,1156.89,1156.61,1155.73,1155.33,1154.51,1153.37,1153.01,1153.46,1153.94,1153.96,1154.21,1154.31,1154.79,1155.19,1154.87,1153.83,1152.36,1150.54,1149.09,1148.09,1147.1,1146.62,1145.74,1145.27,1144.76,1144.57,1143.71,1144.29,1144.61,1144.57,1144.97,1145.62,1146.19,1146.63,1147.16,1146.96,1146.58,1147.09,1147.67,1147.77,1147.74,1148.1,1148.27,1148.17,1148.57,1148.9,1148.39,1147.56,1146.57,1145.44,1145.15,1145.01,1144.6,1144.3,1144.27,1144.27,1144.76,1145.16,1145.53,1145.79,1145.96,1146.56,1146.92,1147.52,1148.31,1148.81,1149.24,1150.11,1150.32,1150.42,1150.24,1149.83,1149.52,1149.38,1149.2,1148.94,1148.85,1148.97,1149.21,1149.34,1149.37,1149.49,1149.07,1149.52,1149.46,1149.27,1149.45,1149.66,1149.96,1150.22,1150.28,1150.42,1150.24,1150.55,1150.57,1150.63,1150.74,1151.3,1151.42,1152.81,1154.21,1155.41,1156.74,1159.07,1161.76,1163.9,1165.86,1168.26,1169.8,1171.18,1173.77,1175.47,1177.85,1179.48,1180.9,1182.64,0,0,0,0,0,0,0,0,0,0,0,0,0,0,0,0,0,0,0,0,0,0,0,0,0,0,0,0,0,0,0,0,0,0,0,0,0,0,0,0,0,0,0,0,0,0,0,0,0,0,0,0,0,0,0,0,0,0,0,0,0,0,0,0,0,0,0,0,0,0,0,0,0,0,0,0,0,0,0,0,0,0,0,0,0,0,0,0,0,0,0,0,0,0,0,0,0,0,0,0,0,0,0,0,0,0,0,0,0,0,0,0,0,0,0,0,0,0,0,0,0,0,0,0,0,0,0,0,0,0,0,0,0,0,0,0,0,0,0,0,0,0,0,0,0,0,0,0,0,0,0,0,0,0,0,0,0,0,0,0,0,0,0,0,0,0,0,0,0,0,0,0,0,0,0,0,0,0,0,0,0,0,0,0,0,0,0,0,0,0,0,0,0,0,0,0,0,0,0,0,0,0,0,0,0,0,0,0,0,0,0,0,0,0,0,0,0,0,0,0,0,0,0,0,0,0,0,0,0,0,0,0,0,0,0,0,0,0,0,0,0,0,0,0,0,0,0,0,0,0,0,0,0,0,0,0,0,0,0,0,0,0,0
0,0,0,0,0,0,0,0,0,0,0,0,0,0,0,0,0,0,0,0,0,0,0,1199.5,1194.19,1191.88,1188.64,1186.37,1184.18,1181.78,1180.11,1178.21,1176.74,1175.05,1173.28,1171.49,1169.37,1167.2,1165.08,1162.48,1159.99,1157.52,1155.82,1154.05,1152,1150.41,1148.97,1147.9,1147.06,1146.58,1146.45,1146.87,1147.34,1148.31,1149.21,1150.18,1151.22,1151.95,1152.63,1153.87,1153.81,1154.3,1154.2,1154.5,1154.65,1154.58,1154.67,1154.9,1155.05,1155.7,1155.67,1156.08,1156.36,1156.38,1156.33,1156.45,1156.42,1156.37,1156.13,1156.01,1155.44,1154.93,1154.4,1153.7,1152.98,1152.41,1151.43,1150.71,1150.22,1149.74,1148.93,1148.84,1148.81,1148.54,1147.86,1147.2,1146.53,1145.84,1145.36,1145.37,1145.47,1145.71,1145.78,1146.27,1146.91,1147.59,1148.13,1148.42,1148.44,1148.04,1147.72,1147.64,1147.29,1146.9,1146.68,1146.11,1145.19,1144.37,1144.1,1143.5,1143,1142.49,1142.03,1141.74,1141.67,1142.31,1142.76,1143.25,1143.02,1142.83,1142.98,1143.47,1143.65,1144.11,1144.04,1144.32,1144.84,1146.13,1147.22,1148.31,1149.62,1150.95,1151.96,1153,1153.76,1154.34,1154.63,1154.95,1154.77,1155.05,1154.83,1154.84,1154.52,1154.63,1154.65,1154.1,1153.62,1153.37,1153.36,1153.15,1152.53,1152.82,1153.01,1153.37,1154.02,1155.18,1155.86,1156.47,1157.14,1158.25,1158.91,1159.64,1160.66,1161.07,1161.42,1161.3,1160.79,1159.74,1158.49,1157.24,1155.06,1153.5,1152.47,1151.44,1151.08,1151.01,1151.52,1151.75,1151.34,1151.87,1151.26,1150.67,1149.91,1148.97,1147.96,1147.24,1146.55,1146.09,1145.52,1145.02,1145.04,1144.37,1143.72,1143.04,1142.24,1141.31,1141.18,1141.57,1141.8,1141.15,1141.26,1141.53,1141.86,1142.35,1143.05,1143.6,1143.5,1143.4,1143.66,1143.57,1143.85,1144.17,1144.33,1144.56,1144.86,1145.36,1146.59,1147.43,1148,1148.24,1148.54,1148.76,1149.12,1149.04,1149.24,1149.12,1148.7,1148.44,1148.44,1147.98,1147.18,1146.77,1146.25,1145.68,1145.27,1145.56,1145.91,1146.62,1147.77,1148.65,1149.69,1151.27,1152.89,1153.55,1153.51,1153,1152.76,1152.62,1152.42,1151.75,1151.06,1149.64,1149.34,1148.75,1148.35,1147.5,1146.75,1146.37,1146.68,1146.97,1146.93,1146.7,1146.96,1147.12,1147.5,1147.48,1146.61,1145.55,1144.15,1142.69,1141.53,1140.46,1139.56,1138.47,1137.87,1137.27,1137.07,1136.85,1137.37,1137.72,1137.94,1138.17,1138.49,1139.22,1139.82,1140.41,1140.58,1140.35,1140.91,1141.63,1141.8,1141.8,1142.05,1141.97,1141.53,1142.04,1142.25,1142.02,1140.93,1139.89,1138.91,1138.83,1139.04,1138.53,1138.15,1138,1138.01,1138.29,1139,1139.51,1139.69,1139.78,1140.27,1140.89,1141.53,1142.55,1143.12,1143.52,1144.18,1144.3,1144.34,1143.99,1143.71,1143.26,1142.9,1142.28,1142.04,1141.93,1142.28,1142.66,1142.88,1142.97,1143.03,1142.77,1143.39,1143.11,1142.84,1142.84,1142.71,1142.8,1142.93,1142.87,1142.88,1142.81,1143.26,1143.3,1143.07,1143.05,1143.76,1143.85,1145.11,1146.4,1147.45,1148.57,1150.94,1154.08,1156.4,1158.54,1161.07,1162.49,1163.64,1165.82,1167.11,1169.12,1170.08,1172.3,0,0,0,0,0,0,0,0,0,0,0,0,0,0,0,0,0,0,0,0,0,0,0,0,0,0,0,0,0,0,0,0,0,0,0,0,0,0,0,0,0,0,0,0,0,0,0,0,0,0,0,0,0,0,0,0,0,0,0,0,0,0,0,0,0,0,0,0,0,0,0,0,0,0,0,0,0,0,0,0,0,0,0,0,0,0,0,0,0,0,0,0,0,0,0,0,0,0,0,0,0,0,0,0,0,0,0,0,0,0,0,0,0,0,0,0,0,0,0,0,0,0,0,0,0,0,0,0,0,0,0,0,0,0,0,0,0,0,0,0,0,0,0,0,0,0,0,0,0,0,0,0,0,0,0,0,0,0,0,0,0,0,0,0,0,0,0,0,0,0,0,0,0,0,0,0,0,0,0,0,0,0,0,0,0,0,0,0,0,0,0,0,0,0,0,0,0,0,0,0,0,0,0,0,0,0,0,0,0,0,0,0,0,0,0,0,0,0,0,0,0,0,0,0,0,0,0,0,0,0,0,0,0,0,0,0,0,0,0,0,0,0,0,0,0,0,0,0,0,0,0,0,0,0,0,0,0,0,0,0,0,0,0,0
0,0,0,0,0,0,0,0,0,0,0,0,0,0,0,0,0,0,0,0,0,0,0,0,1189,1182.62,1180.38,1176.04,1174.4,1172.59,1170.97,1169.38,1168.35,1166.98,1165.24,1163.83,1162.16,1160.32,1158.5,1156.23,1153.68,1151.4,1149.79,1148.13,1146.31,1144.36,1142.69,1141.35,1140.67,1140.08,1139.93,1140.23,1140.67,1141.45,1142.15,1143.22,1143.97,1144.66,1145.51,1146.11,1146.1,1146.5,1146.26,1146.43,1146.59,1146.51,1146.59,1146.78,1147,1147.5,1147.46,1147.87,1148.14,1148.28,1148.26,1148.34,1148.41,1148.31,1147.97,1147.64,1147.09,1146.32,1145.55,1144.73,1143.63,1142.76,1141.74,1140.99,1140.42,1139.65,1139,1138.99,1138.89,1138.53,1137.85,1137.08,1136.25,1135.31,1134.9,1134.75,1134.91,1135.23,1135.71,1136.17,1136.84,1137.45,1138.02,1138.16,1138.28,1137.79,1137.29,1137.01,1136.7,1136.56,1136.17,1135.65,1134.99,1134.62,1134.38,1134.3,1134.24,1133.82,1133.5,1133.72,1133.96,1134.53,1135.01,1135.36,1134.93,1134.75,1134.84,1135.06,1135.29,1135.43,1135.35,1135.31,1135.46,1136.47,1137.56,1138.57,1139.35,1142.16,1143.22,1144.85,1145.48,1145.86,1146.29,1146.61,1146.81,1147.1,1146.63,1146.46,1145.45,1145.55,1145.67,1145.21,1144.33,1144.08,1143.95,1143.27,1142.78,1142.94,1143.34,1143.54,1144.3,1145.63,1145.99,1146.42,1147.22,1148.14,1148.99,1149.76,1150.71,1151.02,1151.59,1151.68,1151.19,1150.3,1148.87,1147.8,1146,1144.72,1143.82,1142.99,1142.81,1142.74,1143.38,1143.89,1143.9,1144.57,1144.04,1143.44,1142.75,1142.06,1141.51,1140.84,1140.46,1139.65,1139.01,1138.55,1138.43,1137.93,1137.14,1136.59,1135.94,1135.23,1134.87,1134.97,1135.03,1134.53,1134.59,1134.84,1135,1135.26,1135.8,1136.07,1136.02,1135.92,1136.21,1136.32,1136.71,1136.99,1137.29,1137.39,1137.74,1138.07,1139.23,1139.99,1140.34,1140.2,1140.33,1140.7,1140.96,1140.79,1140.83,1140.44,1139.7,1139.53,1139.45,1138.82,1138.19,1137.54,1137.21,1136.85,1136.59,1136.71,1137.36,1138.27,1139.06,1139.79,1141.03,1143.08,1144.61,1145.25,1145.25,1144.84,1144.7,1144.68,1144.73,1143.98,1143.71,1142.16,1142.06,1141.82,1141.36,1140.32,1139.38,1139.13,1139.52,1139.39,1139.28,1138.94,1138.99,1139.32,1139.7,1139.65,1138.93,1137.88,1136.75,1135.25,1134.18,1133.07,1132.43,1131.46,1130.76,1130.22,1130.1,1129.94,1130.44,1130.88,1131.22,1131.42,1131.66,1132.36,1132.79,1133.41,1133.67,1133.55,1134.01,1134.67,1134.87,1135.12,1135.3,1135.16,1134.73,1135.07,1135.03,1134.56,1133.67,1132.84,1131.68,1131.7,1132.1,1131.88,1131.58,1131.38,1131.32,1131.68,1132.48,1132.84,1133.2,1133.32,1133.72,1134.16,1135.02,1136.01,1136.71,1137.01,1137.45,1137.74,1137.6,1137.33,1136.88,1136.28,1135.78,1135.2,1134.88,1134.83,1135.15,1135.61,1135.79,1135.82,1135.87,1135.66,1136.09,1135.93,1135.54,1135.46,1135.38,1135,1135.2,1135.22,1135.2,1135.06,1135.42,1135.24,1134.86,1134.96,1135.59,1135.8,1136.84,1137.96,1139.13,1140.55,1143.28,1145.77,1148.11,1150.19,1152.09,1153.53,1154.39,1156.02,1156.77,1158.7,1161.88,0,0,0,0,0,0,0,0,0,0,0,0,0,0,0,0,0,0,0,0,0,0,0,0,0,0,0,0,0,0,0,0,0,0,0,0,0,0,0,0,0,0,0,0,0,0,0,0,0,0,0,0,0,0,0,0,0,0,0,0,0,0,0,0,0,0,0,0,0,0,0,0,0,0,0,0,0,0,0,0,0,0,0,0,0,0,0,0,0,0,0,0,0,0,0,0,0,0,0,0,0,0,0,0,0,0,0,0,0,0,0,0,0,0,0,0,0,0,0,0,0,0,0,0,0,0,0,0,0,0,0,0,0,0,0,0,0,0,0,0,0,0,0,0,0,0,0,0,0,0,0,0,0,0,0,0,0,0,0,0,0,0,0,0,0,0,0,0,0,0,0,0,0,0,0,0,0,0,0,0,0,0,0,0,0,0,0,0,0,0,0,0,0,0,0,0,0,0,0,0,0,0,0,0,0,0,0,0,0,0,0,0,0,0,0,0,0,0,0,0,0,0,0,0,0,0,0,0,0,0,0,0,0,0,0,0,0,0,0,0,0,0,0,0,0,0,0,0,0,0,0,0,0,0,0,0,0,0,0,0,0,0,0,0,0
0,0,0,0,0,0,0,0,0,0,0,0,0,0,0,0,0,0,0,0,0,0,0,0,0,0,1169.12,1166.4,1165.09,1163.34,1161.72,1160.53,1159.79,1158.53,1156.98,1155.78,1154.43,1153.12,1151.71,1149.5,1147.16,1145.09,1143.45,1141.62,1139.65,1137.86,1136.33,1135.33,1134.44,1134.04,1133.63,1133.9,1134.17,1134.75,1135.43,1136.22,1136.71,1137.34,1137.84,1138.39,1138.17,1138.19,1138.24,1138.21,1138,1137.79,1137.74,1137.9,1138.28,1138.96,1139.06,1139.49,1139.84,1140.03,1140.19,1140.23,1140.35,1140.37,1139.98,1139.56,1138.73,1138.06,1137.17,1136.14,1135.03,1133.99,1132.78,1131.97,1131.42,1130.8,1130.28,1130.07,1129.97,1129.71,1128.87,1128.24,1127.4,1126.3,1125.72,1125.46,1125.64,1126.1,1126.46,1126.9,1127.6,1128.06,1128.52,1128.72,1128.8,1128.26,1127.76,1127.42,1127.22,1127.1,1126.78,1126.44,1126,1125.98,1126.24,1126.3,1126.42,1126.52,1126.8,1127.14,1127.56,1128.38,1128.72,1129,1128.6,1128.4,1128.5,1128.48,1128.72,1128.64,1128.7,1128.46,1128.62,1129.5,1130.44,1130.92,1131.62,1133.83,1134.33,1135.49,1135.97,1136.37,1136.6,1136.97,1137.21,1137.34,1137.12,1136.9,1136.22,1136.23,1136.37,1135.72,1135.04,1134.73,1134.54,1133.92,1133.24,1133.49,1133.63,1133.94,1134.4,1135.41,1135.75,1135.77,1136.42,1137.41,1138.11,1138.86,1139.43,1139.72,1140.41,1140.67,1140.43,1139.46,1138.76,1137.68,1136.33,1135.7,1135.38,1134.8,1134.6,1134.46,1135.07,1135.65,1135.97,1136.61,1136.17,1135.66,1135.12,1134.8,1135,1134.75,1134.66,1134.19,1133.77,1133.27,1133.19,1132.46,1131.58,1131.02,1130.52,1129.6,1129.24,1129.12,1129.24,1128.92,1128.64,1128.76,1128.64,1128.94,1129.5,1129.84,1129.88,1129.9,1130.08,1130.32,1130.78,1131.33,1131.38,1131.65,1131.68,1131.98,1132.48,1133,1132.92,1132.52,1132.36,1132.46,1132.66,1132.4,1132.32,1132.12,1131.48,1131.34,1131.28,1130.86,1130.24,1129.74,1129.58,1129.32,1128.98,1129.64,1129.98,1130.78,1131.48,1132.1,1132.9,1134.29,1135.52,1135.96,1135.98,1135.75,1135.71,1135.59,1135.58,1135.14,1135.34,1134.18,1134.5,1134.4,1134.25,1133.55,1132.91,1132.74,1132.62,1132.5,1132.12,1131.9,1132,1131.9,1132.26,1132.12,1131.72,1130.36,1128.86,1127.36,1126.04,1125.1,1124.24,1123.7,1123.06,1122.52,1122.58,1122.76,1123.44,1124.04,1124.3,1124.56,1124.68,1125.18,1125.58,1126.08,1126.42,1126.44,1126.92,1127.58,1127.98,1128.42,1128.49,1128.36,1127.92,1128.26,1128.22,1127.86,1127.18,1126.36,1125.58,1125.52,1125.84,1125.88,1125.58,1125.04,1124.92,1125.08,1125.82,1126.16,1126.44,1126.52,1126.88,1127.44,1128.34,1129.7,1130.52,1130.9,1131.28,1131.34,1131.4,1131.12,1130.72,1130.02,1129.46,1128.76,1128.38,1128.32,1128.52,1128.64,1128.68,1128.92,1128.98,1128.56,1128.94,1128.78,1128.5,1128.3,1128.26,1127.96,1127.8,1127.9,1128.1,1127.78,1128.12,1127.86,1127.68,1127.38,1127.84,1128.4,1129.42,1130.52,1131.46,1132.46,1134.72,1137.27,1139.52,1141.57,1143.12,1144.19,1144.56,1145.24,1145.06,1145.76,1142.41,1143,0,0,0,0,0,0,0,0,0,0,0,0,0,0,0,0,0,0,0,0,0,0,0,0,0,0,0,0,0,0,0,0,0,0,0,0,0,0,0,0,0,0,0,0,0,0,0,0,0,0,0,0,0,0,0,0,0,0,0,0,0,0,0,0,0,0,0,0,0,0,0,0,0,0,0,0,0,0,0,0,0,0,0,0,0,0,0,0,0,0,0,0,0,0,0,0,0,0,0,0,0,0,0,0,0,0,0,0,0,0,0,0,0,0,0,0,0,0,0,0,0,0,0,0,0,0,0,0,0,0,0,0,0,0,0,0,0,0,0,0,0,0,0,0,0,0,0,0,0,0,0,0,0,0,0,0,0,0,0,0,0,0,0,0,0,0,0,0,0,0,0,0,0,0,0,0,0,0,0,0,0,0,0,0,0,0,0,0,0,0,0,0,0,0,0,0,0,0,0,0,0,0,0,0,0,0,0,0,0,0,0,0,0,0,0,0,0,0,0,0,0,0,0,0,0,0,0,0,0,0,0,0,0,0,0,0,0,0,0,0,0,0,0,0,0,0,0,0,0,0,0,0,0,0,0,0,0,0,0,0,0,0,0,0
0,0,0,0,0,0,0,0,0,0,0,0,0,0,0,0,0,0,0,0,0,0,0,0,0,1161.33,1156.95,1156.36,1155.03,1153.74,1152.41,1151.39,1150.69,1149.93,1148.67,1147.5,1146.4,1145.38,1143.84,1141.84,1139.56,1137.47,1135.8,1134.34,1132.67,1131.01,1129.82,1128.85,1128.03,1127.86,1127.13,1127.19,1127.51,1128.09,1128.55,1129,1129.21,1129.67,1129.88,1130.26,1130.01,1129.84,1129.54,1129.52,1129.32,1129.24,1129.12,1129.36,1129.7,1130.34,1130.62,1131.27,1131.78,1131.98,1132.2,1132.32,1132.21,1132.33,1132,1131.51,1130.55,1129.52,1128.54,1127.31,1126.31,1125.32,1124.02,1123.22,1122.62,1122.24,1121.82,1121.56,1121.36,1120.98,1120.22,1119.6,1118.68,1117.72,1117.18,1116.82,1117.06,1117.56,1117.88,1118.36,1118.82,1119.44,1119.84,1120,1120.06,1119.6,1119.06,1118.86,1118.96,1118.82,1118.86,1118.76,1118.76,1119.04,1119.5,1119.86,1120.22,1120.42,1120.86,1121.3,1121.8,1122.42,1122.8,1122.9,1122.34,1122.22,1122.2,1122.12,1122.36,1122.54,1122.3,1122.18,1122.34,1122.84,1123.58,1123.98,1124.66,1126.48,1126.72,1127.66,1127.84,1127.92,1128.08,1128.32,1128.56,1128.7,1128.32,1128.3,1127.84,1127.86,1128,1127.6,1127.02,1126.7,1126.46,1125.78,1125.26,1125.28,1125.36,1125.6,1126.12,1126.72,1126.56,1126.54,1127.08,1127.74,1128.1,1128.74,1129.14,1129.36,1129.92,1130.46,1130.34,1129.72,1129.12,1128.84,1128.14,1127.88,1127.86,1127.64,1127.68,1127.42,1127.86,1128.48,1128.7,1129.32,1128.68,1128.26,1128.08,1128.04,1128.52,1128.6,1128.68,1128.38,1128.16,1127.82,1127.54,1126.8,1126.3,1125.72,1125.14,1124.28,1123.46,1123.28,1123.14,1122.78,1122.56,1122.26,1122.18,1122.42,1122.92,1123.56,1123.9,1124.04,1124.14,1124.42,1125.38,1126.06,1126,1126.16,1125.84,1125.82,1126.12,1126.12,1125.76,1124.98,1124.56,1124.48,1124.5,1124.12,1124.04,1123.72,1123.06,1123,1123.06,1122.6,1122.1,1121.88,1121.84,1121.74,1121.76,1122.3,1122.78,1123.62,1124.28,1125.02,1125.58,1126.62,1127.78,1127.92,1127.8,1127.78,1127.72,1127.62,1127.4,1127.28,1127.3,1126.62,1127.08,1127.36,1127.18,1126.56,1126,1125.88,1125.8,1125.5,1125.42,1124.92,1124.78,1124.74,1124.9,1125.1,1124.54,1123.3,1121.52,1120.02,1118.68,1117.46,1116.54,1116.08,1115.34,1114.88,1115.12,1115.5,1116.26,1116.92,1117.32,1117.64,1117.26,1117.8,1118.28,1118.7,1119.04,1119.06,1119.76,1120.5,1120.8,1121.26,1121.02,1120.8,1120.58,1120.78,1120.72,1120.14,1119.66,1119.32,1118.42,1118.58,1119.34,1119.68,1119.32,1118.8,1118.38,1118.16,1119.1,1119.54,1119.82,1119.84,1120.4,1121.02,1122.14,1123.78,1124.98,1125.2,1125.48,1125.48,1125.54,1125.34,1124.88,1123.94,1123.34,1122.56,1121.9,1121.66,1121.56,1121.5,1121.36,1121.5,1121.52,1121.16,1121.5,1121.58,1121.46,1121.32,1121.2,1120.94,1120.88,1120.92,1121.12,1120.82,1121.18,1121.02,1120.72,1121.46,1122.02,1122.72,1123.72,1124.6,1125.34,1126.16,1128.28,1130.24,1131.98,1133.64,1134.78,1135.5,1135.14,1134.33,1133.36,1132.23,1130.89,1129.58,1127.34,0,0,0,0,0,0,0,0,0,0,0,0,0,0,0,0,0,0,0,0,0,0,0,0,0,0,0,0,0,0,0,0,0,0,0,0,0,0,0,0,0,0,0,0,0,0,0,0,0,0,0,0,0,0,0,0,0,0,0,0,0,0,0,0,0,0,0,0,0,0,0,0,0,0,0,0,0,0,0,0,0,0,0,0,0,0,0,0,0,0,0,0,0,0,0,0,0,0,0,0,0,0,0,0,0,0,0,0,0,0,0,0,0,0,0,0,0,0,0,0,0,0,0,0,0,0,0,0,0,0,0,0,0,0,0,0,0,0,0,0,0,0,0,0,0,0,0,0,0,0,0,0,0,0,0,0,0,0,0,0,0,0,0,0,0,0,0,0,0,0,0,0,0,0,0,0,0,0,0,0,0,0,0,0,0,0,0,0,0,0,0,0,0,0,0,0,0,0,0,0,0,0,0,0,0,0,0,0,0,0,0,0,0,0,0,0,0,0,0,0,0,0,0,0,0,0,0,0,0,0,0,0,0,0,0,0,0,0,0,0,0,0,0,0,0,0,0,0,0,0,0,0,0,0,0,0,0,0,0,0,0,0,0
0,0,0,0,0,0,0,0,0,0,0,0,0,0,0,0,0,0,0,0,0,0,0,0,0,0,1147.41,1145.89,1145.29,1144.86,1143.76,1142.74,1142.32,1141.62,1140.45,1139.25,1138.1,1136.86,1135.26,1133.49,1131.48,1129.64,1127.9,1126.52,1125.16,1123.76,1122.7,1122.02,1121.4,1121,1120.62,1120.6,1120.8,1121.02,1121.44,1121.75,1122.04,1122.12,1122.06,1122.1,1121.76,1121.4,1120.86,1120.72,1120.58,1120.54,1120.58,1120.88,1121.34,1121.92,1122.58,1123.24,1123.86,1124.06,1124.46,1124.6,1124.36,1124.38,1124.28,1123.66,1122.66,1121.48,1120.3,1119.02,1117.86,1116.66,1115.48,1114.44,1114.08,1113.62,1113.42,1113.34,1112.94,1112.4,1111.98,1111.24,1110.32,1109.56,1108.92,1108.56,1108.78,1109.22,1109.48,1109.92,1110.34,1111.02,1111.42,1111.78,1112.1,1112.14,1111.98,1112.12,1112.2,1112.32,1112.54,1112.62,1112.64,1113.12,1113.38,1114.1,1114.6,1115.04,1115.36,1115.82,1116.28,1116.82,1117.02,1116.74,1116.22,1116.02,1116.04,1115.92,1115.84,1115.78,1115.56,1115.4,1115.38,1116.14,1116.54,1116.98,1117.6,1119.12,1119.34,1119.88,1119.78,1119.94,1120.04,1119.96,1120,1119.92,1119.74,1119.68,1119.26,1119.44,1119.7,1119.34,1118.86,1118.72,1118.4,1117.82,1117.4,1117.3,1117.4,1117.64,1117.92,1118.42,1118.12,1117.86,1118.02,1118.54,1118.82,1119.24,1119.64,1119.84,1120.4,1120.78,1121.06,1120.76,1120.52,1120.8,1120.74,1120.8,1120.94,1120.8,1120.98,1120.7,1121.2,1121.9,1122.04,1122.22,1121.84,1121.66,1121.7,1121.98,1122.56,1122.76,1123.04,1122.82,1122.52,1122.06,1121.48,1120.4,1119.76,1119.3,1118.82,1117.58,1116.9,1116.48,1116.2,1116.26,1116.5,1116.06,1115.88,1116.26,1116.94,1117.68,1118.12,1118.36,1118.92,1119.46,1120.24,1120.68,1120.68,1120.42,1120.1,1119.88,1119.88,1119.56,1118.82,1117.9,1117.2,1116.9,1116.72,1116.22,1115.86,1115.62,1115.24,1115.02,1115.02,1114.72,1114.4,1115.14,1115.12,1115.06,1115.2,1115.58,1116.24,1117.1,1118,1118.54,1118.1,1118.84,1119.56,1119.8,1119.52,1119.58,1119.72,1119.6,1119.34,1119.18,1119.58,1119.18,1119.84,1120.18,1120.14,1119.66,1119.28,1119.08,1119.02,1118.76,1118.5,1118.06,1117.88,1117.7,1117.84,1117.86,1117.16,1115.78,1114.2,1112.68,1111.24,1109.98,1109.02,1108.48,1107.64,1107.1,1107.54,1108.14,1109.1,1109.46,1110,1110.36,1110.12,1110.42,1111.1,1111.44,1111.7,1112.22,1112.88,1113.56,1113.66,1114.34,1114.38,1114.18,1114.04,1114.22,1113.94,1113.64,1113.3,1112.76,1112.24,1112.48,1113.16,1113.38,1113.08,1112.66,1112.22,1112.14,1112.78,1113.36,1113.96,1114.16,1114.74,1115.38,1116.82,1118.52,1119.68,1119.88,1120.02,1120.14,1119.94,1119.74,1118.98,1118.18,1117.1,1116.12,1115.28,1114.74,1114.28,1114.02,1113.88,1113.98,1113.94,1113.64,1113.9,1114.08,1114.14,1114.26,1114.08,1114.02,1113.88,1113.9,1114.04,1113.9,1114.34,1114.36,1114.46,1115.26,1115.86,1116.4,1117.54,1118.28,1118.8,1119.52,1121.2,1122.86,1124.22,1125.26,1126.2,1126.46,1125.94,1124.08,1122,1120.64,1118.7,1116.63,1112.81,0,0,0,0,0,0,0,0,0,0,0,0,0,0,0,0,0,0,0,0,0,0,0,0,0,0,0,0,0,0,0,0,0,0,0,0,0,0,0,0,0,0,0,0,0,0,0,0,0,0,0,0,0,0,0,0,0,0,0,0,0,0,0,0,0,0,0,0,0,0,0,0,0,0,0,0,0,0,0,0,0,0,0,0,0,0,0,0,0,0,0,0,0,0,0,0,0,0,0,0,0,0,0,0,0,0,0,0,0,0,0,0,0,0,0,0,0,0,0,0,0,0,0,0,0,0,0,0,0,0,0,0,0,0,0,0,0,0,0,0,0,0,0,0,0,0,0,0,0,0,0,0,0,0,0,0,0,0,0,0,0,0,0,0,0,0,0,0,0,0,0,0,0,0,0,0,0,0,0,0,0,0,0,0,0,0,0,0,0,0,0,0,0,0,0,0,0,0,0,0,0,0,0,0,0,0,0,0,0,0,0,0,0,0,0,0,0,0,0,0,0,0,0,0,0,0,0,0,0,0,0,0,0,0,0,0,0,0,0,0,0,0,0,0,0,0,0,0,0,0,0,0,0,0,0,0,0,0,0,0,0,0,0
