4567.1,4567.1,4577.71,4622.5,4596.33,4579,4528,4495,4545.5,4495,4682.29,4679.88,4679.88,4682.22,4689.89,4713.44,4733.56,4758.33,4786,4778.4,4793.1,4815.7,4826.9,4845.8,4853.4,4868.2,4879.9,4891.1,4940.1,4959.7,4978.4,4993.2,5000,4996.6,5000,5000,5000,5000,5000,5000,5000,5000,5000,5000,5000,5000,5000,5000,5000,4996.6,4993.2,4981.3,4966.6,4962.9,4962.9,4970.3,4977.4,4977.4,4981.5,4974,4966.2,4962.7,4959,4955.4,4955.7,4948.2,4938.1,4929.6,4921.7,4925.7,4921.4,4909.9,4910,4913.8,4917.7,4917.7,4924.7,4928.8,4925.3,4917.2,4917.6,4911,4902.12,4902.38,4897.62,4906.88,4898.5,4908,4917,4930.38,4948.5,4962.75,4977.25,4987.25,4991.5,4995.75,4990.75,4990.75,4985.88,4979,4974.14,4969.14,4958.71,4942.6,4991.5,4993.2,5000,4967.62,4967.62,4958,4958.25,4953.62,4963.25,4967.5,4962.86,4973,4973,4978.43,4973,4973,4973,4968.14,4956.86,4951.43,4940.71,4935.43,4901.62,4879.33,4879.56,4891.56,4887.22,4899.78,4905.44,4896.33,4883.33,4875.22,4858.22,4857.89,4861.89,4820.8,4883,4849.2,4849.2,4849.6,4842.4,4834.5,4823,4812.3,4804.7,4794.1,4771.1,4747.2,4727.5,4802.11,4693,4647.5,4633.12,4819.43,4773.33,4769.44,4769.44,4768.89,4773.11,4772.89,4769.11,4764.67,4768.56,4760.11,4764,4755.78,4760.22,4752.56,4733,4736.78,4741.22,4729.22,4721.67,4594.3,4581.3,4563.1,4549.1,4540.5,4526.6,4519.5,4517.9,4517.7,4685.89,4724.11,4752,4768.22,4775.89,4728.9,4767.8,4791.5,4820.5,4831.1,4845.9,4849.8,4868.2,4898.8,4910.5,4926.1,4937.3,4929.5,4921.7,4899.2,4872.4,4853.1,4826.5,4815.2,4796.4,4770.8,4745.3,4745.7,4734.9,4742,4742.3,4742,4742.2,4760.5,4775.1,4786.2,4808.9,4827.2,4846.3,4831.2,4823.7,4801,4771.2,4752.9,4734.4,4702.2,4673.6,4666.4,4677.2,4699.3,4728.8,4718.4,4700.7,4701.6,4691.3,4666.9,4643.4,4610.1,4576,4542.7,4536.8,4536.8,4536.8,4533.5,4544.9,4553.9,4575,4591.6,4598.2,4621.9,4646,4672.4,4689.1,4698.8,4701.4,4707.8,4711.3,4725.7,4725.4,4700.4,4679.3,4672.5,4685.11,4673.44,4665.78,4661.78,4653.89,4650.78,4654.67,4655.11,4639.67,4631.89,4619.78,4604.78,4581.33,4569,4538.44,4515.56,4504.22,4481.89,4474.44,4467,4459.33,4459.22,4459.67,4467.33,4475,4486.89,4498.33,4509.67,4518.11,4518.44,4515.22,4519.33,4523.11,4511.67,4511.11,4506.56,4495.22,4490.67,4476,4464.78,4446.11,4442,4434.56,4434.44,4424,4431.11,4438.33,4434.89,4449.33,4460.11,4467.89,4479.11,4497.44,4501,4504.89,4505.44,4512.89,4498.89,4502.89,4491.89,4480.33,4462.89,4451.67,4429.89,4418.78,4397.56,4379.56,4358.78,4351.56,4334.89,4325.33,4315.11,4308.67,4289.44,4282.89,4277,4267.33,4257.78,4241.89,4233.56,4224.56,4209.22,4214.44,4209.11,4210.67,4208.56,4210.22,4211,4217.11,4223.44,4225.11,4233.89,4232.44,4242,4248,4256.89,4259.22,4248.11,4244.56,4241,4237.67,4230.89,4223.22,4216.44,4212.56,4208.67,4214.11,4207.22,4213.22,4216.22,4213.11,4209.67,4209.33,4203.11,4193.56,4184.22,4175.22,4166.33,4154.67,4142.56,4134.11,4116.56,4107.44,4098.78,4099.11,4090.33,4087.78,4096.78,4094.33,4094.56,4095.67,4092,4101.89,4102.11,4099,4103.56,4090.89,4085.22,4084.44,4072.67,4060.22,4048.33,4039.44,4013.22,4001.44,3993.11,3978.56,3970.11,3964.56,3958.44,3958.56,3960.89,3955.78,3961.33,3960.56,3971.78,3977.56,3986,3992,4009.33,4015.22,4024,4036.11,4045.11,4057.44,4060.44,4109.1,4113.9,4111.3,4113.9,4104.8,4098.4,4086.4,4063.9,4039.1,4015.3,3994,3968.1,3940.1,3910.1,3875.7,3859.4,3835.7,3812.3,3786.4,3765.8,3740.8,3715.8,3691.9,3677,3655.9,3634.4,3613.4,3595.1,3583.5,3578.9,3567.8,3492.22,3558.6,3465.33,3539.3,3523.7,3514.1,3492.9,3382.11,3357.56,3408.9,3379.6,3348.4,3326.3,3233.22,3212.89,3183.67,3159.67,3136.44,3119.11,3101.67,3076,3059,3116.5,3093.3,3073.3,3046.9,2965.44,2943.33,2943.5,2927.7,2911.9,2896.1,2889.2,2879.78,2875.11,2870.78,2878.22,2887.44,2887.56,2894.89,2897.89,2907,2928.44,3018.6,3107.9,3212,3337.9,3502.22,3676.78,3870.44,4087.89,4269.1,4327.2,4351,4381.5,4400.1,4402.9,4415.5,4419.2,4430.9,4440,4433.6,4426.8,4423.2,4416.3,4415.6,4414.7,4417.4,4417.3,4426.8,4423.5
4552.22,4548.22,4567.86,4596.33,4584.67,4579,4596.5,4495,4545.5,4495,4671.57,4670.22,4674.22,4670.44,4677.89,4709.44,4725.33,4770.44,4793.5,4797.1,4797.1,4808.4,4834.6,4842.1,4853.2,4856.9,4872.7,4886.9,4921.3,4955.8,4971,4985.8,5000,4996.6,5000,5000,5000,5000,5000,5000,5000,5000,5000,5000,5000,5000,5000,4996.6,5000,4993.2,4989.2,4981.5,4966.6,4963.3,4963.1,4970.1,4973.7,4977.4,4973.7,4969.8,4962.6,4955.2,4955,4955.2,4948.2,4941.4,4930.6,4926.7,4911.5,4907.2,4899,4887.7,4887.3,4891.3,4898.6,4902.2,4909.9,4906.5,4907,4902.8,4891.5,4887.7,4884.6,4897.33,4903,4912,4907.5,4912.5,4935,4948.62,4953.75,4977.38,4977.25,4982.25,4986.5,4981.62,4976.88,4976.88,4976.88,4967.62,4954.38,4954.12,4949.12,4952.29,4949,4963.17,4968.43,4956.5,4953.38,4943.75,4939.12,4939.38,4944.38,4936.86,4952.29,4962.43,4917.38,4973,4973,4967.71,4917.38,4917.38,4869.33,4864.56,4860.33,4864.11,4859.67,4867.33,4875.56,4879.33,4878.89,4883.22,4887.44,4880,4867.33,4850.44,4841.67,4841.33,4845.33,4862.11,4879,4883.67,4891.67,4896.11,4852.9,4841.7,4834.1,4819.2,4807.9,4798,4774.4,4743.7,4809.89,4697.2,4668.8,4659.86,4604.83,4798.86,4793.43,4761.22,4757.33,4749.22,4753.44,4765.22,4752.67,4756.44,4756.56,4752.33,4740,4739.78,4728.22,4728.67,4720.89,4717.11,4717.56,4709.67,4701.67,4694.22,4544,4537.3,4513.3,4653.11,4486.9,4480.2,4479,4652.22,4671.56,4716.67,4763.44,4775.33,4799.78,4757.1,4785.5,4828,4853.4,4872.2,4872.4,4872.2,4895.4,4907.1,4918.3,4933.8,4933.2,4929.4,4918.1,4891.3,4864.3,4852.9,4833.9,4822.6,4803.8,4785.3,4770.5,4766.8,4763.2,4763.2,4763.1,4763.3,4770.5,4778,4793,4800.8,4812.1,4846,4845.9,4846.1,4827.1,4804.2,4777.9,4755.8,4733.7,4708.3,4679.5,4669,4679.8,4708.7,4745,4745.4,4730.8,4720.3,4713.6,4696.4,4665.4,4624,4591.2,4550.9,4544.8,4548.2,4545.4,4545.6,4556.3,4568.9,4583.3,4593,4613.1,4626.8,4653.3,4674.1,4690.9,4697.5,4700.9,4703.9,4711,4714.6,4707,4693.3,4689.7,4679.6,4665.8,4685.22,4681.33,4665.67,4657.89,4658.44,4651,4646.78,4631.22,4627.22,4611.56,4596.78,4581.33,4558.11,4527,4504.78,4497,4474.89,4474.56,4459.44,4452.22,4455.67,4466.67,4478.33,4482.56,4497.89,4516.89,4528.78,4536.33,4547.89,4540.89,4529.44,4529,4521.44,4520.67,4512.78,4497.89,4490,4479.11,4464,4460.11,4452.56,4445.56,4438.11,4438.56,4456.22,4456.56,4456.56,4474.56,4485.89,4501,4516.22,4523.67,4535.11,4539,4543.33,4540.33,4529.56,4518.56,4503.67,4492.56,4474,4455.22,4437.33,4409,4390.78,4370.11,4359.11,4342.22,4329.22,4309.11,4302.33,4289.89,4283,4270.44,4267.56,4260.89,4251.44,4232.11,4229.44,4210.56,4207.44,4202.89,4206.78,4205.11,4209.11,4210.67,4217.33,4230.67,4233.33,4229.44,4238.33,4237.67,4249.89,4246,4244.67,4244.89,4250.89,4247.11,4233.78,4227.56,4220.67,4213.33,4203.11,4196.11,4198.78,4195.22,4194.78,4197.44,4203.56,4196.89,4190.78,4187.33,4190.67,4187.67,4172.22,4163.11,4154.22,4139.56,4127.78,4116.56,4105,4090.33,4085,4088.22,4085.78,4089.33,4086.11,4096,4095.89,4094.11,4100.44,4097.33,4096.89,4100,4105.44,4099.67,4094.89,4088.78,4082,4066.22,4048.89,4039.89,4019.22,4002,3993.56,3984.67,3973.22,3964.67,3959.33,3962.78,3953.89,3953.33,3953.11,3952.56,3958.22,3968.89,3977.78,3986.11,3996.89,4006.33,4020.89,4032.44,4033,4051.44,4110.3,4115.6,4118.4,4121.3,4117.9,4114.7,4117.1,4093.1,4065.3,4040.4,4018.5,4000.1,3974,3943.4,3913.1,3883.5,3854.9,3836.5,3817.8,3799,3773.2,3747.9,3723.5,3708.2,3687.2,3665.1,3647.9,3622.7,3599.6,3588.2,3585.3,3565.2,3554.4,3487.22,3465.11,3456.22,3525.5,3510,3492.4,3375.89,3443.3,3414.2,3381.7,3360.7,3337.3,3316.9,3197.78,3173.89,3156,3134.67,3117.11,3098.11,3081.11,3064.22,3045.44,3027.22,3105.6,3085.6,3049.6,3002.3,2924.44,2940.1,2922.2,2905.7,2884,2882.44,2879.56,2873.67,2882.67,2893.44,2895,2898,2902.56,2945.3,2961,3015.2,3093.3,3194.8,3326.9,3482,3656.67,3845.11,4044.33,4232.6,4307.7,4341.2,4359.7,4365.4,4371.2,4384.2,4390,4393.2,4392.3,4391.4,4387.9,4374.8,4368.4,4355.7,4361.2,4361.3,4367.6,4370.1,4379.3
4529.56,4533.22,4515.2,4573.33,4584.67,4579,4579,4580,4596.33,4654.17,4657.25,4658.22,4661.89,4658.22,4669.78,4693.44,4721.33,4770.67,4793.7,4789.6,4804.7,4808.4,4835,4842.3,4842.2,4845.8,4857.5,4872,4913.6,4948,4967.1,4985.8,4996.6,4996.6,5000,5000,5000,5000,5000,5000,5000,5000,5000,5000,5000,5000,5000,4996.6,4989.8,4989.8,4977.9,4970.3,4959.5,4959.3,4963.1,4966.7,4973.7,4973.7,4970,4966,4958.5,4958.6,4951.4,4951.7,4948.8,4934.6,4935.3,4923.5,4916.6,4896.5,4888.4,4884.9,4884.6,4876.4,4880.3,4868.9,4876.2,4884.1,4891.3,4879.9,4876,4876.5,4854.22,4859.22,4863.89,4867.44,4876.22,4914.57,4930.29,4952.29,4963,4967.71,4974.14,4981.62,4976.88,4971.88,4967.12,4967.12,4953.38,4949.12,4939.88,4925.12,4925.12,4929.62,4936.57,4958.14,4953.38,4908.78,4898.9,4887.9,4867.56,4864,4847.89,4848.33,4852.44,4856.78,4861.11,4869.33,4870,4881.33,4866.5,4873.11,4869,4864.22,4860,4863.89,4859.78,4867.56,4871.56,4883.33,4879.11,4874.67,4866.67,4859,4841.44,4829.22,4825.33,4821,4829.22,4853.78,4866.22,4870.89,4883.67,4887.89,4879.33,4871.11,4875.44,4858.33,4846,4841.78,4830,4814,4809.78,4797.89,4667.1,4638.9,4616,4794.14,4570.11,4562,4559.2,4553.9,4741.33,4741.78,4733.11,4728.78,4724.11,4728.44,4720.22,4712.44,4712.44,4705.67,4701.33,4697.56,4693.78,4686.33,4674.89,4671.67,4644.89,4638.33,4623.44,4616.22,4450.4,4446.4,4620.22,4453.6,4482.8,4552.6,4636.6,4791.78,4820.11,4772.9,4811.1,4853.6,4879.8,4891.3,4887.5,4887.5,4899.2,4922.1,4922.1,4922.1,4925.5,4929.9,4906.9,4895.1,4860.5,4856.7,4837.6,4818.9,4800.1,4785.1,4766.7,4766.7,4763,4763,4759.3,4763,4766.6,4785.2,4792.7,4793,4826.7,4830.7,4842.1,4838.3,4823,4800.3,4763.1,4748.3,4726.4,4697.4,4679.5,4679.5,4686.8,4715.5,4752.1,4752.2,4737.5,4734.2,4727.2,4702.6,4678.5,4637,4603.1,4563.8,4557.4,4551.3,4547.5,4557.8,4571.5,4575.1,4584.8,4595.1,4615.6,4632.3,4652.9,4680.7,4676.5,4690.4,4700.5,4688.8,4696,4699.5,4692.4,4692.3,4685.8,4683,4672.5,4666.3,4681,4673.33,4665.78,4662.33,4654.44,4646.22,4635,4623.11,4607.78,4595.67,4576.67,4553.67,4523.11,4508,4482.11,4470.89,4463.33,4456,4455.89,4459.22,4474.11,4489.56,4497.22,4520.44,4532.22,4547.22,4562.67,4566.89,4563.22,4559,4558.33,4553.78,4535,4526.44,4511.33,4496.67,4492.78,4482,4478.11,4474.33,4470.56,4463.44,4467.33,4478.56,4485.56,4493.11,4504.56,4527.11,4538.33,4553.89,4569.33,4565.44,4566.11,4566.67,4567.44,4564,4545.22,4530.33,4516,4489.56,4467.67,4441.67,4416.78,4398.67,4374.11,4346.11,4336.22,4319.44,4310,4296.78,4283.67,4266.89,4264.11,4251.11,4244.89,4238.56,4228.78,4216.56,4212.89,4207.33,4214.67,4208.89,4216.22,4220.11,4218.33,4228.11,4232,4237.22,4247.33,4249.33,4248.89,4252.33,4257.89,4253.56,4253.56,4243.44,4240,4239.78,4223.44,4213.56,4206.89,4193.44,4186.67,4182.78,4188.44,4188.11,4184.78,4188.11,4191.22,4178.33,4178.44,4178.56,4166,4159.78,4151.22,4142.22,4131.11,4122.56,4111.44,4097,4088.89,4091.89,4087.33,4085.33,4079.44,4085.11,4088.22,4092.44,4099.78,4102.33,4111.56,4105.67,4108.22,4111.11,4104,4106.78,4093.11,4086,4064.56,4043,4039.89,4020,4008.33,3996.78,3979.78,3971.11,3962.78,3962.44,3960.11,3951.33,3948.22,3939.44,3947.67,3955.89,3960.78,3977.22,3979.89,3983.11,4000.11,4011.22,4023.44,4035.33,4056.78,4109.8,4115.9,4115.5,4113.3,4118.5,4116.2,4114.7,4091.5,4060.8,4043.6,4019.6,3993.2,3972.1,3944.1,3916,3877.2,3858,3834.5,3818.4,3797.3,3773.7,3753.5,3729.1,3710.8,3690.1,3670.8,3645,3625.6,3600.1,3590.1,3578.6,3560.1,3550.8,3545.8,3462.89,3445.33,3421.89,3402.78,3479.3,3361.67,3341.44,3412.4,3391.3,3364,3238.67,3216,3190.22,3166.44,3148.78,3125.89,3110.33,3096.89,3081.33,3200.9,3049.11,3036.11,3017.67,3003.22,3077.4,3026.6,2924.56,2910.67,2934.5,2915.1,2884.11,2884,2880.89,2876.56,2879.56,2891.78,2893.44,2894.89,2903.78,2946,2960.8,3006.1,3082.5,3187.8,3319.1,3479,3638.33,3824.44,4021.67,4213.1,4297.4,4327.8,4345,4342.7,4354.9,4358,4357.7,4357.3,4353.7,4350.6,4346.8,4334.1,4327.7,4324.5,4315.4,4321.5,4327.3,4330.3,4339.1
4512.62,4516.75,4495.25,4573.33,4573.33,4562,4579,4579,4596,4630.43,4639.12,4634.33,4634.33,4642.11,4653.78,4681.44,4705.11,4754,4782.2,4789.5,4804.4,4812.1,4831,4842.3,4845.9,4849.7,4846.4,4875.7,4906.1,4936.3,4959.3,4978.5,4992.6,4996.6,4996.6,5000,5000,5000,5000,5000,5000,5000,5000,5000,5000,4996.22,4996.6,4996.6,4993.2,4981.8,4977.9,4966.9,4955.5,4951.6,4962.7,4966.7,4970.3,4970.3,4970,4962.2,4958.5,4955,4951.4,4948.3,4945.4,4935.3,4935.4,4928,4912.7,4897.8,4889.3,4866.3,4858.2,4850.6,4850,4853.3,4841,4853.2,4864.4,4856.9,4853.1,4837,4837.44,4854.67,4863.89,4872,4872.78,4884.89,4893.22,4909,4925.8,4923,4923.22,4930.78,4967.12,4967.12,4957.62,4944,4905.33,4901,4899.2,4898.7,4898.5,4899.67,4920.38,4925,4915.38,4906.12,4909.7,4894.6,4883.8,4876.5,4846.44,4838.11,4834.44,4847.22,4834.89,4851.44,4852,4856.33,4865,4868.44,4860.22,4864,4859.89,4855.78,4859.67,4871.67,4867.89,4875.44,4870.67,4862.33,4858.44,4833.44,4820.56,4812.22,4791.89,4796.22,4812.78,4829.33,4846,4845.78,4866.67,4870.67,4879.33,4867.11,4862.67,4858.56,4845.78,4829.33,4821.67,4809.89,4793.56,4785.33,4781.89,4622.3,4596,4578.2,4536.88,4543.33,4525.22,4524.5,4709.67,4709.44,4709.33,4705.11,4704.67,4701.11,4697,4693,4681.56,4682.11,4674.56,4678.33,4670.44,4663,4656.11,4641.89,4619.67,4443,4434.5,4431.67,4422.44,4394.8,4400.3,4415.4,4443.4,4536.9,4617.9,4684.3,4841.22,4782.5,4842.4,4880.4,4910.8,4918.4,4906.7,4895.1,4910.7,4917.9,4914.7,4914.7,4918.7,4910.8,4895.2,4879.5,4864.3,4841.5,4830.1,4815.1,4800.1,4788.8,4774,4770.4,4770.4,4770.4,4766.7,4770.3,4774,4785.2,4796.5,4800.5,4808.1,4826.7,4830.4,4830.4,4811.5,4785.4,4752,4737.3,4719,4686.7,4679.5,4672.4,4679.6,4708.3,4748.3,4744.9,4737.5,4730.5,4727.3,4695.3,4671,4632.7,4592.5,4572.7,4566.7,4559.9,4556.8,4563.8,4574,4584.1,4590.6,4605.2,4625.7,4629,4642.9,4656.1,4665.9,4672.3,4671.7,4678.4,4681.3,4684.8,4688.3,4681.9,4671.1,4675.5,4669,4662.4,4684.56,4676.67,4673.11,4673.33,4657.89,4649.56,4642,4622.67,4607,4591.89,4580,4549.78,4519.22,4500.56,4481.89,4470.78,4456.33,4449.22,4456.22,4470.78,4478.78,4493.67,4512.89,4535.56,4543.78,4562.67,4578,4578.22,4581.89,4581,4572.67,4560.11,4555.89,4537.11,4533.22,4514.44,4510.67,4506.89,4495.89,4492.44,4488.78,4489.11,4496.67,4508,4508,4534.44,4545.67,4568.33,4569.33,4588.44,4604.67,4600.44,4601.22,4594.11,4594.56,4590.78,4564.89,4550.11,4527.89,4505,4483.11,4449.56,4428.11,4409.44,4381.78,4360.67,4340.22,4316.44,4300.22,4290.78,4283.67,4273.67,4260.78,4254.56,4245.11,4238.33,4229.11,4226.33,4213.56,4214,4217.78,4227.89,4231.67,4232,4232.78,4239.33,4252.56,4259.11,4259.11,4267.78,4274.11,4270.33,4263.33,4265.89,4266.33,4256,4248.67,4238.78,4222.22,4206.33,4199.22,4183.33,4176.78,4176.22,4185.22,4175.33,4172.44,4172.67,4172.67,4169.11,4172.44,4172.56,4156.89,4151,4145.56,4137.11,4119.67,4111.44,4097.67,4095.44,4087.11,4088.44,4083.22,4083.78,4087.11,4087.44,4099.67,4097.89,4102.44,4111.44,4115.33,4108.11,4114.78,4113.44,4109.56,4111.22,4100.33,4084.22,4071.11,4055.44,4049.22,4034.11,4016.89,4002.33,3994,3976.56,3974.11,3967.89,3973.89,3957.33,3951.33,3945.78,3950.89,3950.56,3956.56,3967.11,3974.89,3983.22,3988.44,4002.44,4011.33,4029.11,4037.89,4102.7,4108,4107.7,4116.1,4111.7,4110.9,4101.4,4091.8,4066.2,4035.9,4011.5,3996,3967.5,3934.2,3902,3870.4,3851.3,3830.7,3817.4,3798.6,3772.2,3754.1,3734.5,3716,3697.2,3669.4,3648,3630.2,3602.7,3588.5,3572.1,3554.3,3542.4,3535,3522,3507.4,3495.7,3480.7,3471.3,3452.2,3430.1,3410.8,3386.4,3365.7,3350.6,3333.7,3322.3,3162.67,3141.33,3120.56,3112,3098.44,3081.44,3254.4,3233.1,3207,3024.56,3008.33,3107.6,3051.5,2931,2912.11,2901.22,2888.78,2885.56,2883.89,2884,2880.89,2884.11,2893.11,2894.67,2896.11,2899.11,2906.67,2929.78,2975.56,3068.5,3179.4,3309.8,3466.3,3620.78,3807.67,4002.9,4186,4284.6,4313.9,4329.7,4338.6,4332.5,4335.3,4338.1,4331.5,4334.3,4328,4318.4,4306.1,4296.6,4293.5,4290.5,4296.8,4302.5,4305.6,4317.6
4467.43,4476.57,4487.25,4540,4562,4562,4579,4579,4596,4607.5,4621.75,4618.89,4622.67,4626.67,4645.89,4661.78,4701.22,4745.78,4782.1,4789.4,4800.6,4812,4831.2,4842.4,4839,4849.8,4850.1,4868.2,4894.8,4932.6,4959.3,4974.7,4985.3,4992.6,4992.6,4996.6,5000,5000,5000,5000,5000,5000,5000,5000,5000,4996.6,4992.6,4989.2,4977.9,4977.9,4973.9,4962.9,4951.6,4951.6,4959.3,4962.9,4970,4970.6,4966.1,4966,4958.6,4955,4955.6,4952.2,4952.8,4939.3,4932,4931.3,4909.5,4878.8,4859.5,4847,4835.6,4835.2,4831,4827.1,4830.4,4834.3,4841.6,4842.1,4837.9,4828.78,4837.44,4850.22,4859.22,4876.33,4876.67,4885,4896.89,4914.7,4922.4,4926.9,4919.7,4923.7,4918.33,4909.89,4897.78,4903.4,4896.6,4892.5,4876.7,4880,4876.1,4883.7,4898.5,4902.9,4909.9,4913.7,4906.1,4898.8,4879.7,4876.1,4837.33,4829.33,4833.33,4825.56,4825.78,4830.56,4834.89,4847.11,4843.22,4851.44,4851.89,4859.89,4852,4855.67,4859.78,4868,4872.22,4871.67,4866.89,4845.67,4841.56,4828.67,4799.89,4787.78,4779.89,4775.78,4788.44,4808.67,4825.11,4837.44,4854.22,4858.56,4866.89,4858.67,4862.67,4846.11,4845.89,4825.11,4812.89,4805.33,4793.33,4773.22,4768.89,4598.6,4574.8,4557.9,4546.5,4538.8,4524.5,4507.5,4685.44,4685.44,4677,4681.22,4681.67,4673,4677.33,4673.33,4661.89,4659.11,4655.44,4655.67,4655.67,4644.44,4633.78,4623.33,4602.22,4575.56,4556.56,4384.3,4390,4375.22,4344.89,4377.7,4409.5,4511.9,4597.6,4637.89,4822.12,4781.2,4843.4,4899.5,4922.5,4930.2,4918.5,4902.9,4903.1,4903.1,4903.1,4891.3,4879.7,4871.9,4864.3,4849.1,4841.5,4830.1,4818.7,4811.3,4792.5,4781.4,4770.3,4770.3,4781.4,4777.7,4766.6,4770.3,4774,4785.2,4792.7,4796.6,4807.9,4819,4826.5,4826.4,4800.4,4774,4741,4722.7,4701,4679.5,4672.3,4668.8,4676,4704.6,4733.8,4741.1,4737.6,4726.8,4716.4,4688.2,4660.4,4618.8,4598.8,4571.8,4572.7,4572.8,4576.3,4580,4579.8,4593.5,4600.1,4613.9,4618.4,4628.1,4642.2,4659.4,4658.8,4657.6,4664.1,4663.5,4666.8,4674,4684.6,4674.3,4675,4674.9,4668.8,4669.6,4692.33,4684.33,4680.67,4676.67,4664.89,4645.56,4641.89,4626.11,4606.44,4591.33,4568.67,4542,4519.67,4497,4482.22,4474.56,4466.89,4452.78,4463.33,4478.11,4493.44,4519.89,4531.89,4539.56,4574.22,4586.33,4597.56,4601.11,4600.22,4595.56,4598.67,4578.44,4574.11,4562.44,4540.11,4536.33,4532.56,4528.67,4514.33,4514.67,4511.56,4518.67,4522.56,4534,4553,4568.67,4576.78,4607.67,4620,4624,4640.78,4640.44,4636.11,4628.67,4621.11,4610.22,4584,4565.44,4546.56,4520.78,4496.89,4460.89,4442.44,4417.11,4395.89,4374.89,4343.56,4322.89,4307.33,4297.11,4290.33,4277,4260.78,4254.33,4244.67,4238.11,4238.67,4229.33,4232.67,4233.11,4229.89,4241.56,4247.22,4254.22,4261.33,4271.44,4274.44,4277.56,4283.89,4290.33,4289.56,4289,4285.89,4288.89,4278.33,4264.89,4251.89,4241.33,4231,4214.89,4198.22,4189.11,4179.33,4178.89,4175.44,4169.11,4175.22,4159.89,4163,4169.44,4169.56,4156.89,4147.67,4142.22,4134.11,4122.67,4114.22,4106.11,4104.22,4093.56,4079.11,4089.11,4087.22,4095.33,4098.67,4096.33,4102.33,4106,4104.67,4116.78,4118.56,4118,4123.89,4123.33,4118.78,4114.33,4109.67,4099,4092.22,4069.44,4059.22,4044.11,4032.33,4014.56,4009,3991.67,3979.44,3976.56,3980.22,3974,3954.67,3952,3957.67,3948.78,3957.33,3962.44,3970.67,3981.44,3983.78,4003.33,4014.89,4026.56,4029.33,4100,4106,4106.3,4108.8,4109.2,4106.2,4099.8,4083.7,4060.7,4033.5,4004.3,3988.6,3957.7,3927.4,3899.8,3868.8,3849.5,3821.8,3807.7,3791.6,3775.1,3757.4,3729.7,3717.2,3695.5,3674.1,3652.4,3626.8,3600.8,3582.3,3566.1,3546,3530.5,3519.5,3506.6,3498,3480,3471.6,3460.4,3448.2,3427.8,3410.2,3394.5,3236.33,3362.4,3346,3334.2,3325.4,3134.22,3120.33,3103.22,3096.56,3081.22,3078.11,3258.1,3247.6,3220.9,3194.1,3146.4,2971.11,2939.11,2918.44,2905.89,2896.44,2888.89,2885.44,2881.11,2882.56,2885.56,2890.11,2894.78,2894.78,2897.67,2906.78,2925.44,2966.11,3043.22,3161.33,3303.9,3454.2,3605.33,3786,3978.6,4171.2,4278.3,4304.3,4316.4,4319.4,4316.2,4316,4309.6,4312.5,4305.9,4305.7,4290.4,4287.3,4278.5,4266.7,4269.8,4269.7,4278.6,4284.6,4296.3
4504.11,4503.78,4540.67,4562.5,4554,4584.67,4584.67,4584.67,4596.25,4596.12,4599.89,4603.56,4619,4615.22,4626.78,4646.44,4685.44,4737.67,4770.8,4781.7,4800.3,4804.2,4834.4,4838.7,4843,4846.7,4846.1,4864.7,4898.8,4936.8,4955.5,4974.7,4981.5,4988.7,4988.7,4992.6,4996.6,5000,5000,5000,5000,5000,5000,5000,5000,5000,4993.2,4985.2,4985.2,4974,4970.1,4955.2,4944.2,4940.4,4944.2,4959,4962.7,4966.6,4958.7,4962.6,4958.6,4962.7,4955.6,4956.2,4949.4,4942.1,4935.4,4931.3,4920.5,4874.9,4851.8,4832.2,4817.1,4816.3,4815.9,4808.3,4811.9,4823,4826.8,4830.9,4830.8,4816.56,4821,4842.33,4864.56,4876.89,4888,4896.5,4899.8,4903.9,4915,4922.9,4919.1,4923.7,4922.8,4908.8,4900.6,4896.6,4892.5,4884.7,4869.4,4869.1,4869.1,4872.7,4891.4,4899.2,4906.3,4913.7,4903.5,4891.1,4875.9,4872.3,4837.67,4829.44,4821.11,4817.11,4808.89,4817.67,4817.78,4826.22,4830.33,4838.56,4843.44,4847.56,4851.89,4856,4859.78,4868.11,4872.22,4867.56,4862.44,4845.67,4833.33,4820.67,4792,4784.11,4759.78,4768.11,4784.22,4796.22,4812.78,4829.33,4842,4854.67,4859,4854.67,4850.67,4854.67,4833.67,4816.89,4812.78,4792.44,4772.44,4772.44,4756.44,4592.8,4565.1,4555.2,4539.7,4519.9,4507.2,4491.6,4672.89,4668.67,4657.56,4653.78,4658,4658.11,4654.11,4654.11,4647.56,4639.56,4648.22,4640.78,4637,4622.78,4618.89,4597.56,4578,4556.11,4530.33,4608.25,4321.56,4307.56,4318.56,4400.63,4443.75,4508.63,4559,4627.56,4705.5,4783.7,4844.2,4891.7,4906.9,4914.6,4895,4883.5,4875.9,4879.8,4872,4864.3,4845.4,4830.3,4826.4,4811.3,4799.9,4800,4781.4,4781.5,4774,4770.3,4766.6,4766.7,4770.4,4774,4774,4770.3,4774,4777.7,4781.5,4785.3,4792.7,4796.5,4811.4,4796.5,4774,4748.4,4715.5,4697.4,4686.7,4665.2,4658.1,4665.3,4683.1,4697.5,4726.6,4744.8,4741.3,4730.5,4709,4691.2,4653,4629.1,4605.1,4588.6,4588.4,4585.3,4592.6,4599.6,4599.6,4610,4616.7,4627.9,4627.9,4624.4,4637.7,4651.6,4650.6,4650.5,4643,4652.7,4681.67,4667,4670.5,4667.3,4671.3,4675.2,4668.4,4662.2,4692.11,4680.22,4676.56,4676.67,4664.67,4657.11,4637.44,4618.11,4606.22,4579.78,4557.11,4534.56,4515.56,4493.44,4486,4474.67,4463.44,4463.78,4478.22,4489.56,4508.33,4523.56,4546.78,4563.22,4586.11,4609.11,4620.11,4620.11,4611.89,4618.78,4606.33,4601.44,4585.89,4570.11,4569.78,4562.22,4547.33,4543.67,4540.11,4533,4533.56,4537.67,4549.56,4568.89,4584.33,4592.78,4627.56,4639.44,4651.78,4659.89,4675.78,4675.22,4667.11,4651.89,4636.67,4621.78,4606.33,4580.44,4561.67,4539.33,4508.44,4478.78,4453.56,4424.11,4402.67,4388.67,4357.44,4333.33,4320,4309.78,4293.56,4276.67,4270.33,4261,4254.22,4248.33,4248.78,4242.67,4239.78,4240,4246.67,4253.44,4264.22,4277.89,4284.89,4291,4297.78,4307.22,4314.22,4313.22,4312.89,4309.44,4305.11,4308.22,4288.44,4274.44,4260.89,4247.11,4236.89,4220.44,4204.33,4194.33,4182.22,4181.56,4178.22,4175,4168.67,4171.89,4166.11,4166.33,4163.11,4150.78,4151.44,4142.67,4140.89,4135.67,4124.33,4122,4105.22,4103.89,4095.89,4103.11,4101.89,4106.11,4106.67,4116.33,4110.22,4112.33,4112.89,4116.67,4127.11,4120.56,4122.56,4128.56,4125.22,4123.44,4124.89,4111.33,4107.56,4090,4080.22,4064.56,4055.33,4031.22,4019,4012.44,3994.22,3988.56,3974.67,3977.89,3963.44,3955.22,3952.22,3958.89,3961.56,3966.78,3969.44,3979.67,3990.33,4004.22,4012.44,4021,4030.22,4098.9,4103.8,4103.6,4106.8,4102.2,4101.4,4091.9,4081.5,4045,4025.7,4001.9,3975.4,3949.9,3929.7,3897.2,3858.8,3837.1,3826.3,3808.2,3791.3,3773.2,3747.9,3734.4,3719.3,3701.8,3681,3650.7,3627,3595.2,3576.8,3554.1,3531.9,3519,3505.3,3487.8,3476.5,3461.2,3452,3345.56,3323.67,3302,3401.6,3387.7,3379.7,3366.9,3350.5,3349.4,3338.4,3321,3116.78,3108.44,3290,3281.1,3271.8,3259.9,3247.8,3237.4,3219.4,3184.3,2977.78,2943.89,2924.89,2912.11,2898,2888.78,2887.22,2885.67,2879.78,2882.78,2891.89,2895,2895,2898,2905.44,2949.4,2982.7,3039.78,3152,3294.6,3443.7,3588.78,3764.56,3950.6,4131.7,4250.6,4288.8,4300.2,4296.8,4300.1,4296.6,4293.9,4290.5,4284.5,4287,4277.8,4269,4263,4260.2,4254.6,4260.3,4255,4272.9,4287.5
4506.3,4509.7,4533.5,4548.8,4555.6,4569,4587.5,4587.5,4596.25,4591.88,4588.44,4588.44,4599.89,4603.78,4611.56,4642.33,4685.67,4737.56,4774.2,4781.6,4785.4,4807.7,4834.3,4842.6,4850.6,4850.7,4849.6,4868.5,4902.7,4936.8,4951.8,4970.9,4984.9,4984.9,4988.7,4988.7,4992.6,4996.6,4996.6,5000,5000,5000,5000,5000,5000,5000,4996.6,4989.2,4981.3,4966.2,4962.8,4955.3,4940.4,4940.4,4943.9,4947.3,4958.7,4955.3,4959,4958.6,4962.7,4959.3,4959.7,4956.2,4956.2,4945.4,4930.8,4923.5,4912,4866.4,4850.8,4828.6,4824.3,4816.4,4812.1,4804.6,4804.5,4808.4,4827.1,4827.4,4812.78,4813.44,4834.56,4843.56,4867.89,4880.56,4892.33,4899.4,4899.5,4907.7,4911.6,4922.4,4922.9,4917,4923.8,4916.1,4897.3,4892.7,4885.3,4881,4869.3,4865.8,4865.9,4869.3,4884.3,4895.9,4903.1,4910.8,4899.1,4887.8,4866.67,4866.67,4841.44,4820.89,4812.56,4804.44,4796.33,4793.44,4798,4821.56,4821.89,4830.56,4835.44,4843.22,4852.11,4856,4864,4872.22,4868.56,4868.11,4858.44,4841.56,4833.11,4812.56,4796.22,4772.33,4756.33,4756.56,4764.44,4780.44,4805.33,4825.89,4834.11,4851.11,4855.78,4850.89,4846.11,4837.56,4829.56,4821.11,4809,4804.56,4775.89,4771.89,4760.33,4735.44,4723.22,4711.22,4691.11,4512.3,4499.7,4481.6,4652.22,4652.56,4637,4633.56,4633.89,4633.89,4634.67,4631,4627.56,4624.33,4621.44,4618.22,4618.44,4615.33,4601.33,4580.33,4564.22,4539.56,4518.33,4498.22,4487.11,4478.75,4304.86,4586.17,4673.17,4512.13,4576.38,4665.22,4711.6,4767.4,4833.2,4884.5,4899,4891.3,4868.1,4856.8,4856.8,4845.5,4834,4822.6,4811.3,4796.4,4792.6,4788.9,4785.2,4781.4,4770.3,4766.6,4770.4,4762.9,4766.7,4774.1,4777.8,4774,4770.3,4774,4770.3,4774,4774.1,4774.1,4777.8,4777.8,4781.5,4763,4744.6,4711.8,4686.7,4668.7,4654.5,4640.5,4644,4661.8,4679.5,4701,4722.9,4733.9,4745,4730.5,4712.6,4684.1,4659.9,4635.5,4618.6,4601.4,4601.8,4608.6,4605.4,4612.4,4616.4,4616.2,4623.3,4633.8,4638.1,4637.3,4641.1,4647.7,4651.1,4640,4642.4,4652.8,4673.67,4685.44,4685.89,4661.1,4664.8,4669,4666,4666.4,4662.6,4688.11,4672.44,4676.56,4668.56,4656.78,4641.44,4621.67,4602.78,4580,4553.22,4545.44,4515.44,4500.44,4485.78,4471.22,4467.56,4464.11,4482.22,4490,4509.11,4531.89,4551.44,4567,4593.78,4609.44,4628.44,4627.67,4622.78,4630.33,4617.44,4609.44,4604.78,4593,4585.11,4573.67,4562.56,4558.78,4555.11,4559.78,4560.11,4564.44,4576.56,4596.11,4616.22,4623.78,4656.22,4672,4683.89,4695.78,4695.56,4695.67,4679.44,4664.44,4649,4637.56,4607.56,4595.78,4576.67,4542.67,4511.78,4493,4459.89,4441.67,4416.22,4388.67,4377.67,4350.44,4326.56,4323,4306.22,4289.56,4280,4276.89,4260.89,4261.22,4248.33,4262.22,4252.67,4256.67,4260.22,4280.33,4290.78,4300.56,4308,4315.44,4321.56,4331.56,4334.78,4337.11,4340.33,4329.67,4328.56,4321.33,4307.33,4290.67,4279.78,4263,4249.67,4229.56,4216.78,4210.33,4197.11,4191,4187.33,4184.22,4171.78,4181.33,4175.56,4166.33,4166.11,4163.78,4152,4146.78,4147.89,4142.67,4142.89,4132.67,4127.33,4120,4120.67,4116.44,4123.56,4122,4119.33,4116.44,4117.44,4118.44,4113.56,4120.56,4124.33,4121,4124.33,4130.44,4126.67,4124.44,4130.44,4126.33,4121.89,4110.56,4097.44,4084.89,4074.89,4055.44,4037.67,4027.33,4015.33,4000.11,4003.67,3989.44,3978.44,3969.78,3970.22,3967.89,3971.11,3971.33,3982.44,3984.56,3992.11,4002.44,4010,4015.89,4033.11,4096.7,4096.6,4102.4,4099.8,4101.3,4088.1,4086.8,4068.5,4036.6,4020.4,3999.1,3975.6,3947.3,3924.5,3887.2,3858.2,3839.6,3823.9,3809.6,3793,3770.4,3754.9,3741.4,3724.9,3711,3684.7,3657,3629,3597.3,3575.1,3548.1,3532.4,3507.3,3485.4,3467.8,3453.1,3448.5,3436.5,3428.6,3312,3286.33,3405,3244.11,3225.22,3204.67,3180.67,3168.22,3336.8,3134.33,3120.56,3110.22,3101.56,3088.33,3270.3,3261.3,3252.3,3236.1,3222.7,3209.7,3183.1,2950.56,2929.56,2912.33,2898.11,2891.89,2884.33,2881.22,2881.33,2880,2889.11,2893.67,2893.67,2896.56,2907.11,2925.44,2958.11,3036.11,3151.78,3292.5,3436.1,3579.11,3761,3934.9,4103.3,4220.6,4278.8,4287.3,4281.4,4281.1,4278.1,4269.3,4266.2,4265.7,4265.7,4256.8,4250.9,4248.2,4242.3,4242.5,4248.3,4251.6,4266.6,4281.1
4489,4496.33,4491.43,4517.83,4528.83,4550.83,4573.33,4581.43,4587.5,4580.89,4579,4591.88,4596.11,4596.11,4607.78,4623.33,4666,4730.3,4763.1,4766.7,4781.6,4803.9,4826.8,4838.5,4857.9,4858,4853.8,4876.5,4918.2,4944.1,4959.8,4977.7,4984.9,4984.9,4984.9,4984.9,4992.6,4992.6,4996.6,4996.6,4996.6,4996.6,5000,5000,5000,5000,4992.6,4989.2,4981.3,4970.1,4959,4948.5,4925.3,4928.7,4936.1,4939.8,4947.2,4947.6,4947.3,4947.5,4958.7,4958.9,4959.3,4955.7,4952.2,4944.9,4937.5,4929.6,4915.5,4862.3,4854.3,4831.5,4812.6,4815.8,4812.4,4804.8,4801,4804.8,4819.7,4827.7,4839.3,4840,4858.5,4858.6,4880.7,4892.4,4903.4,4903.2,4903.3,4911.4,4915.4,4915.6,4923.5,4927.1,4923.1,4915.4,4900.5,4889.3,4877.2,4873.5,4869.4,4854.7,4855.2,4855.78,4874.1,4889,4884.6,4895.7,4887.6,4883.8,4858.22,4868.5,4833,4816.11,4807.78,4795.56,4787.67,4787.78,4788.11,4797.11,4810,4818.44,4818.89,4835.33,4844.33,4848.67,4864.44,4872.56,4877.22,4863.78,4850,4846,4821.44,4805.11,4788.56,4764.44,4748.78,4752.67,4756.33,4773,4793.11,4809.89,4830.67,4835,4847.89,4838.67,4842.56,4838.33,4825.22,4808.89,4804.78,4779.78,4771.56,4751.22,4746.89,4726.56,4710.56,4698.89,4682.44,4507.9,4493.4,4465.89,4641.25,4632.38,4624,4617.56,4617.89,4614.44,4615,4603.89,4608.33,4609.11,4610.56,4599.33,4593,4590.44,4414.8,4419.78,4372.7,4519.67,4490.67,4465.56,4467.44,4460.86,4540.83,4512.43,4562.43,4426.63,4603.44,4648.33,4821.22,4759.5,4824.9,4869.1,4876,4871.9,4849.1,4837.7,4822.6,4815,4807.6,4800.1,4777.9,4774.2,4770.5,4770.5,4770.4,4763,4755.6,4755.6,4759.2,4766.7,4770.4,4770.4,4774.1,4770.4,4759.4,4759.4,4763.1,4766.7,4763.1,4763.1,4763.2,4759.5,4755.7,4744.6,4711.9,4704.6,4668.7,4640.6,4640.6,4633.6,4647.6,4668.8,4686.6,4708.2,4722.9,4737.5,4745.1,4723.2,4716.2,4691.1,4659.6,4645.7,4625.2,4617.9,4618.4,4607.8,4618.7,4629.4,4633.1,4626.2,4630.2,4640.5,4637.2,4634,4644.7,4654.3,4646.8,4643.2,4639.1,4673.67,4640.1,4651.1,4658.5,4658.6,4653.1,4652.7,4650.7,4648.2,4646.8,4639.3,4680.33,4664.89,4664.89,4652.78,4637,4618.11,4595.33,4580.11,4561.11,4534.89,4516,4500.78,4486.33,4486.22,4471.56,4472.22,4483.22,4494.56,4502.67,4525.11,4540.67,4559.44,4582.67,4605.44,4620.78,4623.78,4619.44,4626.22,4621.89,4617.22,4609,4605,4597.11,4585.56,4578,4581.78,4566.89,4571.11,4567.89,4583.44,4591.44,4619.22,4631.67,4648,4672.11,4695.89,4704.78,4708.56,4704.22,4703.67,4687.78,4672.22,4665.11,4645.67,4622.56,4603.22,4588.33,4560.33,4533.56,4507.11,4473.78,4452.22,4426.56,4405.11,4387.56,4370.67,4356.67,4336.22,4322.44,4305.89,4299.33,4286.33,4276.89,4270.89,4264.89,4265.22,4266,4272.89,4293,4297.22,4314.67,4315.44,4328.89,4335.67,4342.33,4356,4359.56,4359,4358,4357,4349.78,4345.56,4328.44,4304,4296.56,4279,4265.89,4248.89,4229.33,4216.78,4203.67,4203.33,4200.11,4193.67,4184.33,4181.33,4178.56,4179.33,4175.67,4170.33,4161.44,4156.22,4154.33,4155.33,4150.22,4142.44,4137,4137.67,4129.78,4120.89,4129.44,4130.22,4127.78,4122.11,4123.56,4117.78,4109.67,4116.67,4111.22,4111,4114.11,4117.11,4117.11,4116.56,4122.22,4121.33,4113.56,4111.56,4110.89,4103.78,4087.22,4077.44,4067.78,4048.33,4026.56,4017.89,4008.67,3997.89,3989.44,3979.11,3976.67,3965.67,3974.56,3983.56,3980,3985.11,3984,4003.67,4011.56,4025.89,4030.78,4034.33,4096.9,4102.6,4103,4102.8,4094.2,4087.3,4068.7,4042.8,4020.5,3993.7,3967.5,3947.5,3916.7,3859.89,3860.9,3842.1,3826,3809.7,3795.6,3772.5,3756.6,3736,3726.9,3710.6,3682.4,3656.7,3628.7,3592.9,3566.8,3544.2,3524.8,3499.8,3478,3458,3447.4,3430.4,3425.5,3332.11,3312.33,3290.44,3269.22,3242.44,3223.67,3205.22,3186.44,3172.11,3155.78,3141.56,3125.78,3115.44,3105.22,3093.56,3081.67,3071.56,3058.11,3043.33,3028.33,3212.5,2985.89,2955.33,2934.33,2913.78,2901.22,2888.89,2884.33,2877,2876.89,2875.67,2886.56,2887.89,2894,2899.78,2902.89,2920.89,2957,3031.11,3146.22,3290.9,3434,3574.33,3749.6,3912,4081.3,4205.9,4254.7,4268.8,4260.1,4259.8,4259.7,4253.7,4247.9,4250.6,4250.5,4242.1,4239,4239,4239.3,4236.6,4245.2,4251.3,4260.2,4275.2
4467,4458,4489,4529,4528.67,4562,4573.33,4579,4603,4588.56,4587.62,4587.62,4587.62,4600,4615.56,4623.44,4674.22,4733.9,4759.3,4762.9,4781.5,4800.2,4826.5,4838.3,4853.5,4853.8,4857.5,4883.8,4925.2,4947.9,4966.9,4981.1,4984.9,4984.9,4984.9,4984.9,4988.7,4992.6,4992.6,4992.6,4992.6,4992.6,4996.6,5000,5000,5000,4996.6,4992.6,4985.3,4970.7,4955.4,4948.2,4932.8,4925.3,4932.7,4947.2,4950.9,4947.6,4947.3,4947.3,4958.9,4954.8,4951.2,4959,4958.8,4944.4,4933.1,4932.6,4914.4,4884.3,4865.3,4849.6,4830.9,4819.5,4823.2,4812.4,4787.44,4812.6,4827.3,4835.4,4846.7,4854.2,4869.1,4880.1,4898.9,4906.6,4906.9,4918.5,4914.9,4922.7,4926.7,4919.4,4923.3,4923.6,4933.7,4919.2,4900.4,4884.5,4872.9,4865.8,4862.2,4855.3,4855.3,4851.78,4860.22,4874.7,4881.4,4877.1,4880.2,4879.8,4869.1,4865,4845.8,4812.11,4799.56,4783.11,4805,4801.4,4783.56,4792.33,4792.89,4802.11,4814.67,4830.89,4835.56,4848.56,4864.78,4873,4880.89,4871.78,4866.78,4850.44,4834,4804.89,4784.67,4760.44,4749.22,4748.89,4761.11,4777.33,4785.44,4806.11,4822.89,4840,4840,4843.56,4830.89,4830.22,4821.44,4770.5,4801.11,4776.22,4763.78,4676.7,4742.78,4730.33,4714.33,4698.11,4682.22,4666.22,4501.8,4490.7,4627.25,4623.12,4428,4414.56,4425.7,4599,4599,4596.44,4593,4597.44,4587.33,4588,4412.9,4409.9,4400.7,4409.33,4394.78,4382.11,4384.44,4294.8,4291.7,4266.22,4303,4309.62,4391.78,4511.8,4594.75,4785.11,4808.22,4756.8,4813.2,4853.8,4868.3,4856.6,4830.1,4811.3,4796.5,4792.8,4770.5,4763.1,4755.7,4752,4759.4,4763.1,4766.8,4770.4,4759.3,4759.3,4766.7,4770.4,4777.8,4777.8,4766.9,4759.4,4748.4,4737.4,4737.4,4737.4,4737.4,4730.2,4730.2,4726.6,4722.9,4711.9,4701.1,4665.2,4651.3,4637.1,4633.6,4633.5,4654.6,4668.7,4697.4,4715.4,4722.8,4737.6,4748.7,4723.2,4712.3,4694.5,4673.5,4648.7,4638.3,4624.4,4617.9,4621.6,4632.3,4639.6,4642.9,4632.8,4640.1,4644.1,4643.9,4637.6,4640.9,4650.7,4636.8,4636.7,4636.9,4634.1,4631.2,4638.5,4639.4,4643.9,4638,4641.7,4636,4633.4,4639.7,4684.33,4676.33,4664.33,4660.67,4644.89,4629.22,4606.44,4591.22,4576.56,4546.44,4527.89,4509.44,4498.11,4487,4479.89,4472.67,4465.67,4480,4487.56,4502.78,4522,4533.22,4556.56,4578.89,4593.89,4612.67,4608.22,4607.22,4614.44,4610.11,4613.78,4609.67,4605.56,4597.67,4593.56,4590.22,4593.56,4582.56,4586.67,4587.22,4584.22,4603.78,4619.67,4647.89,4651.78,4672.56,4692.56,4704,4712.67,4708.22,4688.67,4688.22,4668.44,4649.56,4645.44,4630.33,4606.56,4583,4559.33,4536.78,4505.89,4483.78,4465.11,4436.56,4425.56,4400.78,4390.22,4376.33,4356.11,4339.11,4319.11,4319,4295.89,4292.89,4286.89,4278,4278.44,4282.22,4289.11,4299.89,4307.11,4332.22,4339.33,4343.44,4360.33,4363.44,4377.56,4377.11,4380.33,4386.44,4382.78,4374.56,4366.78,4349.22,4338.33,4320.67,4306.67,4279.44,4262.44,4239.22,4226.33,4223,4219.44,4216.33,4206.33,4200,4194.11,4191.56,4191.56,4191.44,4189.44,4177.22,4168.89,4170.11,4168,4166.22,4163.22,4158.22,4156.33,4147.56,4135.89,4146.11,4140.44,4129,4126.78,4120.22,4112.67,4108,4106.11,4103.89,4106,4106.67,4106.44,4104.22,4107.11,4120.89,4118.33,4123.22,4122.78,4121.11,4114,4102.89,4093.33,4086.22,4069.67,4053.22,4040.33,4031.67,4022.89,4009.11,3992.33,3989.78,3981.89,3988.56,3985.67,3989,3982.33,3992.56,4001.11,4017.56,4026.33,4031.56,4106.6,4106.7,4106.7,4101.6,4095.3,4091.8,4085.6,4066.2,4043,4018.8,3999,3972.9,3952.4,3919.4,3865.11,3838.33,3812.33,3794.11,3776.22,3790.1,3772.1,3720.22,3735.8,3724.6,3703.8,3687.2,3651,3627.1,3523,3496.33,3470.22,3446.56,3423.11,3404.11,3387.67,3373.22,3356.89,3344.67,3322.33,3304.78,3284.67,3265.67,3240.89,3224.33,3209.22,3192.89,3178.33,3161.89,3149.44,3131.44,3121.22,3108.89,3095.44,3085.33,3071.56,3056.67,3045,3028.44,3010.33,2985.89,2956.67,2935.89,2912.33,2898.11,2885.89,2885.67,2878.33,2877,2877.11,2886.44,2889.44,2897,2898.44,2907.67,2924.22,2991.5,3053.5,3162.3,3294.7,3433.22,3583.7,3738.44,3899.5,4070,4188.4,4233.7,4251.2,4245,4238.9,4242,4236,4233.1,4230.2,4233,4236,4230.3,4233.2,4236.3,4233.4,4239.2,4248.3,4254.1,4277.9
4440.67,4456.67,4468.6,4512,4562.5,4528,4562,4573.33,4573.33,4579,4587.62,4591.88,4591.88,4607.78,4611.78,4627.33,4684.3,4744.9,4763,4759.3,4774.1,4796.4,4826.5,4841.9,4853.5,4853.7,4865,4895.8,4936.4,4959.6,4973.7,4981.1,4984.9,4984.9,4984.9,4984.9,4988.7,4992.6,4992.6,4992.6,4992.6,4992.6,4996.6,5000,5000,5000,4996.6,4992.6,4985.3,4970.7,4955.5,4940.3,4928.7,4928.8,4928.9,4947.9,4950.9,4951.3,4951.1,4951,4955.1,4951.3,4955.5,4963,4948.1,4940.2,4932.6,4932.1,4925,4891.3,4872.6,4853.3,4842.2,4838.2,4826.9,4819.6,4795.44,4820.1,4838.9,4846.7,4865.5,4869.2,4880.3,4898.8,4902.6,4920.8,4917.8,4921.6,4929.8,4926.4,4926.9,4930.7,4927.2,4930.7,4926.8,4916.2,4896.3,4880.7,4873,4861.7,4858.6,4858.7,4852.3,4843.78,4856.44,4856.22,4874,4873.7,4876.6,4861.7,4865.4,4857.6,4842.4,4823.6,4795.56,4779,4797.3,4790.2,4794,4802,4805.7,4810.1,4822.2,4847.9,4839.33,4856,4868.67,4881,4876.56,4875.33,4867.11,4850.78,4825.44,4809,4785,4765.11,4753.33,4757.56,4757.33,4765.67,4790.22,4736.4,4819.67,4828,4840.33,4831.44,4827.89,4819.56,4815.44,4802.78,4793.89,4773.22,4764.22,4707.8,4680.6,4651.3,4610.3,4694.33,4682,4670.11,4513,4492.8,4631.33,4614.12,4426.22,4414.89,4400.22,4418.7,4411.3,4414,4402.5,4406.9,4572.11,4401.5,4387.5,4376.7,4372.5,4378.33,4370.56,4365,4354.78,4365.67,4266.6,4272.8,4317.4,4436.89,4477.56,4557.11,4620.11,4784.22,4820.22,4772.2,4815.5,4834.5,4849.2,4833.9,4815,4800.2,4792.8,4774.1,4759.4,4752,4748.3,4752,4755.7,4766.8,4770.4,4774.1,4777.8,4785.1,4785.2,4785.2,4777.8,4770.4,4755.8,4748.4,4737.5,4733.8,4726.6,4723,4719.2,4719.2,4708.4,4708.4,4708.3,4690.2,4676,4644.3,4630.2,4630.2,4630.1,4637,4654.6,4672.3,4697.4,4715.4,4726.5,4745,4744.9,4726.7,4701.5,4698,4680.5,4659.1,4651.9,4631.3,4628.1,4631.8,4646.2,4646.2,4646.3,4646.3,4646.3,4646.9,4650.6,4643.7,4639.9,4646.7,4643,4636.3,4633.3,4627.6,4629.1,4630.1,4631.5,4639.5,4623.6,4628.5,4687.67,4619.9,4688,4684.22,4676.22,4660.22,4656.56,4644.78,4625.33,4595.11,4579.44,4553.67,4539.33,4516.78,4502.22,4491.33,4487.67,4473.22,4462.44,4466.22,4477.33,4488.33,4499.56,4506.89,4522.33,4533.67,4552.22,4566.78,4585.67,4588.89,4588.33,4595.44,4599,4602.89,4602.33,4598.78,4606.11,4598.44,4598.44,4594.22,4594.56,4598.44,4595.67,4592.56,4607.67,4631.56,4647.78,4659.78,4671.67,4684.67,4695.89,4688.22,4691.89,4675.89,4667.89,4659.78,4640.78,4632.89,4625.11,4597.56,4582.44,4562.56,4539.11,4520.11,4497.22,4478.56,4446.11,4439,4417.67,4400.33,4390,4372.44,4355.22,4335.33,4328.67,4308.44,4298.89,4293.11,4280.11,4291.56,4294.89,4302.22,4313,4334.78,4348.89,4363.89,4371.44,4388.78,4395.44,4403,4409.56,4414.11,4409.22,4408.22,4396.67,4389.11,4368,4353.56,4332,4314.22,4297,4279.67,4259.44,4239.44,4239.33,4232.22,4225.78,4212.56,4203.11,4200,4200.67,4200.89,4201.11,4191.89,4189.78,4184,4188.89,4183.22,4178,4175.44,4169.56,4170.56,4155.11,4149.78,4144.44,4139.11,4130,4121.44,4109,4097.78,4095.67,4097.22,4094.33,4089.11,4085.89,4086.11,4099.22,4094,4108.11,4111.89,4119.78,4122,4114.67,4114.33,4112.22,4099.11,4091.67,4078.67,4065.89,4055.78,4046.11,4037.11,4022.78,4006.33,3997.67,3994.78,3990.22,3996.22,3989.78,3998.78,4003.33,4015.11,4011.56,4026.56,4032.33,4034.78,4041.33,4038.78,4099.9,4030,4026.56,4072.4,4014,3996.11,4015.8,3994.6,3967.4,3952.1,3929.3,3873.33,3843.56,3814.78,3804.89,3783.89,3766.11,3748.44,3728,3702.67,3680.89,3653.89,3617.78,3648.2,3624.3,3587.1,3556.1,3468.22,3442.33,3417.11,3394,3380.11,3367.67,3409.2,3337,3316.89,3301.11,3287.56,3266.22,3243.44,3226.67,3211.78,3191.67,3179,3351.1,3339.8,3144.78,3317.5,3304.8,3292.3,3280,3270.8,3058,3041.67,3219.3,3194.4,2988.78,2958.22,2937.11,2916.56,2901.22,2893.44,2888.67,2881.22,2879.89,2877.22,2886.44,2892.67,2897.22,2903.11,2912.22,2926,3001.2,3069.3,3169,3296.3,3437.3,3579.2,3737.6,3896.9,4056.8,4177.5,4225.6,4233.7,4230.4,4230.3,4230.4,4230.2,4230.2,4221.4,4230.1,4221.3,4224.3,4227.1,4224.2,4230.2,4244.7,4247.6,4265.6,4274.5
4467.5,4467.5,4470.25,4522,4545.25,0,4562,4562,4579,4579,4596.12,4596.12,4600.62,4600.62,4635,4649,4698.5,4755.9,4770.4,4766.7,4781.5,4796.5,4819.2,4842,4864.8,4857.4,4865.3,4903.5,4940.9,4966.4,4973.7,4984.9,4988.7,4988.7,4988.7,4992.6,4992.6,4992.6,4996.6,4992.6,4992.6,4996.6,5000,5000,5000,5000,4996.6,4992.6,4989.2,4973.9,4959.3,4944.1,4932.7,4924.7,4932.5,4939.9,4958.9,4958.5,4962.8,4962.7,4958.8,4963.4,4955.6,4959.4,4940.5,4939.7,4929.1,4928.8,4928.7,4899.1,4884.1,4868.7,4853.7,4846,4845.8,4830.6,4830.8,4834.8,4850.1,4861.7,4880.7,4887.7,4891.4,4906.3,4914,4924.6,4925.2,4929.5,4932.7,4925.8,4925.8,4930.1,4927.2,4924.5,4920,4911.8,4892.4,4877.2,4872.7,4865.2,4850.4,4854.5,4848.3,4843.33,4852.67,4884.5,4888.75,4870.2,4873,4868.8,4865.2,4861.4,4850.1,4823.6,4791.33,4778.89,4797.4,4793.8,4790.4,4794.1,4805.8,4805.8,4813.8,4836.4,4844.1,4867,4872.78,4889,4880.22,4879.33,4883.56,4858.56,4829.67,4817.33,4789.11,4773.22,4753.33,4753.56,4761.22,4698.8,4715.3,4736.2,4810.89,4828.33,4766.4,4769.1,4828,4773.9,4776.3,4765.6,4757.5,4750.3,4724.7,4724.3,4706.2,4676.6,4628.6,4698.78,4682.22,4549.2,4520.3,4497.6,4631.22,4619.89,4402.38,4406.5,4398.11,4393.22,4409.4,4401.6,4394.5,4563.67,4561.67,4534.78,4355.78,4341.4,4329.5,4329.67,4328.56,4331.67,4327.33,4333.89,4343.89,4372,4403.11,4442.44,4492.67,4579.11,4616.7,4771.22,4815.89,4768,4802.8,4834.3,4833.9,4826.3,4800.2,4800.2,4774.1,4755.7,4748.4,4752,4752,4755.7,4770.4,4777.8,4792.5,4792.5,4792.5,4796.3,4796.3,4792.6,4788.9,4785.1,4755.8,4741.1,4722.8,4715.6,4715.7,4712.1,4701.2,4690.4,4672.5,4669,4669,4665.4,4644.1,4626.8,4623.4,4616.5,4626.7,4633.5,4647.5,4668.7,4690.2,4715.4,4726.5,4741.3,4744.9,4726.7,4712.6,4701.9,4687.8,4662.8,4648.4,4645.3,4635.5,4631.8,4642.6,4652.9,4652.9,4646,4642.3,4646,4642.7,4639.1,4639,4645.9,4635.7,4635.6,4626.3,4617.7,4622.8,4624.8,4694.89,4622.1,4610.2,4695.89,4688.11,4684.11,4684.44,4672.33,4672.33,4660.22,4648.33,4644.44,4609.56,4590.56,4571.78,4546,4535,4517.11,4494.89,4488,4476.78,4473.78,4463.67,4460,4470.67,4482.11,4482,4492.89,4500.11,4511.11,4522.22,4536.67,4551.33,4558.67,4568.89,4576.56,4588.44,4591.89,4595.22,4602.89,4603.22,4603.33,4599.22,4599.33,4595.67,4602.78,4596,4596.33,4604.22,4624.11,4636.11,4651.78,4664,4671.56,4680,4675.44,4667.11,4663.33,4647.33,4639.56,4620.56,4612.67,4597,4585.22,4576.89,4550.33,4538.44,4523,4497,4485.67,4463.78,4449,4431.11,4417.11,4399.67,4389.33,4365.56,4348.22,4335.11,4314.67,4308.56,4302.56,4286.56,4297.44,4304.89,4299.22,4320.11,4345.11,4353.67,4371.22,4382.44,4400.33,4408,4421.44,4428.22,4425,4413.33,4412.44,4401.11,4396.89,4378.67,4360.89,4342.67,4328.44,4310.44,4290.44,4276.11,4252.67,4242.44,4242.22,4222.33,4222.11,4209.11,4203.22,4206.78,4200.67,4210.33,4201.44,4198.33,4190.33,4184.22,4181.89,4182.11,4186.22,4177.44,4178.22,4160,4153.89,4154.67,4136.11,4121.11,4116.11,4102.22,4096.11,4084.78,4082.78,4080.78,4078.89,4076.44,4070.67,4086,4087.78,4101.33,4114.11,4115.78,4115.89,4124.33,4116.33,4119.22,4111,4101.22,4090.44,4081,4068,4061.33,4046,4031.78,4020.33,4011.67,4012.33,4006.56,4007.44,4001.67,4006.67,4009,4017.44,4026.44,4029.33,4037.89,4030.11,4029.78,4033.44,4027.67,4025.22,4013.11,4009.67,4006.78,3993.78,4007.9,3991.5,3975.6,3956.8,3903.56,3876.33,3854.89,3831.11,3818.11,3797.33,3776.67,3756.22,3730.78,3710.56,3678.56,3654,3622.11,3655.2,3619.1,3580.2,3492.33,3462,3436.44,3409.44,3395,3374.44,3360.56,3345.89,3333.56,3315.44,3299.67,3284.11,3266.78,3247.67,3229.22,3214.33,3196,3184.89,3358.3,3350.1,3333.9,3321.3,3311.6,3294.3,3278.6,3267.8,3234.4,3208.5,3175.5,3143,2985.56,2959.67,2937.11,2919.89,2905.56,2895,2890.22,2885.67,2884.33,2878.67,2886.33,2892.56,2900.22,2963.4,2967,2981.4,3007.9,3075.7,3178.9,3306.7,3437.5,3583,3732.8,3898.8,4051.3,4175,4219.8,4228,4224.9,4227.8,4230.6,4221.6,4224.5,4218.8,4224.3,4224.3,4224.3,4224.3,4227.3,4232.9,4244.7,4256.3,4265.3,4277.3
4473,4478.5,4495,4579,4548.4,4550.67,0,4562,4631,4631.14,4634.78,4634.78,4634.89,4641.4,4645.4,4666.5,4720,4763.1,4777.8,4774.2,4789,4811.4,4819.1,4838,4864.7,4864.9,4876.7,4914.5,4952.4,4962.6,4977.5,4985.3,4988.7,4992.6,4996.6,4996.6,4996.6,4996.6,5000,5000,5000,4996.6,5000,5000,5000,5000,5000,4992.6,4985.8,4970,4958.9,4947.7,4933.1,4933.1,4933,4951.4,4963.3,4963.3,4963.7,4963.6,4959.7,4955.5,4951.5,4948.2,4940.2,4936.3,4921.6,4932.8,4928.9,4902.7,4891.5,4875.9,4869.1,4849.7,4842,4838.1,4834.3,4842,4853.5,4868.9,4892.1,4902.7,4902.6,4913.8,4921.4,4929.1,4937.1,4932.9,4929.3,4925.8,4926.3,4930.6,4926.6,4923.8,4915.9,4914.9,4899.6,4880.7,4869,4865,4861.3,4854.4,4847.7,4834.89,4844,4884.25,4883.62,4866,4869.1,4854.3,4846.7,4850.2,4838.6,4807.89,4791.33,4787.11,4797.5,4790.2,4797.7,4794.1,4798,4805.8,4813.5,4824.5,4843.3,4862.5,4872.56,4888.11,4883.78,4887.56,4875,4853.78,4829.44,4808.78,4797.89,4777.44,4758.11,4753.67,4685,4695.5,4711.9,4724.6,4810.89,4819.78,4755.3,4757.7,4816,4770.8,4766.9,4766.2,4755.4,4737,4729.4,4718,4714.6,4686.8,4648.3,4703.11,4691,4682.11,4529.1,4509.8,4639.11,4473.9,4454.6,4404.5,4387.75,4396,4373.44,4392.2,4382.7,4549.11,4526.78,4591.57,4368.29,4365.12,4363.5,4356.75,4296,4354.25,4358.12,4365.38,4371,4377.88,4411.63,4433.89,4477.22,4561.22,4618.5,4763,4799.11,4772.1,4809,4833.9,4833.8,4830.1,4803.9,4800.2,4781.6,4763,4759.4,4763,4766.7,4777.8,4792.5,4803.7,4803.7,4807.5,4811.3,4811.4,4807.6,4803.9,4792.6,4785.1,4752.1,4744.8,4719.1,4701.1,4693.9,4693.9,4676.1,4661.9,4651.3,4640.8,4637.2,4633.7,4619.9,4609.7,4602.8,4599.4,4609.6,4623.3,4644,4665.2,4683,4711.9,4730.1,4741.1,4741.3,4726.8,4719.9,4705.8,4691.7,4663.2,4645.4,4631.8,4632.6,4625.8,4639.5,4650,4646,4649.4,4649.1,4638.6,4642.2,4642.2,4642.1,4638.4,4638.7,4632,4629.9,4618.6,4617.4,4682.89,4615.9,4610.8,4602.7,4602.7,4692.11,4692.33,4589.2,4680.22,4667.89,4656,4648,4632.56,4609.56,4590.44,4567.89,4534.44,4527.33,4509.33,4498.67,4492.22,4477.22,4474.11,4467.56,4460.78,4470.89,4474.44,4474.67,4475.11,4478.67,4485.67,4499.67,4510.33,4532.22,4539.22,4542.78,4553.67,4561.22,4568.78,4576.33,4588.33,4595.78,4596,4592,4600.33,4592.44,4600.44,4596.33,4592.67,4604.33,4612.33,4620.33,4631.78,4651.78,4647.67,4647.78,4647.44,4647.44,4631.89,4624.11,4616.56,4608.56,4596.89,4589.67,4573.44,4557.67,4545.56,4530.78,4511.67,4496.67,4485.67,4474.33,4456.22,4445.44,4424,4417.11,4399.56,4379,4361.78,4344.67,4321.33,4314.89,4305.44,4305.89,4303,4307.67,4311.33,4326.22,4344.22,4364,4374.67,4393.78,4403.78,4418.44,4428.67,4435.44,4424.67,4427.22,4416.22,4411.67,4393.22,4382.67,4365.11,4353.67,4335.89,4321.78,4290.78,4280.22,4266,4259,4238.67,4232,4225.44,4209.11,4209.44,4203.22,4203.44,4200.44,4200.67,4191.78,4185.78,4186.78,4181.11,4184.89,4179.56,4176.67,4171,4158.67,4158.78,4144.11,4131.67,4120,4108.44,4096.56,4082.22,4071,4078.22,4066.78,4061.78,4062,4069.22,4071.89,4072.33,4090.56,4103.56,4106.78,4115,4113.67,4119.67,4115.33,4117.22,4110.67,4100.22,4090.56,4077.67,4071.11,4067.56,4049.78,4035.33,4026.56,4026.78,4023.67,4011.89,4015.11,4014.22,4017.11,4023.44,4032.33,4038.22,4030.11,4033,4022.22,4025.22,4011.78,4005.67,4002,3999.33,3992.89,3988.33,4001,3989,3975.4,3960.3,3912.67,3890.11,3866.11,3849.78,3829.33,3802.89,3784.67,3759,3741.44,3718.56,3691,3661.22,3627.33,3587.11,3557.11,3521,3487.89,3460.11,3434.78,3414.44,3393.22,3375.11,3356.78,3342.22,3326.33,3318.33,3302.22,3284.89,3267.44,3248.56,3231.67,3218.78,3206,3193.22,3178.44,3167.33,3312.9,3301.6,3285.8,3260.8,3238.1,3216.1,3053.44,3035.22,3018.33,3003.67,3069.4,2964.22,2943.22,2922.89,2962.7,2900.89,2893.11,2888.67,2888.78,2886.11,2884.67,2893.89,2961.8,2965.1,2972.9,2982,3013.4,3087.2,3187.2,3313.9,3443.1,3582.8,3735,3894,4056.9,4169.3,4211.4,4231.2,4230.9,4225.1,4224.9,4224.8,4227.6,4224.5,4221.6,4224.5,4221.5,4233.1,4236,4241.6,4244.5,4259.1,4274,4280.3
4500.5,4495,4506,4562.25,4613.5,4587.5,4607.33,4719,4675,4662.4,4662.6,4659,4652,4648.3,4662.8,4687.9,4741.8,4789.2,4788.9,4792.7,4800.1,4815.1,4822.8,4845.4,4857.1,4868.5,4876.5,4925.6,4955.6,4977.4,4981.3,4989.2,4996.6,4996.6,5000,5000,5000,5000,5000,5000,5000,5000,5000,5000,5000,5000,5000,4996.6,4989.2,4977.9,4962.3,4952.1,4940.5,4936.4,4936.8,4956,4963.8,4963.7,4960.2,4955.6,4959.8,4951.6,4943.6,4940.2,4932.9,4925.6,4925.6,4921.8,4925.5,4906.9,4891.5,4887.7,4865.6,4853.8,4853.7,4842,4828.56,4845.8,4860.9,4876.5,4895.6,4914.5,4917.7,4925.4,4936.4,4937.4,4940.3,4936.7,4936.7,4929.6,4929.5,4926.6,4926.7,4926.7,4922.8,4911.1,4895.4,4891.2,4872.7,4865,4861.3,4861.6,4851.2,4831.22,4830.89,4869.62,4874.62,4862.2,4861.9,4850.6,4838.9,4842.3,4808.22,4799.78,4791.44,4783.11,4793.9,4790.8,4790.5,4786.9,4801.9,4802,4813.4,4828.3,4842.9,4861.7,4887.7,4879.67,4879.44,4875.33,4866.33,4849.33,4824.44,4800.78,4784.89,4761.56,4749.78,4741.67,4674,4684,4707.9,4724.2,4745.3,4744,4747.6,4765.4,4764.6,4764,4756.9,4759.7,4749,4734.1,4726.4,4722.1,4714.9,4698,4665,4723.44,4702.89,4582.3,4543.5,4518.7,4501.4,4482.7,4461,4442.4,4393.63,4389.22,4376,4365.78,4364.5,4356.4,4497.33,4530,4371.43,4302.14,4302,4311,4308.29,4317.29,4322.88,4338.62,4288.89,4382.75,4416.88,4581.75,4474.78,4560.8,4621.5,4679.2,4786.89,4784.6,4826.8,4837.6,4837.6,4830.1,4803.9,4807.7,4800.2,4788.9,4777.7,4781.4,4792.5,4800,4811.2,4818.7,4826.3,4837.7,4845.3,4841.5,4834,4826.5,4819,4785.1,4766.8,4741.1,4715.6,4690.3,4690.3,4676,4654.7,4640.8,4623.3,4616.5,4619.9,4616.5,4606.2,4596,4582.4,4589.2,4606.2,4623.3,4637.2,4661.7,4683,4711.9,4723,4734,4734,4730.7,4716.5,4698.5,4683.44,4681.6,4642.8,4632.9,4630,4626.7,4647.3,4643.2,4642.9,4639.3,4638.9,4638.6,4638.7,4638.5,4658.22,4634.7,4650,4632,4619.8,4619.4,4611.6,4679.11,4607.1,4602.8,4592.2,4687.89,4586.1,4587.5,4580.3,4679.89,4664.56,4648.22,4636.44,4624.67,4598.11,4583.11,4564.33,4542.11,4519.89,4512.78,4498.67,4491.78,4488.67,4474.56,4463.78,4456.78,4463.89,4463.89,4460.56,4459.89,4459.89,4463.44,4477.56,4491.44,4502.11,4509.67,4516.11,4534.56,4545.89,4553.22,4568.44,4580.44,4595.78,4592.22,4588.89,4600.33,4596.33,4596.11,4600.33,4592.78,4592.44,4600.22,4615.11,4615.44,4623.22,4634.78,4639,4627.56,4631.56,4616.33,4612.78,4604.78,4596.56,4581.22,4573.44,4569.33,4553.67,4534.78,4526.89,4519,4504,4485.56,4474.89,4456.67,4442.11,4434.78,4420.44,4406.44,4385.56,4364.89,4351,4337.89,4317.78,4318,4308.33,4306,4309.67,4317.56,4325,4336.78,4359.56,4370.33,4392.78,4402.78,4414.22,4414.22,4420.11,4427,4415.33,4410.67,4392.67,4392.44,4381.44,4374.89,4349.56,4332,4321.44,4300.78,4290.22,4269.33,4252.44,4242,4231.67,4228.56,4215.22,4208.78,4202.89,4196.89,4193.67,4191.22,4188.56,4186,4186,4186.78,4177.78,4178.67,4178.67,4166.33,4150.67,4151,4135.56,4124.33,4112.22,4100.78,4086.11,4074.33,4066.33,4055.11,4050,4044.33,4041.67,4040,4053.33,4058.33,4071.33,4089.33,4098.78,4108.56,4122.44,4125.44,4117.33,4119.78,4106.78,4100.33,4103.22,4090.33,4083.22,4071.56,4059.44,4050.56,4041.44,4039.56,4032.67,4030.11,4020.44,4025.89,4020.22,4023.11,4029.33,4029.33,4024.22,4025.22,4016.78,4014.33,4000.78,4001,3985.78,4036.3,4028.5,4013,4008.8,3990.1,3976.5,3973.6,3918.11,3898.67,3885.67,3866.56,3835,3814.22,3790.56,3770,3744.33,3716.22,3695.78,3666.22,3629.56,3593.78,3564.11,3527.78,3494.56,3469,3439.33,3416.44,3429.5,3379.78,3361.33,3347.11,3330.67,3313,3299.33,3285.44,3270,3253,3237.67,3220.89,3208.22,3199.22,3186.11,3173.56,3155.44,3265.2,3244.8,3225.4,3206.5,3185.1,3048.56,3028.44,3107.1,3082.1,3056,3024.4,3004.9,2924.33,2967.9,2955.6,2897.44,2891.56,2893.22,2885.89,2887.67,2963.5,2963.5,2969.9,2976.1,2987.9,3016.7,3098.5,3195.5,3317.4,3444.7,3587,3737.6,3901.6,4062.1,4170.1,4209.2,4225.7,4234,4228.2,4231,4225.2,4224.9,4227.8,4224.7,4221.5,4227.2,4230.3,4233.1,4235.8,4247.6,4259.2,4271,4283.2
4522.5,4517,4519.75,4596.5,4596.75,4596,4630.25,4670.71,4701.25,4665.8,4672.9,4672.9,4676.5,4669.2,4691.2,4701.9,4756.2,4800.2,4792.7,4800.1,4800.1,4815.1,4830.4,4849.2,4856.9,4857,4876.4,4925.4,4955.6,4981.3,4985.2,4993.2,5000,5000,5000,5000,4996.6,4992.6,4992.6,4992.6,4992.6,4996.6,5000,5000,5000,5000,5000,4996.6,4993.2,4977.9,4959,4951.6,4943.8,4932.8,4939.9,4962.8,4966.6,4971,4964.2,4964.3,4956.1,4944,4936.3,4933.1,4926,4926.2,4918.4,4914.6,4915.2,4906.9,4895.4,4884.1,4876.7,4865.5,4857.5,4849.6,4841.22,4861,4876.5,4887.9,4907.1,4926,4936.9,4936.4,4936.7,4936.9,4936.6,4940.2,4940.2,4936.9,4925.6,4922.2,4926.2,4926.2,4926.2,4914.5,4902.6,4887.2,4887,4879.9,4872.4,4865.3,4851.2,4839.8,4826,4854.75,4845.88,4843.4,4828.4,4828.5,4827.4,4827.2,4799.56,4791.56,4791.33,4779.11,4794.5,4791,4787.2,4787.5,4794.7,4805.7,4802.2,4820.7,4832,4850.2,4868.6,4870.78,4878.89,4866.44,4849.11,4840.67,4816,4800,4788.89,4756.78,4749.22,4744.78,4673.8,4679.9,4705.7,4723.5,4733.2,4732.7,4747.8,4750.1,4753.6,4760.1,4753.3,4749.4,4753.3,4742.6,4727.9,4737.6,4730.1,4709.7,4680,4654.2,4727.33,4714.67,4566.8,4539.9,4517,4498.3,4476.8,4454.4,4437.4,4389,4375.44,4362.44,4345,4347.3,4313.1,4317.44,4364.67,4363.33,4180.75,4244.57,4250,4184.25,4290.75,4322.5,4281.33,4391.5,4367.11,4411.89,4641,4587.9,4645.3,4708.2,4747.9,4795,4822.9,4833.8,4845.2,4837.7,4826.3,4811.4,4807.7,4803.8,4796.4,4800,4803.7,4814.9,4822.5,4841.4,4849,4852.8,4856.6,4864.3,4856.7,4849.1,4834,4803.8,4770.4,4741.1,4708.4,4690.3,4679.5,4668.9,4647.8,4626.9,4613.1,4602.8,4602.8,4596,4596,4589.2,4582.4,4585.8,4606.2,4630.2,4644.2,4665.2,4693.8,4719.1,4741.3,4741.4,4734.3,4723.5,4713,4695.3,4685.5,4657.7,4640.6,4627,4620.8,4624.4,4634.4,4637.2,4636.7,4632.5,4631.9,4628.3,4631.7,4638.1,4634.7,4624.3,4624.6,4625.2,4620.1,4612.5,4606.2,4601.3,4599.1,4597.9,4586.4,4581.6,4570.1,4572.1,4568.3,4664.22,4644,4632.44,4628.56,4617.11,4590.67,4579.67,4565,4535.22,4524.67,4509.67,4502.67,4499.22,4485.11,4478,4464.11,4464.11,4456.44,4464.33,4449.67,4450.11,4439,4441.78,4452.22,4466.11,4476.22,4483.56,4497.22,4512.11,4523.11,4537.78,4557,4568,4576.11,4576.67,4581.22,4588.44,4592.89,4585,4585.22,4588.67,4584.78,4588.33,4592.33,4595.67,4603.67,4607.22,4611.22,4603.89,4600.22,4592.56,4588.67,4581.22,4577.11,4573,4558,4546.22,4535.11,4527.11,4515.78,4497,4497,4475.22,4464.33,4449.56,4446,4434.67,4431.22,4409.78,4396,4371.89,4361.11,4347.56,4334.22,4317.78,4311.56,4312.11,4306.33,4310,4318,4331.89,4346.56,4357.78,4362.11,4365.44,4379.33,4386.11,4389.67,4389.11,4395.44,4391.89,4380,4380.56,4373.67,4359.22,4349,4341.67,4327.89,4313.67,4299.56,4285.22,4265.33,4251.33,4244.56,4231.56,4221.33,4208.78,4202.89,4200.22,4190.78,4194.11,4191.67,4188.56,4183.11,4177,4174.22,4164.78,4162.78,4155.78,4146.78,4137.44,4128.11,4116.89,4107.44,4084.11,4075.33,4061,4049.11,4041.67,4036.44,4028.11,4026.22,4035.11,4036.22,4042.67,4051.89,4067.44,4079.44,4097.22,4099.89,4111.78,4108,4110.11,4106.56,4106.44,4099.78,4090.78,4086.89,4080.56,4069,4053.89,4053.33,4050.67,4044.44,4038.11,4031.44,4019.67,4022.67,4020.22,4026.33,4026.67,4024.78,4013.78,4003.22,4000.67,3990.67,4025.4,4019.8,4020.4,4012.4,4005.3,4001.5,3993.2,3981.9,3973.7,3926.22,3904.56,3893.78,3867.11,3843.56,3822.78,3799,3770,3749.67,3729,3695.78,3668.89,3629.78,3598.89,3566.11,3584.1,3552.5,3524.9,3494.4,3463.2,3435.6,3386.56,3367.89,3351.67,3332.78,3319.44,3301.56,3284,3270.56,3255.11,3236.22,3227.11,3208.67,3195.78,3186.33,3170.22,3156,3139.56,3119.67,3100.56,3079.22,3060.56,3139.9,3116.9,3091.8,3068.8,3045.3,3023.9,3003.9,2924,2971,2957.3,2900.33,2891.44,2891.56,2887.22,2888.89,2962.9,2968.7,2974.9,2979.7,2989.1,3022,3108.8,3204.3,3324.9,3454.4,3601.6,3751.2,3917,4081.6,4184.6,4221.1,4240.4,4243.7,4234.6,4237.2,4239.7,4231,4236.5,4236.1,4227.3,4233.2,4236.1,4238.9,4250.6,4253.5,4262.4,4268.2,4283.1
4528,4528,4528,4585,4613.5,4596,4701.67,4670.12,4681,4683.4,4683.4,4686.9,4683.4,4687,4690.9,4712.8,4774.6,4800.3,4800.2,4807.6,4803.9,4818.9,4834,4849.2,4864.4,4860.7,4872.4,4918.6,4967.3,4981.3,4989.2,5000,5000,5000,5000,4996.6,4988.7,4988.7,4988.7,4988.7,4984.9,4988.7,4996.6,5000,5000,5000,5000,5000,4993.2,4974.1,4955.3,4947.9,4940.2,4936.2,4936.1,4954.9,4962.7,4963.1,4967.1,4960.1,4951.9,4948,4940.5,4933.2,4923,4919.5,4915.6,4911.6,4907.6,4896,4895.4,4887.6,4884.8,4877.3,4869.2,4857.4,4850.11,4876.7,4884.2,4895.6,4918.5,4941.4,4940.6,4950.22,4944.6,4944,4944.2,4967.11,4967.11,4958.44,4958.44,4958.44,4954.22,4953,4957.75,4948.75,4924.5,4905.75,4891.62,4868.88,4850,4832,4818.5,4800.89,4820.9,4832.2,4817.1,4813,4805.6,4794,4797.6,4794.2,4783.22,4771.11,4767.22,4771.22,4776,4768.7,4780,4780.2,4783.8,4791.2,4798.4,4813.2,4824.3,4835.6,4858,4862.11,4861.89,4857.67,4844.89,4832.56,4816.11,4783.78,4768.22,4748.22,4657.7,4656,4665.7,4676.1,4691,4712.1,4721.8,4732.5,4732.8,4738.9,4783.78,4749.2,4742.2,4742.1,4738.3,4734.8,4738.5,4741.9,4731.5,4715.5,4688.9,4760.33,4743.44,4731.11,4588.5,4565,4540.3,4515.9,4490.9,4466.6,4441.2,4418.1,4394.2,4380,4362.2,4332.9,4297.5,4355.25,4267.14,4248.43,4236.71,4185.83,4191,4158.88,4174.5,4230.78,4280.11,4398.38,4430.88,4485.78,4640.89,4709.44,4650.9,4704.2,4753.4,4790.4,4822.8,4833.9,4841.4,4849,4826.3,4818.8,4818.8,4815,4815,4815,4826.2,4841.4,4841.4,4864.2,4879.5,4883.4,4879.5,4879.6,4879.6,4872.1,4845.3,4815.2,4770.4,4741.1,4704.8,4683.2,4661.9,4658.4,4640.8,4609.7,4589.2,4589.2,4592.6,4592.6,4596,4592.6,4585.8,4592.6,4609.6,4633.7,4654.8,4676,4697.4,4730,4744.8,4748.7,4737.9,4723.8,4706.3,4695.6,4686,4669,4638.3,4617.5,4619.1,4625.5,4632,4634.7,4630.2,4625.9,4625.2,4621.3,4624.6,4627.7,4634.6,4638,4638.56,4624.7,4662.11,4622.1,4618.4,4612,4613,4600.1,4589.1,4577.1,4569,4570.2,4556.2,4660.22,4643.89,4632.11,4624.78,4613.67,4598.44,4576.22,4569.33,4550.56,4525.11,4514.11,4510.33,4507,4496,4485.44,4474.11,4463.67,4467.11,4459.89,4456.78,4435.56,4435.11,4428,4437.89,4444.56,4458.44,4469,4482.89,4493.56,4511.89,4533.78,4541.56,4553.33,4561,4576.11,4576.44,4573.33,4573,4573.78,4580.56,4572.67,4577,4580.22,4584,4591.44,4602.56,4606.78,4602.89,4595.33,4591.67,4584.33,4577,4572.89,4565.44,4553.56,4553.33,4538.56,4534.56,4520.11,4508.44,4497.67,4482.89,4468.67,4468.11,4460.78,4442.67,4438.78,4435.11,4417,4406.33,4385.44,4364.89,4350.89,4344.11,4324.33,4314.56,4311.67,4302.11,4296.22,4306.56,4317.33,4324.78,4331.22,4338.67,4339,4348.89,4362.56,4372,4366.22,4362.11,4365.56,4358.22,4368.33,4358.11,4354.78,4344,4337.22,4330.56,4316.44,4305.78,4292.11,4271.56,4254.33,4250.78,4237.56,4231.11,4208.89,4202.78,4200.22,4190.89,4185.11,4175.78,4179.56,4170.44,4167.22,4158.44,4152.44,4149.11,4146,4140.33,4125,4118.56,4103.44,4088.67,4082.67,4068.33,4057.22,4045.67,4037.44,4026.78,4021.89,4010.33,4016.67,4017.22,4031.67,4044.89,4047.56,4069,4080.11,4092.22,4092.67,4101.33,4106.67,4106.44,4103.67,4091.22,4096.56,4096.33,4092.67,4078,4071.78,4065.22,4056.44,4052.44,4043.22,4034.22,4022.22,4028.44,4023.11,4017.22,4015,4012.56,4007.89,3999.78,3986.22,3978.78,4012.2,4009.7,4009.6,4002.5,3995.1,3991.1,3988.4,3982.5,3977.3,3970,3913,3894,3867.89,3846.33,3822.89,3804.33,3772.78,3744.78,3726.56,3696.22,3658.78,3629.78,3589.67,3568.78,3534.67,3512.89,3486.56,3496.8,3467.2,3440.6,3417.4,3378,3359.78,3339.67,3315.11,3303.44,3282.11,3264.78,3249.78,3232.67,3221.67,3201.44,3197.89,3183,3168.44,3154,3134.11,3196.6,3176,3070.89,3141.9,3121.7,3093.3,3072.5,3057.8,3034.9,3016.2,2996.8,2983.4,2970.2,2959.7,2897.44,2892.89,2893,2885.56,2888.78,2962.8,2972.3,2978.4,2981.2,2991.6,3029.1,3117.4,3211.9,3338,3466.2,3614.5,3769.8,3934.5,4112.3,4205.3,4233.2,4249.7,4252.5,4255.4,4249.3,4251.9,4248.4,4242.5,4239.3,4242.1,4239.2,4244.9,4250.6,4262.4,4265.5,4271.3,4277.2,4289.1
4550.67,4539.33,4562,4613.5,4607.67,4596,4665.86,4687.2,4683.5,4683.4,4687.1,4683.4,4686.9,4686.9,4712.4,4738.2,4796.9,4822.8,4807.8,4811.4,4811.4,4822.8,4838.1,4841.6,4856.8,4856.9,4872.4,4925.5,4959.9,4985.3,4992.6,5000,5000,5000,5000,4992.6,4988.7,4984.9,4984.9,4984.9,4984.9,4988.7,4992.6,5000,5000,5000,5000,4996.6,4989.2,4966.8,4951.3,4940.2,4924.9,4924.9,4929.2,4947.3,4955.1,4947.4,4955.3,4959.5,4956.1,4944.4,4940.9,4933.2,4923,4915.8,4915.8,4915.4,4904.2,4896,4899.4,4888.2,4885,4873.4,4865.4,4865.1,4854.33,4873.2,4888,4907.3,4926.5,4940.12,4942.89,4950.78,4955.11,4954.56,4954.67,4954.67,4962.5,4962.5,4957.75,4962.75,4953.25,4948.25,4953,4939.25,4920.12,4905.75,4887,4873.5,4850.5,4831.88,4804.38,4780.88,4789.88,4787.1,4786.9,4772,4768.1,4763.22,4757,4760.6,4759.44,4751.44,4743.33,4747.56,4750.4,4743.1,4761.4,4757.8,4768.9,4773.1,4780.3,4798.3,4817.1,4824.4,4839.1,4858.1,4854.33,4841.33,4828.56,4816.33,4796.33,4780.22,4752.11,4744.22,4651.1,4649,4654.5,4664.2,4679.6,4692.6,4768.11,4772.67,4765.11,4730.8,4775.22,4737.9,4734.6,4768.89,4731.3,4731.8,4777.22,4775.89,4726.4,4718.8,4773.33,4768.78,4768.33,4751.22,4592.2,4572.3,4549.4,4528.3,4497.6,4477.2,4456.6,4425.9,4394.7,4377.1,4359.9,4334.2,4315.25,4244.5,4272.38,4227.29,4156.5,4158.67,4164.17,4169.67,4175,4228.14,4234.12,4327,4359,4431,4499.11,4705.22,4728.22,4767.67,4749,4797.6,4819.1,4830.1,4845.2,4849,4826.3,4818.8,4818.8,4830.1,4822.5,4826.3,4841.4,4860.5,4875.7,4895,4898.9,4914.5,4918.3,4914.6,4899.2,4891.3,4852.8,4818.9,4777.8,4737.4,4697.6,4662,4644.3,4637.4,4626.9,4599.4,4585.8,4585.8,4585.8,4585.8,4599.4,4596,4589.2,4589.2,4613,4644.2,4662,4679.6,4701,4730,4741.2,4745.1,4741.8,4724,4713.6,4692.6,4679.9,4659.5,4629,4622.9,4616.4,4620.1,4622.7,4625.3,4623.8,4616.1,4615.5,4621.5,4631.8,4624.5,4634.9,4637.8,4638.56,4628.5,4662.67,4618.5,4616,4619.3,4616.5,4607.6,4588.9,4582,4568.7,4695.33,4671.44,4659.56,4651.33,4632,4625.11,4610,4584,4577.44,4566.89,4545,4530.44,4522.78,4518.44,4504.22,4503.56,4485.56,4478.56,4470.89,4459.67,4460.33,4445.78,4428.22,4428.22,4424.44,4427.11,4441.11,4447.33,4443.89,4464.67,4482.56,4493.56,4508.44,4534.33,4542.11,4553.22,4553.78,4569,4573,4569.22,4570,4572.89,4565.44,4565.33,4577,4580.22,4583.56,4587.56,4595,4599.33,4599.22,4599.56,4591.33,4583.89,4580.11,4572.56,4561.11,4553,4549.67,4531.11,4512.44,4498,4497.56,4483,4472.67,4461.11,4461.11,4450.22,4435.56,4432,4420.56,4406.44,4388.78,4371.44,4361.22,4344.22,4334.56,4321.56,4311.33,4308.33,4299.33,4302.44,4299.11,4303.44,4306.67,4309.78,4309.78,4326.78,4333.11,4336.67,4329.78,4332.67,4332.67,4332.67,4343.22,4343.22,4343.78,4333.44,4329.33,4330.22,4319.56,4305.89,4284.67,4267.89,4257.56,4244.22,4234.56,4221.56,4205.78,4193.44,4190.78,4178.44,4175.33,4169.56,4157.33,4154.67,4148.44,4142.22,4133.22,4139.67,4133.56,4121.22,4115,4105.78,4097,4088.22,4076.44,4061.89,4045,4036.67,4028.67,4017.78,4015.56,4007.33,4005,4005,4014.22,4025.56,4037.67,4055.67,4061.67,4077.11,4082.44,4084.67,4090,4099.44,4099.67,4096,4096.56,4098.44,4099.22,4086.56,4080.44,4071.22,4068.33,4058,4048.89,4039.22,4030.11,4021.56,4016.11,4013.22,4002.44,3997.11,3986.56,3983.67,3976.67,4014.1,4000.9,4003.2,4002,3997.6,3990.6,3984.1,3980.8,3980,3977.2,3971.1,3910.22,3894.44,3865.22,3846.22,3825.67,3801.78,3770.67,3745,3719.11,3693.78,3661.11,3625.22,3594.56,3568.67,3546.44,3543.6,3523.5,3499.6,3478,3451.1,3426.1,3405.3,3381.6,3339.44,3317.56,3297.89,3274.78,3259.22,3259.6,3244.7,3212.44,3201,3222.5,3217,3208.1,3199.9,3193.7,3179.8,3159.1,3142.3,3121.3,3103.6,3083.3,3062.5,3042,3030.5,3011.9,2997.5,2982.6,2968,2959.3,2953.1,2889.89,2890.11,2885.56,2885.56,2966,2971.5,2977.1,2983.3,2995.7,3027.2,3118.6,3220.9,3343.5,3474.5,3623.4,3779.1,3949.7,4126.7,4217.5,4242.6,4259.7,4264.9,4261.5,4258.5,4255.1,4260.6,4257.3,4254,4248.2,4251,4253.7,4259.6,4265.6,4271.4,4274.3,4286.2,4292
4562,4562,4562,4665,4630.5,4630.5,4658.8,4665.57,4683.5,4683.4,4683.4,4687,4690.4,4708.4,4715.7,4734.4,4800.8,4823.1,4815.5,4815.3,4819.2,4822.9,4841.9,4849.4,4849.2,4860.5,4876.1,4925.3,4956.5,4981.9,4993.2,5000,5000,5000,4996.6,4992.6,4984.9,4984.9,4981.1,4984.9,4981.1,4984.9,4992.6,4996.6,5000,5000,5000,4996.6,4981.8,4966.8,4943.6,4925.3,4917.7,4921.1,4921.6,4940.1,4940,4936.4,4940.3,4951.8,4948.6,4948.3,4933.7,4922.4,4912.2,4913,4912.4,4908.6,4900.3,4899.7,4895.5,4884.8,4881,4881,4880.6,4880.2,4888.2,4895.8,4902.5,4929.89,4935.5,4945,4959.62,4958.75,4958.88,4963.12,4963.25,4963.25,4962.75,4962.75,4962.75,4958,4958,4953.25,4953.25,4943.62,4934.62,4910.62,4901.12,4873.5,4850.5,4822.38,4808.88,4781,4772,4771.5,4753.7,4742.6,4735.1,4738.78,4720.7,4727.8,4730.78,4723,4731.11,4735.56,4721.9,4722.4,4748.44,4743.8,4754.7,4765.4,4776.6,4783.9,4798.6,4817,4828.4,4850.8,4838.67,4833.56,4833.11,4808.33,4796.11,4775.56,4759.78,4660.78,4646.2,4655,4660.8,4671.3,4682.6,4694.9,4701.8,4705.3,4708.7,4719.7,4771,4730.7,4727.3,4727.3,4730.8,4736,4736.5,4730.7,4729,4715,4781.56,4789.33,4784.78,4640.5,4608.7,4588.7,4569.2,4544.6,4524.7,4498.5,4469.6,4429.2,4405.3,4379,4362.1,4335.8,4285.89,4291.12,4263.88,4143.12,4061.14,4058.86,4050.29,4172.67,4172.67,4220.86,4242.57,4267,4300.86,4383.75,4476.88,4577.33,4727.89,4704.6,4747.8,4771.5,4807.7,4807.5,4826.2,4818.7,4796.2,4800,4796.4,4803.7,4811.3,4822.6,4845.2,4864.3,4887.3,4918.3,4933.5,4944.8,4945.4,4944.8,4933.6,4906.8,4868.1,4822.4,4785.1,4744.6,4693.9,4658.3,4633.9,4630.4,4613.1,4592.6,4582.4,4582.4,4585.8,4599.4,4599.4,4602.8,4599.4,4606.2,4626.9,4647.8,4672.8,4683.2,4701.1,4730.2,4756,4748.8,4745.5,4731.2,4706.7,4685.5,4676.6,4646,4612.3,4606.1,4606.2,4598.9,4609.3,4615.4,4618,4606.3,4612.4,4625.3,4620,4619.89,4627.44,4645.2,4641.7,4635.1,4629.5,4614.6,4611.8,4617.5,4608.6,4602.2,4592.6,4699.33,4687.22,4683.22,4675.11,4663,4643.44,4628.22,4624.78,4602.89,4592.22,4590.44,4590.67,4560.89,4556.78,4542,4534.67,4530.78,4526.11,4503.22,4492.56,4474.11,4474.11,4467.22,4456.56,4435.22,4428.22,4431.44,4434.67,4433.89,4444,4444.22,4461.33,4468.67,4486.67,4504.89,4519.78,4527.56,4542.78,4546.22,4554.33,4558.56,4558.44,4558.56,4565.22,4557.44,4561.33,4569,4572.33,4576.33,4583.89,4591.22,4587.67,4599.44,4599.33,4595.67,4587.67,4580.44,4572.33,4560.89,4560.67,4548.89,4534.67,4512.78,4501.44,4494.22,4483.33,4472.44,4461.89,4451,4436.22,4435.67,4435.44,4428,4406.56,4392.44,4375.11,4368.11,4354.56,4337.89,4328.11,4311.56,4298.22,4291.44,4291.78,4288.56,4291.89,4281.89,4285.33,4275.22,4288.22,4298.11,4304.56,4304.78,4307.67,4318,4321.44,4325,4328.89,4329.11,4325.78,4315.22,4318.89,4308.89,4305.22,4285,4267.56,4254,4244.56,4221.67,4211.89,4199.56,4177.78,4175,4168.89,4159.89,4157,4145,4139.11,4139.11,4133.22,4124.22,4121,4120.67,4108.44,4105.11,4096.11,4084.22,4081.78,4073.11,4061.78,4047.78,4031.11,4023.33,4018.11,4007.67,4002.33,4005.78,4003.11,4005.67,4020,4031.56,4040.56,4051.89,4059.89,4066.44,4074.22,4080.11,4086,4089.67,4096.11,4101.78,4098.33,4101.56,4095.67,4092.78,4085.89,4070.11,4066.22,4053.78,4035.78,4026.78,4015.33,4006.44,3995.33,3995.44,3981.67,3977,3963.22,3999.3,3990.2,3990.2,3984.4,3982.5,3991.6,3982,3979.2,3973.6,3972.4,3970.6,3968.7,3901.89,3891.78,3870.56,3838.67,3817.78,3796.89,3771,3742.33,3714.11,3685.78,3651.44,3627.56,3601.44,3609.1,3579.4,3554.3,3531.2,3507.4,3481.8,3456.8,3425.8,3405.2,3381.1,3353.5,3327.9,3306.6,3285.7,3264.8,3251.2,3240.7,3225.6,3215.8,3208,3201.9,3194.6,3185.6,3174.7,3157.7,3144.7,3127.5,3112.1,3092.9,3073,3053,3037.6,3025.5,3010.4,2995.2,2980.7,2970.6,2961.1,2895.78,2891.33,2887.11,2884,2882.56,2962.8,2968.7,2971.4,2979.6,2990.9,3025.1,3114.5,3218.2,3342.4,3471.1,3619.3,3784.67,3947.8,4127.3,4224.3,4255.2,4263.2,4274.4,4273.6,4276,4269.6,4266.5,4266.3,4268.9,4256.8,4260,4262.6,4262.6,4271.6,4274.5,4280.3,4286.2,4301
4562,4562,4562,4630,4665,4596,4642.5,4637.6,4669.3,4669.3,4676.5,4686.9,4686.9,4693.9,4708.4,4742,4797.1,4826.8,4808,4815.3,4811.6,4815.5,4834.5,4857.1,4849.4,4856.9,4864.6,4929.5,4955.8,4981.8,4989.2,4993.2,4996.6,4996.6,4989.2,4988.7,4984.9,4977.4,4977.4,4977.4,4981.1,4981.1,4988.7,4996.6,5000,5000,5000,4989.2,4981.8,4959,4940.2,4910.2,4906.7,4898.8,4902.6,4920.9,4921.3,4921.2,4928.8,4937.2,4937.5,4923.9,4919.3,4900.9,4889.5,4890.1,4897.4,4896.4,4896.1,4895.7,4888.1,4891.7,4888.3,4895.6,4891.5,4891.5,4902.9,4906.9,4925.78,4920.75,4944.5,4949.25,4954.62,4963.12,4958.12,4967.38,4968.12,4963.38,4967.62,4967.62,4962.75,4958,4958,4958,4958,4943.62,4939.38,4920.12,4896.62,4882.88,4859.75,4831.88,4805,4776.62,4763,4767.12,4735.9,4717.8,4730.89,4722.67,4692.7,4696.5,4715.44,4711.44,4699.56,4708,4712,4720.89,4733.33,4749.22,4749,4765,4758.6,4769.8,4780.9,4798.8,4814.2,4832,4830.67,4829.78,4808.89,4800.44,4783.89,4771.89,4755.67,4739.78,4731.78,4663.2,4673.1,4676.2,4746.33,4708.1,4763.44,4763.78,4722.8,4723.1,4730.3,4771.67,4734.1,4752.4,4741.6,4735.1,4736.6,4740.8,4735.9,4730.8,4810.11,4805.44,4678.2,4658.7,4632.6,4609,4587.9,4722.67,4533.6,4502.3,4473.2,4449,4408.2,4393.9,4369.6,4315.33,4301,4297.38,4269.88,4240.5,4129.62,4074,4057.29,4174.67,4185.83,4196.17,4343.67,4345,4320.25,4462.44,4489.78,4571.89,4732,4700.8,4729.5,4760.3,4777.9,4788.9,4800,4788.9,4762.9,4752,4759.4,4770.3,4781.4,4800,4822.6,4856.6,4883.5,4917.8,4925.7,4944.8,4956.2,4960.2,4941.1,4918.1,4868.2,4830,4796.3,4759.2,4704.7,4665.3,4640.7,4627,4609.7,4602.8,4592.6,4592.6,4599.4,4602.8,4606.2,4613.1,4609.6,4620,4637.3,4669.1,4683.2,4701,4719.1,4755.8,4759.6,4767.4,4752.6,4727.4,4706.7,4689,4673,4642.8,4601.7,4589.7,4599,4592.6,4605.5,4605.5,4614.3,4610.1,4612.3,4626.3,4616.78,4620,4635.33,4645.7,4652.6,4642.3,4643.2,4641.9,4631.6,4634.7,4628,4614.3,4703.67,4695.56,4695.22,4695.44,4679.44,4647.89,4647.78,4636.56,4624.89,4606.78,4603.78,4597.78,4598.22,4579.44,4572.67,4565,4549.78,4541.89,4522.67,4510.78,4491.78,4481,4469.78,4460.11,4459.78,4438.33,4435.11,4427.67,4434.33,4430.56,4440.33,4443.89,4457.89,4472.11,4493.89,4494.33,4520.11,4531.56,4531.67,4535.44,4546.78,4551.11,4551.33,4554.33,4558.11,4551,4557.89,4558.56,4577,4576.67,4583.89,4580.11,4587.89,4595.44,4606.78,4603,4606.89,4591.44,4575.89,4572.11,4556.44,4556.67,4534.11,4512,4501,4497.44,4486.44,4468.78,4465.11,4457.89,4440.11,4436.22,4439.11,4420.78,4410.22,4403,4389,4375.22,4364.78,4351.44,4338.33,4331.56,4311.67,4299,4292.22,4282.11,4278.44,4271.89,4268.56,4265.11,4271.44,4277.78,4280.78,4294,4284.11,4287.44,4294.11,4304.33,4304.67,4308.11,4305,4301.22,4304.67,4301.56,4288.22,4274.78,4254.67,4247.78,4228.22,4218.33,4205.67,4187,4171.44,4162.33,4153.11,4150.33,4138,4132.22,4126.33,4117.56,4117.22,4114.33,4111.11,4105,4095.78,4101.78,4092.67,4080.78,4075.22,4064,4053.33,4039.33,4028.33,4017.22,4015.67,4007.89,4002.67,3999.78,4005.22,3996.33,4009.89,4021.33,4030.67,4041.67,4049.78,4052.22,4057.89,4058.11,4070.44,4070.89,4083,4085.78,4091.89,4095,4095.22,4086.33,4086.11,4079.11,4065.78,4050.44,4035.56,4020.67,4009,4002.89,3988.78,3983.22,3969.44,3958.56,3945.11,3985.9,3974.2,3979.4,3968.8,3974.7,3976.3,3972.9,3968.3,3968.4,3963.5,3968.2,3958.4,3897,3931.6,3910.4,3890.2,3879.6,3860.9,3832,3734.33,3714,3685.78,3724.3,3692,3651.1,3619.1,3590.6,3569.2,3542.1,3517.9,3481.2,3460.3,3429.5,3404.9,3378.9,3351.8,3329.8,3308.5,3278.7,3261.5,3244.5,3232.1,3218.9,3207.2,3200.8,3189.6,3183.1,3174.2,3157,3146.3,3132.6,3119,3098.7,3085.2,3067.1,3050.9,3037.1,3027.6,3009.6,2995.5,2976.2,2970.7,2957.9,2894.33,2888.56,2888.44,2881.11,2882.56,2962.8,2967.4,2968.8,2977.1,2979.8,3017.3,3106,3212.5,3335.5,3459.6,3608.9,3774.67,3940.5,4122.8,4222.2,4241.4,4263.6,4262.8,4274.2,4273.1,4281.5,4275.3,4275.1,4280.5,4274.6,4265.6,4265.6,4271.4,4274.5,4283.4,4286.4,4292,4298.1
4562,4562,4562,4630,4630,0,4610,4636.83,4662.6,4662.5,4669.4,4672.8,4672.8,4679.7,4693.9,4726.8,4781.7,4815.3,4800.3,4800.3,4811.7,4815.4,4834.5,4849.6,4845.8,4841.9,4864.6,4918,4944.7,4962.7,4981.9,4985.3,4992.6,4989.2,4985.2,4977.5,4977.7,4977.4,4977.4,4977.4,4981.1,4981.1,4988.7,5000,5000,5000,5000,4985.8,4970,4951.3,4924.9,4902.7,4891.4,4898.7,4898.9,4917.1,4913.7,4909.7,4917.4,4921.9,4922.7,4900.3,4889.3,4878.1,4871.2,4871.7,4874.3,4877.2,4888,4895.3,4898.8,4891.2,4891.3,4903.3,4899.3,4917.8,4922.2,4937.2,4938.11,4930.38,4949.25,4958.88,4963.75,4968,4968.12,4977.38,4972.38,4972.38,4967.62,4967.62,4967.62,4962.88,4962.88,4957.57,4950.5,4944,4924.83,4899.83,4874.67,4876.86,4850,4824.14,4787.43,4776.5,4777.57,4756,4727.67,4707.56,4727.22,4711.44,4686.2,4689.8,4703.44,4696,4708.62,4717.5,4722.12,4727.38,4740.88,4763.62,4768.5,4750,4761.89,4773.89,4782.33,4792.2,4811.11,4822.78,4826.67,4822.44,4801.56,4796.44,4784.33,4763.89,4759.89,4747.67,4747.67,4743.11,4755.11,4758.44,4754.11,4711,4779.33,4775.78,4777.11,4777.78,4775.11,4779.44,4780.11,4780.11,4749.2,4788.44,4796.22,4751.7,4747.3,4735.7,4719.4,4709.7,4700.6,4677.4,4651.6,4629.7,4771.11,4738.67,4554.9,4695.67,4661,4638.44,4596.56,4409.3,4379.6,4350,4320.4,4268.3,4250.71,4304.5,4213,4196.14,4295.4,4312.4,4315.2,4330.2,4371.33,4384.62,4415.12,4404.11,4469.62,4559.75,4642.89,4686.5,4721.8,4749,4766.8,4770.3,4770.3,4762.9,4733.6,4737.4,4730.1,4752,4763.1,4774,4807.6,4815.1,4845.2,4875.9,4891.2,4917.9,4929.7,4933.2,4925.3,4906.6,4860.7,4837.6,4803.8,4770.3,4722.7,4675.9,4647.7,4634,4613.2,4606.3,4592.8,4592.6,4602.8,4616.7,4623.6,4627,4620,4633.9,4658.6,4679.6,4708.3,4722.8,4733.7,4766.8,4785.6,4770.9,4756.2,4738.7,4720.8,4689.2,4662.3,4638.6,4594.4,4588.8,4582.4,4595.5,4601.6,4597.6,4603.8,4613,4615.5,4629.3,4635.9,4649.6,4660.4,4667.7,4663.2,4645.9,4646.8,4648.6,4641,4642.8,4711.78,4703.78,4695.78,4699.89,4695.33,4691.44,4679.44,4667.67,4659.56,4632.67,4633.22,4622.56,4615.44,4617,4602,4599.44,4591.67,4580.33,4564.89,4561.33,4537.56,4525.22,4502.89,4499.11,4477.67,4470.33,4459.67,4446,4442.78,4434.78,4441.44,4441.44,4444.78,4455.67,4469.44,4469.11,4487.11,4498.22,4520.67,4528.33,4528.22,4535.78,4543.11,4543.33,4536.44,4540.67,4550.89,4543.44,4547.67,4551,4558.22,4566,4576.78,4573.33,4584.33,4595.33,4595.44,4603,4602.67,4594.78,4587.11,4582.89,4575.44,4556.44,4537.33,4522.89,4508,4490,4482.78,4472.22,4461.56,4447.11,4446.89,4439.44,4439.44,4424.67,4414,4410,4395.89,4378.78,4375.22,4368.44,4348.33,4325.22,4311.89,4298.67,4285.44,4282.33,4268.67,4261.89,4239.11,4248.67,4251.89,4258.22,4260.89,4260.89,4267.22,4267.33,4274,4290.44,4293.89,4283.89,4277.67,4280.89,4281.11,4284.56,4284.22,4261,4244.67,4228.22,4221.67,4208.67,4196.22,4177.56,4164.89,4149.67,4140.89,4141.11,4126,4123.11,4116.89,4105.33,4105.22,4104.89,4096.11,4087,4083.89,4081,4074.56,4065.44,4066.33,4054.89,4041.11,4036,4022.44,4017.22,4003.89,3995.78,3999.67,3999.33,3996.78,3998.56,4003.78,4009.44,4017.67,4017.78,4034.89,4042.67,4046.56,4052.44,4061.44,4061.33,4064.56,4067.33,4079,4085.33,4085.67,4084.89,4084.78,4072.78,4066.33,4053.89,4038.78,4020.44,4005.78,3988.22,3983.22,3968.78,3954.89,3946.89,3980.2,3972.8,3965.7,3968.6,3958.7,3963.3,3966.9,3964.7,3958.9,3956.4,3958.6,3958.6,3949.5,3936.7,3918.8,3897.9,3885.1,3865,3841.8,3824.9,3797.1,3773.1,3750.3,3725.8,3696,3668.7,3634.2,3609.6,3583.4,3555.6,3526.4,3499.8,3472.2,3437.1,3408.7,3384.4,3357.1,3330.2,3305.1,3277.1,3257.9,3242.9,3225.4,3215.5,3203.7,3195.5,3184.2,3173,3168.8,3151.4,3140.6,3126.9,3111.6,3098,3082.7,3067.6,3051.6,3037.7,3022.6,3006.2,2989.2,2920.44,2909.78,2957.2,2949.6,2883.89,2880.89,2876.56,2876.78,2879.67,2957.9,2963.4,2971.6,2970.2,3007.4,3102.1,3204.7,3323.7,3454.4,3581.78,3757.33,3925.8,4103.7,4208.3,4230.2,4249.4,4254.1,4268.4,4273.6,4273.1,4275.3,4278,4274.8,4277.6,4271.4,4271.5,4271.5,4277.2,4286.3,4292.1,4295.1,4301
4549.25,4549.25,4548.4,4551,4551,4579.5,4588,4603.4,4655.8,4655.8,4666.4,4666.4,4666.1,4669.5,4683.3,4723.2,4766.9,4807.8,4789.1,4796.5,4800.4,4811.7,4830.7,4846,4842,4838,4853.4,4910.2,4933.2,4958.8,4966.7,4981.9,4985.3,4970.5,4974,4970.2,4970.3,4970.6,4970.6,4981.1,4981.1,4984.9,4988.7,5000,5000,5000,4996.6,4981.9,4966.2,4947.5,4917.2,4891.3,4884,4891.6,4895.2,4905.9,4909.9,4902.3,4898.9,4902.8,4896,4885.4,4874.4,4860.4,4864,4853.8,4859.7,4873.7,4876.9,4888.3,4895.5,4894.9,4895.2,4907,4918,4932.7,4944.4,4958.6,4944.12,4944.88,4964.12,4977.38,4973.75,4991.5,4984.57,4979.71,4984.57,4979,4979,4979,4962.5,4962.5,4962.5,4956.83,4956.83,4950.5,4931.17,4913,4893.83,4862.67,4837.5,4800.83,4776.5,4758.83,4752.83,4739.88,4717.38,4699.67,4723.22,4715.67,4676.9,4697.11,4717.25,4680.67,4700,4713.38,4744,4726.62,4775.71,4801.71,4726.22,4738.67,4750.89,4755,4775.44,4790.67,4799.56,4815.33,4815.33,4811,4802,4785.22,4776.89,4768.22,4764.22,4751.56,4751.89,4747.33,4754.67,4766.33,4770.33,4732.1,4791.44,4788.22,4793.11,4789.67,4790.56,4790.56,4795.56,4762.5,4755.9,4752.9,4812,4819.78,4758.4,4754.5,4733.2,4728.6,4720.1,4696.5,4675.7,4651.8,4787.56,4763,4571.2,4539.6,4676.56,4653.78,4615.89,4421.2,4399.1,4373.1,4345.9,4295.1,4261.6,4260.38,4335.14,4323.14,4322.29,4318.86,4292.33,4305.17,4267.86,4368.86,4370.11,4407.89,4470.38,4559.25,4638.56,4734.25,4714.9,4734.3,4744.7,4751.9,4755.6,4744.5,4715.4,4715.5,4715.6,4726.4,4737.4,4752,4774,4796.4,4811.4,4837.6,4852.9,4868.4,4887.7,4899.4,4895.6,4872.5,4853,4822.7,4796.4,4770.3,4733.7,4690.3,4661.8,4644.5,4627.2,4613.2,4599.6,4609.7,4620.1,4627,4637.6,4644.6,4640.8,4651.3,4679.8,4701.1,4726.6,4740.9,4755.6,4792.7,4800.3,4789.4,4767.2,4741.8,4720.9,4692.3,4672.4,4634.5,4593.5,4584.3,4581,4597.8,4597.6,4606.6,4609.7,4609.1,4611.6,4624.22,4627.56,4631.44,4642.78,4654.78,4662.89,4671.11,4668.1,4651.4,4646.5,4648.5,4648.3,4707.67,4707.89,4707.56,4699.44,4699.44,4688.22,4675.78,4667.67,4652.44,4637.56,4634.44,4627.56,4624.33,4629.44,4618.44,4602.89,4599.44,4594.78,4576,4567.33,4540.22,4528.56,4502.67,4491.56,4484.22,4466.22,4455.89,4448.89,4445.22,4445.22,4448.56,4455.67,4466.44,4473.33,4476.56,4487.33,4498.33,4517,4520.78,4532,4532.11,4532,4535.56,4532.22,4528.11,4536,4532.11,4543.89,4547.67,4554.56,4570,4569.67,4573.22,4576.89,4588.22,4595.44,4599.22,4595,4591,4590.78,4583.11,4578.67,4559.89,4544.89,4526.44,4508.22,4497.22,4478.67,4471.78,4468.44,4450.56,4446.67,4443.11,4432,4428,4424.56,4403.11,4392.22,4378.56,4372,4358.44,4351.67,4331.56,4315,4302,4288.89,4282.44,4265.44,4252.11,4236.11,4242.11,4242,4245.22,4248.11,4254.11,4247.67,4254.44,4260.89,4274.11,4274.11,4270.78,4261.33,4264.33,4270.78,4260.78,4257.56,4244.67,4231.44,4211.89,4205.44,4196.33,4183.89,4165.11,4146.78,4140.67,4122.67,4122.56,4110.56,4107.33,4101.56,4092.78,4083.78,4078,4074.89,4084.22,4077.89,4072,4066.11,4051.11,4048.78,4043.33,4032.22,4030.22,4013.44,4008.89,4000,3997.89,3992.67,3983.89,3986.78,3980.33,3985.56,3988.22,3999.44,4002.33,4019,4027.89,4030.44,4039.78,4047,4055.33,4055.33,4067,4073.89,4079.33,4084.78,4082.56,4079.33,4066.78,4058.22,4051.56,4033.67,4012.22,3998.11,3986.67,3978,3955.22,3943.78,3932.89,3967.1,3965.3,3950.6,3951.4,3951.2,3957.6,3950.5,3949.6,3956.6,3953.9,3948.5,3948.4,3936.5,3926.2,3908.9,3880.5,3872.7,3851.1,3835.9,3808,3784.8,3759.9,3747,3725.9,3699,3668.6,3642,3612,3590.7,3568.6,3537,3504.2,3472.5,3440.9,3410.8,3382.6,3351.8,3326.6,3299.9,3275.5,3253,3234.3,3222.5,3210.5,3196.8,3186.7,3178.9,3167.8,3160.2,3151.1,3139,3128.3,3111.2,3095.9,3083.9,3066.2,3050.9,3037.3,3028.6,3008.9,2987.6,2919.11,2908.11,2957.2,2947.5,2882.33,2876.44,2873.44,2870.56,2950.8,2954.8,2960.1,2962.8,2968.3,3001.2,3096.9,3200.6,3317.1,3443,3570.33,3742.11,3905.9,4090.1,4192.2,4217,4236,4246.2,4260.1,4262.5,4264.5,4272.9,4278.3,4277.8,4280.5,4277.5,4280.2,4277.2,4277.4,4286.1,4289,4295,4301
4541,4541,4535.2,4528.67,4529,4563,4571.25,4571.25,4652.7,4649.1,4652.5,4652.5,4652.5,4652.2,4662.3,4708.8,4756,4792.8,4777.9,4785.4,4781.9,4800.6,4830.9,4838.6,4830.6,4834.4,4849.9,4894.9,4918.4,4943.9,4955.4,4966.7,4966.7,4966.5,4966.6,4966.2,4962.4,4958.7,4970.3,4977.7,4981.1,4984.9,4992.6,5000,5000,5000,4996.6,4978.5,4958.9,4940.3,4906.1,4884,4876.7,4891.8,4891.2,4902.5,4906.5,4902.5,4887.7,4887.5,4888,4870.5,4856.1,4853.1,4846.9,4832.6,4850.2,4859.5,4870.3,4877.1,4888.2,4906.7,4913.7,4929,4936,4955.4,4966.6,4974.7,4974.7,4978.1,4988,4984.57,4985.43,4995.14,4988.67,4994.33,4994.33,4987.67,4987.67,4987.67,4982,4975.5,4975.5,4975.5,4975.5,4963.5,4950.5,4931.17,4907.17,4881.83,4876.86,4851.12,4808.62,4776.44,4758.12,4735.29,4724.71,4708.88,4697.1,4719.44,4683.7,4677.4,4697,4693.22,4685,4684.89,4669.5,4686.11,4698.11,4702.44,4718.22,4727,4739.33,4739.2,4750.5,4779.56,4792.56,4807.44,4811.67,4807.33,4794.33,4789.44,4772.78,4776.89,4764.44,4760,4706.3,4701.5,4710.7,4725.2,4786.44,4749.1,4760.1,4804.78,4808.89,4776,4775.8,4815.67,4780.2,4783.6,4784.3,4778.5,4828,4840,4843.78,4762.7,4755,4743.2,4859.22,4717.8,4694.3,4677.6,4804.22,4771.22,4751,4546.9,4703.89,4668.89,4642.22,4444.2,4422.1,4408.8,4376.5,4335.8,4291.67,4277.44,4268.44,4254.56,4252.33,4345,4342.86,4345,4299.43,4307.86,4329.43,4392.12,4463.62,4569.75,4708,4729.25,4703.7,4727.2,4741.3,4744.6,4737.4,4730,4693.8,4683.1,4679.6,4690.2,4708.2,4719.2,4748.2,4759.2,4792.5,4796.3,4815,4833.9,4852.9,4864.6,4864.7,4860.8,4837.8,4807.7,4788.9,4766.7,4722.8,4686.7,4658.3,4647.9,4630.8,4630.6,4606.3,4613.2,4627.2,4641.1,4644.7,4648.1,4651.4,4669,4694.1,4711.9,4733.7,4759.3,4766.7,4811.2,4811.5,4804.2,4778.1,4752.6,4727.4,4699.2,4671.7,4630,4585.7,4590.2,4583.2,4593.3,4596.1,4609.6,4615.6,4615.4,4628.5,4628.11,4639.22,4651,4662.33,4685.1,4667.11,4667.2,4664.1,4661.3,4656.4,4650.5,4649.5,4631.2,4621.1,4691.56,4699.33,4699.11,4687.78,4679.33,4663.89,4652.22,4652.22,4645.67,4634.89,4635.89,4644.56,4636.56,4626.11,4613.89,4602.22,4597.78,4570.44,4550.56,4535.67,4513.33,4502.56,4491.22,4476.89,4466.33,4462.67,4456.44,4456.11,4452.44,4459.67,4470.11,4473.78,4491.56,4494.56,4502.22,4517.11,4517.11,4528.33,4532,4524.56,4531.56,4528.33,4535.44,4528.33,4531.67,4535.67,4543.78,4547.44,4559.11,4558.33,4565.56,4565.78,4580.78,4595.89,4599.78,4603.44,4603.22,4587.22,4586.78,4582.56,4567.33,4552.22,4537.33,4515,4500.33,4493,4475.22,4464.33,4464.33,4450.11,4446.44,4435.44,4435.11,4420.89,4403.11,4399.44,4389.33,4378.89,4365.11,4348.33,4324.78,4322,4308.89,4288.89,4289,4268.89,4245.78,4239.56,4236,4239.11,4242.22,4238.33,4248,4247.89,4244.78,4247.89,4254.56,4261.11,4254.44,4244.56,4247.67,4244.33,4237.67,4234.56,4221.56,4195.89,4189.67,4177.11,4174.11,4158.67,4146.67,4150,4129,4120.22,4120,4107.89,4104.78,4092.44,4077.33,4071.22,4071.22,4065.44,4065.78,4059.78,4051.33,4047.89,4039,4033.78,4031.11,4017.22,4020.78,4010.11,3995.78,3993.56,3991.11,3982.56,3985.11,3976.78,3970.56,3970,3978.11,3984.33,3992,3997.67,4009.11,4018.56,4027.78,4037.67,4040.44,4049,4067.11,4070.89,4076.89,4086.33,4082.56,4077.22,4070.33,4067.56,4052.78,4034.78,4013.89,3998.89,3984.44,3973.56,3950.67,3939.44,3930.89,3962.8,3955.6,3948.3,3951.7,3941.8,3945.9,3943.9,3948.4,3941.6,3940.9,3941.9,3936.5,3924.5,3864.89,3891.8,3873.6,3853.4,3838.5,3824.6,3801.1,3782.7,3757.2,3741.4,3719.3,3698.8,3681.8,3656.2,3631.2,3605.2,3580.1,3550.1,3516.6,3482.5,3445.1,3414.7,3381.1,3348.1,3320.9,3298.3,3274.1,3249.6,3232.7,3217.3,3204,3195.5,3186.9,3174.1,3164.3,3156.6,3149.1,3135.2,3121,3112.2,3095.4,3078.7,3065.5,3050.3,3035,3020.2,3002.8,2987.1,2971.8,2909.67,2951.5,2946.1,2876.44,2941.3,2864.56,2941.2,2942.6,2946.8,2950.8,2957.4,2961.3,2997.2,3087.8,3192.7,3306.6,3437.7,3558.78,3722.11,3888.7,4066.1,4169.9,4200.3,4218.8,4226.9,4243.6,4254.4,4256.2,4261.5,4263.9,4272.3,4269,4271.6,4274.5,4277.2,4280,4289,4288.9,4294.9,4301
4536.75,4536.75,4535.2,4545.75,4545.75,4563,4555,4555,4640.22,4638.9,4642.2,4642.2,4638.7,4638.4,4638.3,4694.4,4737.7,4763.4,4763.1,4770.6,4770.9,4789.7,4823.5,4846.3,4830.8,4842.2,4849.4,4888,4913.8,4932.3,4947.9,4951.1,4954.9,4951,4951.1,4947.5,4947.6,4951.5,4954.9,4973.7,4981.5,4988.7,4992.6,5000,5000,5000,4989.2,4970.5,4955.1,4928.9,4894.9,4876.4,4869.6,4883.9,4891.4,4902.2,4902.2,4898.4,4887.3,4876.5,4873,4855.9,4841.5,4835.3,4831.9,4825.2,4832.1,4856.9,4867.3,4878,4896.2,4914.3,4928.9,4943.8,4955.4,4975,4985.8,4981.9,4981.9,4989.2,4993.2,4992.44,4995.14,5000,5000,5000,5000,4994.33,4995.14,4995.14,4995.14,4989.43,4989.43,4989.43,4987.67,4981.17,4963.5,4947,4939.5,4921.12,4884.22,4851,4821.67,4793.22,4772.75,4756.29,4730.71,4722.38,4733.11,4705.6,4698.5,4684.7,4674,4697.22,4689.44,4685.22,4666.2,4673.3,4686.89,4691.11,4703.56,4711.67,4721.9,4725.5,4752.22,4768.22,4783.78,4796,4812,4811.89,4802.56,4798,4768.78,4776.44,4768.44,4764.33,4715.2,4717.9,4731.4,4737.8,4807,4770.8,4793.4,4834.11,4800.4,4797.7,4801.4,4831.67,4801.1,4805.1,4801.8,4795.7,4793,4787.5,4778.9,4863.78,4867.78,4863.78,4867.89,4736.1,4842,4837.44,4816.56,4791.89,4763.22,4743.11,4715.33,4688.11,4656.67,4473.2,4452,4439.4,4419.7,4391.5,4372.2,4363.9,4338.56,4344.67,4336.44,4333.44,4333.78,4348.56,4353,4361.71,4390.29,4411.57,4482.75,4678.57,4703.25,4724.62,4703.1,4723.6,4719.5,4726.4,4712,4708.3,4661.8,4662,4662,4668.9,4679.5,4690.2,4708.3,4730,4759.2,4770.3,4789,4792.7,4811.4,4838.1,4838.1,4815.3,4807.9,4789,4774.1,4755.7,4719.2,4679.6,4654.8,4648,4641.1,4630.6,4623.7,4630.7,4634.2,4648.1,4648.1,4658.8,4669.4,4683.4,4708.3,4733.6,4755.6,4777.7,4792.6,4822.5,4830.3,4822.9,4789.3,4759.9,4731,4706.5,4667.6,4636.5,4588.6,4585.5,4588.9,4602.5,4605.4,4615.8,4621.9,4614.9,4638.8,4639.44,4643.33,4650.89,4662.33,4692.6,4684.8,4677.4,4674.4,4668.1,4651.4,4649.1,4654.7,4636.4,4687.11,4679.11,4691.11,4671.56,4667.89,4667.44,4667.67,4656.22,4652.44,4653.22,4646.33,4647.11,4655.33,4651.78,4644.56,4629.22,4612.89,4605,4581.56,4565.56,4543.22,4520.22,4520.44,4502,4487.44,4470.22,4462.56,4459.44,4459.67,4466.78,4474,4473.89,4480.89,4491.78,4499.22,4505.89,4516.67,4524.22,4531.67,4523.89,4527.67,4531.44,4528,4520.22,4527.33,4527.78,4524.22,4535.56,4540,4554,4554.22,4558.33,4566.44,4580.78,4588.44,4595.67,4602.89,4603.44,4591.56,4591.11,4583.22,4571.22,4559.67,4536.89,4518.56,4504,4496.67,4474.56,4474.78,4464.22,4460.44,4446.22,4442.33,4427.89,4428,4406.67,4399.89,4386,4368.44,4355.11,4352.11,4328.56,4321.89,4298.67,4288.89,4278.67,4269,4252.67,4239.22,4236,4232.33,4238.44,4244.89,4235,4235,4234.89,4241.44,4248,4241.44,4235,4234.78,4228.22,4218.44,4221.67,4221.56,4205.56,4193,4180.33,4164.89,4155.67,4156.33,4144.22,4132.33,4120.44,4108.89,4108.56,4099.67,4090.33,4080.78,4069.11,4059.78,4059.89,4050.89,4057.11,4048,4044.67,4039,4030.44,4030.78,4019.56,4019.56,4008.67,4003.56,3992.33,3989.78,3984.44,3978.33,3972.56,3974.56,3969.44,3963,3965.56,3974,3979.78,3988.44,3994.11,3997.67,4006.89,4022.67,4028.78,4046.78,4058.56,4065.44,4075.11,4080.67,4083.33,4077.11,4073.78,4068.67,4060,4042,4017.33,4003.33,3985.56,3968.56,3954.56,3943,3931.44,3912.33,3949.8,3948.1,3946.8,3944.9,3948.2,3939.6,3942.3,3937.1,3934.7,3926.6,3921.6,3914.4,3860,3879.1,3863.7,3848.1,3830.2,3811.6,3790.6,3772.2,3759.5,3741.5,3724.8,3702.4,3682.2,3652.3,3630.1,3607.5,3582.8,3555,3521.1,3482.8,3447.2,3414.4,3384.5,3350,3323.2,3297.1,3267.6,3248.2,3231.3,3216,3205.9,3193.6,3183.7,3176.9,3165.5,3159.7,3148.8,3136.2,3122.3,3111.3,3096.1,3081.4,3066.5,3050,3036.2,3020.1,3004.1,2987,2973,2903.56,2951.5,2944.1,2873.44,2938.3,2936.5,2940,2940.8,2942.6,2949.4,2953.4,2961.3,2990.3,3084,3186.9,3300,3426.3,3557.6,3713.9,3869.3,4036.6,4158.8,4186.8,4200.8,4213.5,4224.2,4234.2,4241.9,4247,4261.4,4263.9,4257.8,4266,4268.8,4268.5,4277.1,4279.8,4285.4,4285.5,4288.6
4536.75,4532.5,4535.2,4517.67,4517.67,4554.25,4546.25,4555,4624.12,4635.8,4632.3,4632,4638.7,4628.2,4628.4,4673.4,4719.9,4748.9,4745.2,4759.7,4759.7,4778.5,4815.9,4846.6,4826.8,4827.1,4849.6,4880.1,4910.1,4921.6,4943.9,4947.3,4954.9,4947.2,4947.3,4939.7,4947.5,4947.7,4951.7,4962.6,4981.3,4988.7,4996.6,5000,5000,5000,4992.6,4966.7,4947.7,4917.4,4887.5,4873,4865.7,4880.8,4898.5,4902.5,4902.2,4895,4883.4,4865.6,4858.7,4844.2,4834.1,4816.5,4824.7,4806.7,4828.2,4854,4864.4,4886.6,4900.4,4926.1,4937.67,4955.3,4963.3,4978.4,4989.8,4996.6,4993.2,4996.6,4995.14,4995.75,4995.14,5000,5000,5000,5000,5000,5000,5000,5000,5000,4995.14,4995.75,4995.14,4989.43,4974.14,4947.86,4939.88,4917.44,4893,4869.88,4825.67,4809.5,4783.43,4765.67,4735.67,4731.14,4745.89,4729.78,4718.22,4710.33,4710.22,4728,4697.89,4693.56,4674.11,4678.33,4686.56,4678.3,4679,4696.8,4700.8,4714.8,4744.33,4760,4779.56,4800.22,4808.22,4811.89,4806.67,4793.78,4781.33,4776.44,4772.11,4764.56,4717.6,4731.4,4741.9,4794.67,4815.56,4832.33,4803.9,4808,4812.1,4823.2,4822.9,4859.33,4819.1,4822.8,4812.2,4802.7,4800.5,4802,4799.7,4788.6,4867.78,4772.4,4863.33,4867.33,4850.11,4845.67,4824.78,4795.56,4783.44,4759,4727,4695,4667.56,4647.89,4494.7,4604.89,4585.56,4559.44,4433.2,4423.4,4548.78,4549,4417.5,4412.7,4411.8,4406.22,4410.11,4574,4590.67,4453,4657.57,4664,4695,4718.44,4692.4,4709.3,4709,4708.6,4694.2,4683.4,4647.7,4633.8,4626.9,4630.3,4640.7,4658.3,4679.4,4697.4,4726.3,4733.7,4751.9,4777.9,4785.3,4804.1,4800.4,4789.2,4778,4770.7,4759.6,4730.2,4708.4,4676,4654.8,4641.1,4637.7,4634.1,4627.2,4634.3,4634.1,4651.8,4658.9,4665.9,4672.8,4690.6,4715.6,4741,4766.7,4788.9,4807.4,4852.9,4841.6,4830.1,4811.7,4770.6,4745.6,4713.4,4677.6,4646.6,4598.3,4595.5,4598.8,4609.1,4608.4,4625.5,4632.3,4635.5,4638.7,4663.22,4670.89,4670.78,4674.44,4682.67,4686.89,4688,4681.1,4667.3,4661.2,4651.5,4642.4,4679.33,4683.33,4675.22,4679.22,4671.44,4663.44,4659.67,4655.67,4652,4652.44,4652.44,4652.78,4669.33,4674,4670.11,4659.44,4655.11,4639.44,4619.56,4599.89,4576.44,4561.56,4538.56,4523.67,4513,4494.67,4487.44,4480.33,4470.11,4474.22,4477.78,4484.89,4488.22,4484.44,4495.33,4498.78,4513.33,4516.44,4516.11,4519.78,4530.89,4527.22,4530.78,4526.67,4515.67,4526.67,4523.44,4519.67,4523.44,4531.22,4542.44,4554,4550.67,4558.33,4573.78,4585,4592.11,4595.78,4595.67,4587.89,4580.22,4579.44,4571.67,4556.44,4533.33,4522.33,4503.44,4489.11,4478,4470.78,4456.67,4453.11,4442.56,4431.33,4413.89,4413.89,4396.89,4386.22,4371.89,4361.89,4362,4341.89,4332.22,4312.11,4305.56,4288.89,4285.78,4271.78,4252.44,4239.22,4242.22,4238.67,4242,4248.11,4245.33,4238.56,4235.22,4238.89,4242,4238.78,4222.33,4222.44,4212.56,4206,4205.78,4205.78,4189.78,4180.44,4158.44,4149.22,4149.78,4141,4123,4117.89,4109,4097,4093.89,4099.78,4084.33,4069.22,4066.11,4054.33,4051,4056.67,4051.11,4039.11,4042.11,4035.89,4030.33,4027.67,4016.33,4011.11,4005.33,3997.44,3991.56,3986.33,3983.22,3980.44,3974.78,3968.56,3962.89,3959.33,3967.56,3964.78,3973.22,3976.67,3988.44,3994.56,4007.33,4020.11,4029.33,4041.44,4056.67,4069.11,4076.22,4084.67,4089.89,4087.22,4078.44,4075.56,4063.89,4048.44,4030.78,4007.11,3992.89,3975.56,3961.11,3947.22,3938.56,3916.67,3910.67,3944.3,3947.3,3940.6,3938.5,3940.9,3933.1,3926.3,3921.3,3918.8,3906,3898.9,3888.4,3864.1,3850.6,3834.7,3820.1,3803.3,3786,3769.8,3754.6,3742.1,3724.6,3708.5,3684.4,3661.7,3639.6,3621.2,3590.3,3563.9,3525.6,3488.6,3446.7,3412.1,3384.1,3348.7,3323.1,3293.6,3267.5,3248.4,3231.5,3219.7,3206.2,3197.5,3187.2,3175.7,3165.8,3154.6,3147.2,3131.3,3119.2,3109.6,3094.3,3077.6,3066.1,3050,3032.6,3018.2,3000.6,2982.7,2968.8,2902,2952,2940,2934.7,2935,2933.7,2936,2934.8,2937.4,2944,2949.2,2956,2987.5,3074.4,3180.6,3293.2,3412.9,3547.3,3687.3,3847.3,4015.9,4132.2,4153.6,4172.6,4185.7,4196.3,4206.8,4220.5,4233.9,4245,4241.2,4252,4251.8,4260.1,4265.5,4271.3,4274,4276.7,4282.6,4285.4
4536.63,4532.25,4528.4,4528.67,4517.67,4545.75,4554.5,4554.5,4627.75,4639.2,4632,4632,4628.6,4618.2,4617.7,4670,4709.4,4730.8,4734.4,4744.9,4748.7,4767.2,4804.4,4838.6,4819.4,4823.2,4849.6,4879.5,4898.8,4921.6,4932.4,4943.4,4943.4,4939.6,4939.6,4936,4939.8,4947.7,4951.7,4955.4,4977.4,4992.6,4996.6,5000,5000,4996.6,4992.6,4966.7,4947.3,4917.4,4887.5,4873,4865.3,4888,4902.3,4898.9,4906,4894.9,4875.9,4846.9,4850.5,4829.2,4814.9,4804.9,4805.2,4806,4825.1,4853.2,4867.9,4885.5,4903.5,4921,4933.78,4947.9,4970.5,4982.4,4993.2,4996.6,4996.22,4996.22,4996.22,4996.22,4996.22,5000,5000,5000,5000,5000,5000,5000,5000,5000,5000,5000,5000,4991.5,4980.44,4967.3,4948.2,4929,4903.1,4884.5,4847.5,4826.67,4810.38,4772.71,4751.86,4732,4744.6,4727.2,4716.9,4709.4,4699,4692,4681.1,4676.8,4663,4659.7,4666.8,4674.2,4675.4,4682.4,4690.3,4701.1,4715.1,4735.9,4754,4764.6,4787,4780,4764.3,4760.5,4742.5,4772.67,4724.1,4724.5,4720.5,4731.4,4741.4,4762.7,4781.5,4795.9,4814.5,4826.4,4833.5,4837.8,4830.3,4830.3,4830.3,4829.9,4819.2,4816.6,4817.4,4814.9,4811.9,4800.6,4796.4,4788.2,4777.6,4858.67,4849.78,4845.67,4824.78,4808.11,4787.44,4758.67,4734.56,4714.56,4682.78,4667.11,4643.11,4623.89,4612.33,4475.2,4463.5,4458.3,4559.78,4552.89,4550,4435.6,4434.2,4436,4439.7,4440.89,4457.89,4473.33,4617.5,4661.11,4687.89,4710.78,4696,4698.8,4701.7,4694.3,4676.5,4672.7,4637.3,4616.5,4602.8,4602.8,4613,4630.3,4651.3,4672.3,4693.8,4704.7,4715.6,4733.8,4763.1,4770.6,4770.6,4763.4,4745.1,4745.1,4737.7,4730.2,4704.9,4679.7,4655,4644.7,4641.3,4634.1,4623.8,4630.8,4637.7,4655.3,4658.9,4672.8,4680,4701.5,4737.5,4748.4,4777.8,4800.1,4818.8,4875.7,4856.7,4833.9,4811.6,4774.4,4749,4727.5,4684.6,4656.4,4601.4,4605.2,4615.4,4622.3,4625.7,4636.1,4632.5,4642.6,4649.5,4675,4683.22,4683.22,4698.78,4698.56,4702.2,4695.5,4681.9,4671.6,4644.4,4641.5,4674.89,4678.78,4671.22,4658.89,4651.11,4643.67,4647.56,4643.22,4651.78,4651.67,4651.78,4652.11,4668.67,4680.89,4692.78,4682.33,4677.89,4670.22,4654.89,4634.44,4622.78,4595.33,4579.78,4557.33,4542.33,4520,4505.33,4498,4494.78,4488.11,4477.44,4484.11,4488.11,4494.89,4495.11,4505.89,4513.44,4513,4520.22,4523.33,4530.22,4530.33,4522.78,4526.56,4514.89,4518.67,4511.11,4515.11,4511.33,4515.56,4519.67,4530.56,4530.89,4538.89,4546.56,4558.56,4562.11,4580.89,4584.67,4588.78,4580.89,4576.56,4572.33,4552.78,4545.33,4529.67,4518.33,4507.33,4488.78,4474.33,4459.78,4449.11,4445.89,4442.44,4428,4414.11,4407,4389.67,4376,4362.22,4362.56,4352.22,4345.44,4325.22,4318.44,4302,4295.56,4295.11,4281.78,4268.67,4255.33,4252.11,4258.22,4255,4258.33,4255.44,4249,4245.78,4242.44,4239.33,4232.78,4216.56,4206.67,4206.33,4193.44,4196.44,4183.56,4177.44,4161.67,4149.33,4137.22,4128.33,4122.89,4111.22,4109,4094.33,4088.78,4088.22,4085.11,4072.56,4063.56,4063.33,4054.33,4047.78,4045.33,4039.11,4036.11,4027.44,4027.33,4021.33,4015.89,4010.11,3998.78,4002.22,3988.44,3982.78,3982.89,3979.89,3974.11,3973.67,3961.89,3959,3958.78,3964.56,3964.89,3973.11,3982.44,3985.33,3992,4004.78,4015,4026.78,4038.44,4052.11,4066.78,4076,4090.89,4084.44,4090.56,4084.33,4082,4066.44,4054.33,4028.22,4012.89,3992.89,3981.56,3969.89,3949.78,3941.56,3922.11,3911.22,3909.22,3904,3898.33,3948.8,3939.7,3927.2,3926.5,3913.3,3905.3,3897.2,3892.6,3882.5,3853.4,3839.2,3831.3,3810.6,3797.5,3784.6,3765.2,3751.3,3750.8,3728.8,3714,3694.9,3668.9,3648.7,3617.6,3592.9,3566.8,3528.1,3496.8,3450.3,3421.4,3391.2,3354.8,3328.2,3303.6,3275.8,3258.6,3242,3228.2,3211.5,3204.3,3195.8,3183.9,3170.7,3157.8,3145,3132.6,3117,3108,3094.1,3081.1,3066,3050.7,3034,3016.7,2999.1,2982,2966.8,2900.56,2944.2,2938.6,2932.7,2935,2928.5,2929.9,2932.2,2932.6,2937,2942.2,2950.4,2982,3072.2,3169.8,3280.3,3403.6,3533.1,3671.7,3830.2,3994.3,4109.6,4137,4151.2,4166.6,4174.1,4196.3,4201.3,4214.5,4225.2,4233.2,4232.7,4240.4,4248.8,4254.2,4262.7,4274.2,4273.8,4276.7,4285.5
