2920.2,2924.2,2930.9,2939.2,2943.5,2944.6,2950,2957.2,2960.2,2964.5,2971.6,2971.6,2977.2,2978.6,2984.6,2991.9,2993.4,2988.8,2988.6,2982.7,2979.7,2981.89,2983.56,2983.67,2985.22,2986.89,2990.11,2988.44,2993.44,2993.44,2995.11,2996.78,3021.8,3035.5,3046.2,3060.6,3074.6,3089.1,3102.2,3115.2,3116.7,3108.2,3093.5,3081.9,3073.4,3063.9,3052.7,3037.4,3025.3,3016.2,3016.2,3019.2,3020.7,3022.2,3026.7,3024.11,3029,3037.33,3040.67,3047.33,3054,3060.78,3072.56,3084.44,3091.33,3099.89,3105.11,3113.78,3120.89,3129.67,3135,3145.56,3150.89,3154.44,3156.22,3158,3159.78,3165.22,3165.22,3167,3165.22,3165.22,3165.22,3163.44,3163.44,3161.56,3161.56,3161.56,3159.78,3159.78,3159.78,3161.56,3159.78,3161.67,3163.44,3161.67,3163.56,3163.56,3161.78,3161.78,3152.13,3158.13,3160.13,3160.13,3160.13,3164.13,3164.13,3164.13,3168.13,3172.5,3174.22,3178,3179.89,3182.5,3185.33,3181.67,3189.11,3185.33,3189,3190.89,3187.22,3192.56,3192.56,3194.44,3196.33,3202.5,3205.7,3207.4,3207.4,3207.3,3209,3204,3202.4,3204,3199,3199,3197.4,3195.7,3194,3192.3,3195.5,3193.9,3195.5,3198.8,3200.5,3203.9,3207.2,3212.3,3215.6,3217.3,3222.4,3227.4,3227.4,3224,3225.7,3225.7,3229.1,3225.9,3225.9,3222.5,3220.8,3220.8,3214,3212.89,3209.11,3205.44,3201.78,3203.67,3201.78,3192.67,3188.89,3185.22,3182.38,3174.38,3164.25,3158.14,3136.83,3132.4,3123,3101,3088.4,3070.4,3049,3022,2965.5,2940.14,2859.25,2855,2847.78,2833.4,2833.2,2837,2839.9,2845.2,2850.5,2855.7,2861.3,2871.3,2882.3,2891.8,2904.7,2913.2,2928.5,2993.22,3007.78,3022.44,3037.33,3047.33,3069.22,3079.33,3089.67,3105.11,3120.89,3134.89,3147.3,3164.8,3185.8,3195.9,3212.4,3229.5,3243,3256.7,3260.2,3265.5,3269,3270.8,3277.8,3274.4,3274.4,3267.7,3259,3250.5,3245.8,3242.5,3242.9,3245.2,3248.1,3255.6,3272.4,3288.6,3303.4,3310.8,3315.3,3322.8,3325.6,3325.2,3323.3,3323,3323.2,3319.7,3317.8,3323.5,3325.6,3327.4,3323.5,3319.6,3319.9,3314,3310,3302.5,3300,3292.6,3283.3,3276,3267.4,3264.2,3255.8,3252.9,3249.7,3249.9,3248.1,3252.4,3260.9,3268.2,3278.2,3286.9,3297.5,3306.1,3314.5,3326.4,3333,3345.3,3348.7,3363.2,3370.4,3378.2,3383.7,3383.7,3386,3386,3378.7,3378.7,3368.1,3361,3345.4,3331.6,3312.3,3293.5,3274.7,3254.5,3239.8,3173.67,3159.22,3146.67,3137.56,3132.11,3123.33,3116.33,3105.78,3093.56,3079.89,3037.2,3027.3,3016.2,3008.4,2994.7,2985.7,2976.8,2965.2,2959.9,2950,2942.9,2937.5,2934.6,2931.8,2930.4,2930.7,2930.7,2925.2,2923.9,2915.5,2910.1,2900.6,2888.2,2877.4,2860.4,2844.4,2829.8,2815.5,2798.6,2783.4,2761.9,2747.1,2737.5,2723,2710.8,2699,2693.1,2684.7,2676.9,2679.11,2680.56,2680.56,2680.67,2684.78,2691.56,2696.89,2704.89,2708.67,2715.56,2724.78,2731.44,2736.78,2746.11,2752.89,2761,2766.44,2776.22,2783.22,2791.44,2801.56,2804.44,2813.11,2818.78,2824.67,2834.56,2843.44,2849.22,2852.33,2856.67,2862.56,2866.89,2875.56,2880,2878.44,2887.67,2893.78,2904.33,2912,2927.33,2930.56,2939.67,2947.44,2955.22,2996.5,3003.7,3008.1,3018.5,3024.3,3033.3,3037.5,3045.2,3051,3058.5,3056.6,3057.7,3063.1,3063.9,3063.5,3074.2,3072.3,3080,3084.4,3092.2,3095.3,3103,3109.2,3112.3,3112.2,3112.2,3109.1,3110.8,3107.8,3104.6,3103.1,3098.3,3090.5,3089.1,3089,3089.3,3086.2,3089.5,3089.8,3093.1,3093.3,3096.4,3093.4,3093.4,3093.4,3090.1,3086.8,3082,3081.9,3074.1,3064.6,3060,3053.9,3043.4,3042.2,3036.4,3026.5,3019.6,3014.5,3008.2,3006.1,3001.1,2997.4,2991.6,2990.8,2986.1,2987.7,2990.7,2989.1,2995.4,3003.9
2900.4,2901.5,2909.1,2915.5,2919.5,2927.5,2928.7,2935.7,2942.6,2945.4,2952.5,2955.4,2958.1,2962.3,2968.1,2976.8,2978.3,2979.8,2975.3,2975.5,2978.3,2978.3,2981.3,2988.44,2988.44,2991.78,2992,2998.44,3003.22,3004.89,3006.56,3024.3,3036.4,3050.3,3062.7,3072.5,3086.3,3094.8,3111.3,3122.5,3125.9,3114,3102.5,3089.4,3078.1,3066.9,3055.7,3046.4,3035.6,3029.5,3026.5,3025.1,3031.1,3035.5,3040.1,3044.6,3044,3045.78,3052.33,3060.78,3067.44,3074.11,3081,3094.67,3105.22,3112,3120.78,3124.33,3131.44,3142.11,3150.89,3150.89,3161.67,3163.44,3161.56,3161.56,3168.89,3168.78,3168.78,3167,3167,3167,3167,3167,3163.44,3165.22,3165.22,3161.56,3159.78,3158,3161.56,3168.67,3165.11,3167,3167,3167,3168.89,3170.67,3168.89,3170.78,3170.89,3166.25,3166.25,3164.13,3170.25,3172.25,3176.22,3178,3183.67,3180,3179.89,3183.44,3183.44,3185.22,3189,3189,3190.78,3190.78,3190.78,3196.22,3198,3201.56,3201.56,3210.7,3210.6,3212.3,3213.9,3219,3219,3219,3220.7,3218.9,3213.8,3210.5,3209,3209,3209,3209,3209,3203.9,3203.9,3205.6,3207.3,3207.3,3209,3212.3,3215.6,3220.7,3220.7,3224.1,3229.1,3232.5,3232.5,3229.1,3232.5,3230.8,3230.8,3232.5,3232.5,3229.2,3225.9,3222.5,3222.5,3219.1,3212.89,3212.89,3212.89,3211,3203.78,3200,3200,3196.33,3192.56,3190.67,3180.5,3178.38,3165,3158.17,3148.4,3135.6,3119.8,3098,3082.4,3061.2,3040,2993.67,2974.33,2942.75,2885.89,2871.4,2868.4,2865.5,2868.1,2869.6,2870.8,2870.7,2877.5,2883.5,2890.5,2895.8,2907.4,2918.2,2929.6,2935.3,2949.8,2959.7,2974.5,3034,3044,3054,3067.44,3081.11,3096.44,3112.11,3120.3,3143.7,3164.7,3184.3,3199.2,3214.3,3229.4,3241.4,3251.7,3255.2,3258.7,3258.7,3262.3,3262.3,3260.7,3254.1,3244.1,3239.2,3232.8,3230,3228.4,3228.8,3236.1,3244,3255,3269.6,3283.6,3297.7,3304.6,3309.6,3314.9,3314.6,3315.9,3315.8,3316.1,3318.1,3321.5,3321.7,3327.6,3329.2,3331.1,3329.4,3325.5,3323.5,3319.4,3311.6,3306,3298.1,3292.4,3288.6,3279.6,3272.8,3271.2,3268.2,3266.6,3263.3,3265.2,3269,3271.3,3283.7,3292.3,3299.4,3309.8,3318.9,3331,3341.3,3349.6,3356.7,3365.3,3372.6,3379.9,3387.2,3385.5,3389.6,3387.8,3382.5,3384.8,3377.2,3369.8,3357.9,3343.7,3326.9,3309.8,3294.9,3276.1,3260.2,3184.22,3173.22,3160.78,3149.89,3137.22,3130,3123.11,3116.22,3102.22,3091.89,3078.11,3037.7,3029.4,3018.8,3006.5,2990.3,2985.5,2973.8,2963.8,2955.3,2945.6,2937.2,2931.6,2927.5,2926.3,2923.6,2920.9,2919.5,2914,2910.1,2903.2,2896.4,2881.3,2873.4,2854.7,2835.1,2820.7,2807.6,2791.1,2774.6,2760.7,2744.8,2731.3,2720.4,2709.6,2698.9,2687,2678.8,2674.4,2670.9,2672.67,2672.67,2672.67,2675.22,2679.44,2684.67,2694.11,2694.11,2706,2711.22,2716.44,2724.33,2733.67,2740.44,2747.11,2752.67,2760.89,2769.11,2776,2783.11,2792.89,2797.22,2804.44,2814.44,2820.22,2827.44,2833.11,2842,2844.89,2852.22,2859.44,2868.22,2872.78,2880,2884.44,2895,2929.4,2933.7,2921.11,2928.78,2960.2,2967.3,2972.9,2955.11,2966.22,2969.33,2977.44,2987,2988.67,2995.22,3005.11,3013,3047,3053.3,3056,3055.8,3059.6,3063.5,3066.3,3069.4,3073.8,3083.1,3086.1,3095.5,3103.1,3109.3,3113.9,3120.3,3120.2,3118.6,3120.2,3117.3,3114.1,3115.6,3109.3,3103.1,3099.9,3101.5,3095.3,3093.8,3094,3097.1,3094,3097.3,3099.1,3102.1,3100.6,3100.6,3099,3091.2,3089.8,3086.5,3081.8,3077.1,3066.3,3057.2,3051.1,3043.7,3038.2,3035.5,3027,3018.9,3016.7,3010.3,3044.78,3046.44,3043.22,3043.22,3044.89,3039.78,3041.56,3041.56,3046.67,3046.78,3010.1
2883.3,2887.6,2888.4,2894.6,2898.3,2906.2,2911.7,2915.6,2922,2935.89,2940.56,2940.56,2948.44,2951.44,2939,2945.9,2961.22,2962.89,2954.6,2961.5,2967.4,2971.6,2977,2983,2985.9,2988.9,2994.8,3003.4,3012.1,3019.7,3025.6,3036.2,3052.8,3065.1,3076.3,3087.3,3098.5,3108.3,3118.6,3129.5,3129.7,3120,3108.3,3095.4,3082.4,3074.4,3066.4,3057.1,3041.7,3037,3037,3038.5,3040,3047.7,3052.2,3056.8,3058.3,3060.89,3065.89,3072.56,3081.11,3089.56,3096.44,3108.67,3115.56,3120.89,3129.56,3136.67,3142,3151,3156.33,3159.89,3161.67,3163.44,3167,3170.67,3170.67,3170.56,3172.33,3172.33,3170.56,3170.56,3168.78,3170.56,3170.56,3168.78,3167,3165.11,3165.11,3165.11,3165.11,3166.89,3168.67,3170.56,3172.44,3172.56,3176.22,3176.22,3174.33,3176.22,3176.22,3179.89,3181.78,3174.38,3183.56,3183.56,3185.44,3183.56,3185.44,3185.44,3187.11,3187.11,3188.89,3196.22,3192.56,3194.33,3199.89,3197.89,3199.78,3201.56,3203.33,3205.22,3212.3,3212.3,3220.7,3222.4,3225.8,3230.8,3232.5,3230.8,3232.5,3230.8,3229.1,3224,3224,3224,3219.1,3219.1,3215.7,3214,3217.4,3217.4,3219.1,3219.1,3220.7,3220.7,3224.1,3227.5,3230.8,3234.2,3235.9,3235.9,3234.2,3241,3241,3239.3,3235.9,3235.9,3235.9,3237.6,3232.5,3230.8,3229.1,3225.7,3222.4,3216.67,3214.78,3211.11,3209.22,3205.44,3203.67,3201.89,3198.22,3198.22,3194.56,3188.89,3183.44,3176.86,3174.57,3155,3142,3129.4,3116.8,3098,3079.4,3061.4,3011.2,3000.5,2978.43,2918.78,2892.38,2903.1,2897.4,2895.8,2890.1,2891.4,2894.4,2901.1,2905.4,2906.7,2915.3,2919.5,2929.5,2937.7,2945.1,2953.3,2960.6,2967.5,2979.1,3039,3049,3065.78,3081,3098.22,3104.5,3131.1,3153.5,3171.2,3185.9,3200.9,3214.3,3222.7,3232.9,3239.8,3236.3,3239.9,3241.6,3243.7,3238.7,3237.4,3229.2,3224.6,3218,3213.5,3217.2,3218,3221.5,3227.1,3241.1,3253.4,3267.7,3279.6,3288.5,3295.2,3300,3305.3,3303.1,3308.7,3310.6,3312.5,3319.7,3323.6,3327.5,3333,3331.6,3331.7,3333.1,3327,3326.7,3319,3311.3,3307.1,3301.7,3297.6,3292,3286.5,3283.3,3282,3276.9,3278.9,3279.4,3288.2,3292.2,3299.5,3306.7,3315.4,3326.2,3331.4,3343.6,3354,3357.1,3371.5,3376.6,3382,3389.3,3394.8,3395,3393.2,3390.1,3388.4,3381.1,3371.7,3364.9,3352.7,3339.1,3327.1,3310.3,3288.1,3276.8,3263,3249.8,3173.11,3164,3149.56,3140.78,3129.89,3128.22,3114.11,3102,3091.67,3074.67,3032.9,3026.1,3015.7,3003.5,2988.8,2982.6,2972.2,2960.9,2952.4,2942.7,2937.1,2927.4,2923.3,2918.2,2914,2912.7,2908.6,2904.5,2894.8,2886.8,2874.5,2859.9,2846.6,2829.6,2814,2794.8,2782.3,2770.8,2755.8,2742.2,2727.6,2715.6,2705.9,2696.4,2688.1,2679.8,2673,2668.4,2663.8,2666.11,2664.89,2667.56,2671.44,2674.11,2679.33,2688.56,2692.44,2699,2708.33,2712.33,2719,2729.56,2733.44,2738.89,2745.56,2751,2757.89,2767.67,2774.56,2781.78,2787.33,2793,2803,2810.22,2815.78,2824.44,2831.78,2839,2850.67,2856.44,2865.22,2874.22,2881.56,2888.89,2896.56,2907.33,2928.3,2938.1,2949.4,2955.1,2962.1,2967.9,2958.44,2964.56,2971,2977.33,2985.33,2990.33,3021.3,3028.8,3037.5,3042,3047.9,3050.8,3059.7,3057.6,3061.8,3064.7,3072.4,3078.5,3084.7,3090.9,3101.8,3107.9,3110.9,3122,3123.6,3126.7,3126.7,3128.2,3126.7,3126.8,3120.5,3118.9,3112.5,3110.9,3106.2,3103,3106.1,3103.1,3101.7,3103.2,3104.8,3104.9,3104.9,3104.9,3103.4,3100.3,3097.3,3089.4,3083.3,3077.4,3074.1,3063.5,3056,3053.1,3044.3,3041.6,3040.6,3033.5,3028.3,3020.4,3018.3,3014.5,3014.8,3054.89,3053.22,3051.56,3055,3056.56,3056.56,3058.44,3021,3028.8
2907.78,2909.11,2908.89,2905.78,2905.78,2910.11,2916,2919,2922,2925,2932.44,2932.56,2937.22,2942,2943.67,2950,2953.22,2957.89,2961.11,2962.78,2952.2,2959.2,2971.7,2980.2,2983.1,2990.4,2996.3,3005,3016.8,3028.7,3033.2,3048.4,3049.56,3079.2,3069.89,3099.2,3110.6,3117.2,3127.3,3133.6,3133.9,3130.6,3118.8,3104.3,3090,3081.9,3072.4,3063.2,3055.3,3047.6,3046,3047.6,3053.7,3058.2,3065.8,3068.9,3072,3084.2,3081.11,3088,3096.33,3101.67,3115.56,3120.78,3131.44,3134.89,3142,3147.33,3152.67,3158.11,3165.22,3168.78,3172.44,3174.33,3176.11,3176.11,3176.11,3176.11,3177.89,3174.11,3174.11,3174.11,3172.33,3174.11,3174.11,3172.33,3172.33,3168.67,3168.67,3170.44,3172.22,3176,3176,3176,3176,3179.78,3179.78,3179.78,3179.78,3181.78,3181.67,3189.11,3189.11,3189.11,3189.11,3189.11,3190.89,3189.11,3190.89,3190.89,3192.56,3194.33,3194.33,3198.11,3198.11,3203.56,3203.56,3201.56,3201.56,3203.44,3209,3219.1,3222.5,3225.9,3229.2,3234.3,3239.4,3239.3,3242.8,3241,3239.3,3242.7,3239.3,3239.3,3237.6,3234.2,3234.2,3230.8,3230.8,3229.1,3225.8,3225.8,3227.4,3229.1,3230.8,3230.8,3232.5,3234.2,3237.6,3237.6,3241.1,3244.5,3244.5,3246.2,3246.2,3242.8,3242.7,3242.7,3239.3,3241.1,3236,3236,3229.1,3229.1,3225.7,3224,3220.22,3218.44,3214.67,3210.89,3209.11,3207.33,3205.44,3205.44,3201.89,3196.22,3194.33,3190.67,3183.44,3181.67,3172.63,3158.33,3150.17,3129.4,3116.8,3098.2,3062.5,3042.17,3027.5,3014.38,2930.25,2936.44,2933,2928.5,2919.8,2919.6,2920.9,2923.9,2925.6,2926.6,2926.5,2932,2934.9,2939.3,2947.5,2953.4,2954.3,2961.2,2972.2,2984.8,3000.5,3055.78,3067.56,3089.44,3093.7,3126.4,3147.1,3163,3179.4,3189.3,3206,3210.9,3217.6,3222.8,3221.1,3219.5,3223.1,3223.3,3220.1,3213.7,3205.9,3201.3,3196.7,3197,3199.2,3199.8,3205.1,3210.4,3222.3,3234.3,3248.4,3256.8,3268.8,3278.8,3284,3285.3,3293.9,3299.4,3299.7,3306.6,3312.5,3319.9,3327.7,3333.1,3334.9,3335,3333.1,3334.3,3330.7,3322.7,3322,3315.9,3311.8,3306.3,3304.5,3304.2,3295.5,3297.3,3297.8,3296,3298.2,3307.3,3309.4,3316.9,3327.8,3329.5,3338.6,3349.2,3359.9,3368.7,3379.2,3380.8,3387.7,3391.4,3398.8,3400.8,3399.1,3395.1,3387.8,3386.9,3381.3,3370.4,3357.8,3351,3335.5,3321.8,3311,3292,3278,3267.1,3253.7,3173.11,3165.78,3154.89,3140.56,3133.33,3121,3110.78,3098.67,3084.89,3069.56,3056,3024.5,3013.9,3003.3,2987.1,2979.7,2969.6,2959.6,2949.6,2942.5,2931.6,2923.4,2919.3,2911.3,2905.8,2903.2,2900.6,2887,2878.9,2866.5,2853.1,2838.9,2825.8,2806.4,2789.7,2772.1,2760.9,2748.4,2736,2725.3,2715.5,2703.6,2694,2688.1,2681.1,2672.8,2668.3,2666,2661.5,2658.2,2657.2,2656.2,2663.2,2672.78,2680.56,2687,2692.33,2697.56,2705.44,2710.78,2713.33,2722.67,2731.89,2734.56,2742.78,2746.89,2752.11,2759.22,2766.33,2771.89,2778.78,2785.78,2791.44,2798.56,2808.56,2820,2825.78,2833,2844.56,2850.56,2859.22,2869.67,2879.89,2887.44,2899.67,2907.33,2914.78,2924,2933.56,2938.11,2945.89,2963.2,2958.56,2976.4,2983.6,2989.4,3001.1,3004.3,3013.3,3020.6,3024.8,3035.4,3043.1,3045.9,3051.8,3057.6,3061.9,3069.6,3077.2,3084.8,3091.1,3100.3,3109.7,3115.8,3123.7,3130,3132.9,3131.5,3137.7,3137.8,3137.8,3136.3,3133.2,3130.1,3123.7,3122,3118.7,3115.7,3110.9,3112.5,3109.3,3109.3,3112.6,3111.1,3112.7,3112.8,3108.1,3103.2,3098.7,3092.5,3083.3,3080.5,3072.9,3068.5,3058,3053.4,3049.3,3045.1,3040.8,3036.9,3031.4,3061.67,3060.11,3060,3063.33,3061.56,3063.22,3065,3064.89,3073.44,3073.56,3077,3084,3094.44
2857.5,2857.5,2860.1,2862,2862.6,2866,2870.9,2876,2880.8,2884.6,2889.8,2923.56,2929.67,2929.67,2932.78,2939.11,2945.44,2948.56,2950.33,2959.56,2964.44,2943.9,2956.1,2964.1,2987.33,2982,2990.7,3007,3021.44,3033,3036.44,3051.33,3061.56,3075.22,3085.22,3090.33,3099,3126.4,3135,3145,3146.3,3139.9,3123.5,3113.8,3103.9,3091.3,3087.8,3079.9,3067.5,3059.7,3059.7,3061.2,3064.2,3070.2,3074.9,3081.1,3087.3,3093.6,3104.3,3105.11,3108.67,3120.89,3129.67,3136.67,3143.78,3147.33,3154.44,3161.56,3167,3172.33,3174.22,3177.89,3181.56,3181.56,3181.56,3183.33,3189.1,3185.22,3183.44,3185.8,3184.1,3180.7,3180.7,3180.7,3179.1,3179.1,3179.1,3175.7,3175.7,3172.22,3172.33,3176,3176,3179.67,3183.44,3185.22,3185.22,3185.22,3188.89,3188.89,3185.33,3194.44,3194.44,3194.44,3198.11,3194.44,3194.44,3194.44,3198,3198,3199.89,3201.78,3201.78,3201.78,3203.56,3207.33,3209.11,3209.11,3209.11,3216.56,3224.2,3227.6,3234.4,3237.8,3239.4,3241.1,3244.5,3246.2,3246.2,3247.9,3247.9,3251.4,3249.6,3249.6,3247.9,3246.2,3246.2,3244.5,3241.1,3239.4,3239.4,3241.1,3239.4,3237.6,3237.6,3237.6,3239.3,3242.8,3246.2,3247.9,3247.9,3246.2,3246.2,3246.2,3249.6,3251.3,3247.9,3246.2,3242.8,3242.8,3237.7,3237.7,3236,3232.6,3229.1,3227.4,3222.22,3220.33,3218.44,3214.67,3212.78,3210.89,3207.33,3207.33,3209.22,3205.56,3203.67,3198.11,3192.56,3190.78,3188.89,3184.75,3172.63,3152.83,3144.83,3134.17,3097.71,3081.88,3064.62,3045.29,2963.25,2953.88,2950.12,2955.1,2953.1,2947.2,2947.1,2944.1,2947.1,2945.6,2945.1,2942.3,2943.6,2947.6,2949,2953,2952.6,2957.9,2969.9,2982.5,3002.8,3023.6,3071,3091.22,3099.8,3129.6,3148.7,3166.2,3182.6,3192.5,3202.6,3212.5,3214.2,3212.6,3211,3209.4,3206.2,3204.6,3201.6,3195.5,3189.3,3181.4,3180.1,3177.6,3184.5,3181.7,3188.2,3195.3,3205.4,3211.9,3222,3235.6,3249.4,3256.2,3264.1,3272.7,3281.7,3288.7,3294.4,3303.4,3310.5,3320.2,3326,3332.9,3338.2,3338.6,3338.6,3336.3,3334.1,3331.7,3331.4,3326.7,3319.4,3317.2,3312.9,3311.1,3311.1,3305.8,3307.6,3306.3,3317.2,3319.3,3321.5,3330.8,3336.4,3347.3,3358.3,3369.4,3376.5,3383.6,3388.5,3393.6,3397.3,3400.5,3402.4,3402.7,3402.5,3399.2,3391.9,3386.6,3379.4,3367,3358.3,3345.9,3332.2,3320.8,3306.9,3296,3279.7,3270.4,3257,3180.22,3165.67,3153,3144.11,3133.44,3123,3110.67,3093.56,3081.56,3067.89,3051,3037.44,3012.3,3000.2,2987.1,2981.3,2969.6,2959.6,2948.3,2938.5,2927.5,2922,2915.1,2905.9,2899.1,2892.3,2888.4,2873.6,2865.6,2850.6,2835,2820.7,2802.5,2788.5,2769.7,2752.2,2739.9,2730.2,2721.6,2712,2701.2,2694,2691.6,2684.6,2674.1,2667.1,2662.6,2666.1,2660.3,2659.3,2662.8,2661.9,2674.11,2675.33,2681.89,2685.78,2690.89,2698.78,2704,2706.67,2714.56,2719.89,2727.78,2729.11,2737.33,2742.78,2747,2749.67,2760.56,2766.11,2769,2777.56,2783,2788.67,2799.89,2808.44,2818.44,2825.56,2835.78,2844.67,2853.33,2865.22,2875.33,2884.44,2896.78,2902.78,2914.78,2927.8,2937.6,2942,2950.2,2954.5,2961.7,2967.4,2976.2,2983.4,2989,2993.5,3002.5,3009.9,3017.3,3023.2,3030.5,3041.1,3043.9,3051.5,3060.5,3068.2,3076,3086.6,3095.7,3103.4,3111.2,3118.8,3125.2,3137.9,3137.9,3142.7,3145.8,3150.7,3147.5,3145.9,3142.7,3141.2,3134.8,3130,3126.7,3125.1,3121.9,3121.8,3121.8,3123.4,3120.3,3117.2,3117.2,3117.2,3110.9,3106.4,3097.1,3094.1,3088.1,3079.2,3077.8,3067.1,3061.1,3056.8,3052.6,3046.7,3044.2,3042.9,3039.1,3070.22,3071.89,3073.56,3077,3078.67,3078.67,3078.67,3082.11,3087.22,3094,3099.44,3104.78,3111.67
2854.1,2852.3,2851.7,2853.3,2853.8,2856.1,2859.8,2866.1,2869.8,2876.3,2877.4,2875.3,2876.6,2923.44,2926.56,2929.78,2896.6,2901.4,2943.89,2950.22,2956.44,2971,2977.44,2980.78,2987.33,2993.89,2997.11,3007,3023.11,3033.11,3044.67,3056.56,3070.22,3082.11,3094,3102.56,3109.56,3126.1,3141.1,3149.3,3152.5,3142.9,3132.8,3121.3,3110,3109.6,3095.4,3090.5,3079.6,3073.4,3071.8,3077.8,3079.5,3084.1,3090.4,3096.6,3101.2,3109,3116.7,3124.8,3126.22,3133.11,3143.78,3147.33,3156.22,3159.78,3163.33,3172.56,3174.22,3181.56,3185.22,3187,3192.44,3190.56,3192.44,3192.3,3192.3,3192.3,3189,3185.8,3185.8,3185.8,3184.1,3182.4,3182.4,3179.1,3180.8,3180.8,3180.8,3180.8,3181.56,3181.56,3181.56,3189,3189,3190.78,3190.78,3196.33,3196.33,3200,3198.11,3201.89,3198.11,3198.11,3200,3201.78,3203.67,3205.44,3207.33,3205.56,3207.33,3212.89,3212.89,3212.89,3214.78,3216.67,3220.33,3220.33,3224,3230.8,3237.7,3237.7,3239.4,3241.1,3244.5,3247.9,3249.6,3253.1,3254.8,3258.3,3261.7,3260.1,3258.4,3258.4,3256.6,3254.8,3254.8,3253.1,3254.8,3253.1,3254.8,3251.4,3251.4,3249.7,3249.7,3249.7,3251.4,3251.4,3251.4,3249.6,3253,3254.7,3253,3253,3253,3251.3,3249.7,3248,3248,3246.3,3242.9,3242.9,3239.5,3236,3232.6,3229.1,3225.8,3225.8,3220.7,3215.6,3213.9,3212.78,3214.67,3211.11,3211.11,3209.33,3205.56,3200,3201.89,3196.44,3190.89,3189.11,3178.11,3176.63,3170.63,3158.38,3133.56,3116.22,3102.22,3084.89,3070.25,2990.75,2988.67,2985.8,2979.8,2978.1,2973.6,2975.1,2973.1,2971.6,2965.8,2964,2959.4,2961.9,2961.9,2964.5,2965.5,2975.1,2982.7,2998.1,3017.4,3041.3,3062.8,3088,3117.1,3140.7,3164.6,3179.4,3189.1,3199.1,3210.8,3214.2,3215.9,3217.6,3211,3209.4,3202.8,3194.5,3193.1,3181.7,3170.6,3166.1,3161.5,3157.1,3155.9,3159.4,3162.6,3167.9,3174,3185.9,3195.7,3209,3224.3,3234.1,3241.3,3249.8,3260.1,3274.4,3283.2,3294,3301.3,3312.5,3322.2,3334.7,3335.1,3336.9,3340.3,3339.6,3335.7,3336.9,3334.2,3326.5,3322,3320,3315.8,3315.9,3317.5,3315.8,3319.4,3321.5,3323.5,3331.2,3338.7,3344.4,3353.6,3363.2,3372.4,3381.3,3389,3398,3401.3,3404.7,3412.1,3409.8,3411.8,3413.8,3406.2,3400.8,3395.6,3388.5,3377.5,3366.5,3358,3342.4,3330,3320.6,3305.4,3296.1,3283.2,3272.3,3258.8,3249.6,3238,3225.2,3138.78,3130.11,3119.56,3102.22,3090.11,3076.44,3056.11,3044.33,3032.67,3007.9,2994.4,2984.3,2978.5,2968.4,2958.2,2951.2,2938.5,2929,2919.4,2913.9,2900.6,2891.2,2883.2,2875.1,2864.6,2853.6,2836.4,2822,2807.7,2791.2,2777.1,2761,2746,2735,2725.2,2715.4,2706,2702.4,2696.5,2687,2682.3,2674.2,2671.7,2667.1,2663.8,2662.7,2661.5,2662.8,2664,2669.7,2672.1,2679.2,2682.7,2693.56,2697.44,2702.78,2705.44,2712,2719.78,2725.33,2730.56,2731.89,2738.67,2742.89,2746.89,2756.44,2759.22,2764.89,2771.89,2778.78,2784.44,2789.89,2799.67,2808.44,2816.89,2829.89,2837.22,2847.56,2857.89,2868,2877,2889,2901.22,2911.78,2926.3,2934.6,2941.8,2946,2954.6,2958.7,2963.2,2967.4,2973.3,2981.6,2983.1,2990.4,2995,3005.1,3011.1,3021.6,3030.5,3037.8,3048.4,3057.6,3066.8,3075.9,3085.1,3097.3,3103.5,3116,3122.2,3130.1,3142.6,3142.6,3146,3153.9,3155.5,3154,3152.3,3147.4,3147.5,3145.9,3141,3141.1,3134.6,3131.4,3129.8,3128.3,3129.9,3128.3,3123.5,3122,3120.4,3117.5,3114.3,3103.5,3100.4,3092.9,3082.4,3078,3072,3066.1,3061.8,3057.2,3052.8,3050,3046.1,3047.6,3046.6,3050,3050.1,3050.8,3087.56,3092.67,3097.78,3103,3108.11,3117,3125.78,3132.89,3139.78
2857.5,2853,2853.8,2852.9,2849.6,2855.6,2858.2,2863.6,2865.9,2867.3,2867.4,2872.3,2914.33,2868.1,2873.8,2878.6,2887.3,2892.1,2898,2945.56,2953.44,2963,2974.22,2980.78,2982.33,2987.33,2994,3010.11,3021.56,3034.56,3043,3058.11,3073.44,3083.67,3097.44,3104.33,3117.8,3132.3,3139,3150.6,3152.3,3147.3,3139.2,3129.1,3122.4,3114.3,3109.3,3101.3,3093.3,3084.1,3084,3088.6,3093.3,3099.7,3102.8,3107.4,3115,3124.7,3132.7,3137.4,3148.6,3147.33,3154.44,3158.11,3167.11,3172.44,3178,3181.67,3185.22,3192.56,3194.33,3196.22,3198.11,3198.11,3196.22,3199,3198.9,3197.3,3193.9,3193.9,3192.2,3187.4,3187.4,3187.4,3185.8,3182.4,3182.5,3184.2,3184.2,3185.8,3187.5,3187.5,3187.11,3194.56,3196.33,3198.11,3198.11,3201.78,3201.78,3205.56,3207.33,3205.44,3205.44,3209.22,3211,3211,3214.78,3216.67,3216.67,3218.56,3218.56,3218.56,3218.56,3220.44,3220.44,3222.22,3226,3229.67,3232.5,3235.9,3237.7,3242.8,3244.5,3246.2,3251.3,3254.8,3258.2,3263.5,3265.2,3267,3272.1,3268.7,3270.4,3270.4,3270.4,3270.5,3270.5,3268.7,3266.9,3265.1,3263.4,3261.6,3263.3,3261.6,3259.9,3259.9,3256.5,3258.2,3260,3261.7,3258.2,3258.2,3254.7,3256.4,3256.4,3258.2,3251.4,3253.2,3249.8,3248,3244.6,3242.9,3241.2,3236.1,3236.1,3236.1,3229.2,3225.8,3222.4,3217.3,3213.9,3213.9,3214.67,3214.78,3213,3213,3211.22,3205.67,3205.67,3201.89,3196.44,3189.11,3187.33,3178.33,3172.78,3162.11,3151.33,3140.67,3126.67,3112.78,3098.78,3015.62,3011.75,3004,3017.6,3008.56,3006.4,3004.9,3004.9,3001.7,2995.2,2993.6,2991.7,2988.4,2989.9,2989.4,2996.4,3001.3,3012.1,3027.3,3042.7,3067,3092.1,3116,3137.8,3169.7,3184.3,3197.5,3209.1,3217.5,3226,3226.1,3226.1,3222.6,3217.6,3214.3,3207.8,3194.3,3189.5,3178,3165.3,3155.7,3144.8,3137,3132.2,3132.4,3135.5,3142,3142.1,3152,3165,3181.8,3191.8,3203.6,3217,3230.8,3244,3254.7,3268.8,3277.6,3295.7,3308.7,3316.3,3325.7,3332.7,3336.3,3337.7,3337.8,3335.2,3332.9,3333.9,3329.3,3325.2,3324.9,3322.7,3320.7,3326,3324.3,3327.8,3331.5,3335.3,3343,3348.7,3354.4,3367.7,3376.6,3378.8,3390.1,3404.9,3406.6,3408.4,3415.7,3413.6,3419.3,3421.1,3413.4,3411.6,3404.4,3397,3386.3,3379.3,3366.6,3357.7,3340.2,3328.3,3316.8,3306.6,3295.2,3289.4,3277.4,3262.2,3253,3239.2,3230,3213.9,3201.4,3114.33,3095.33,3083.33,3069.78,3052.89,3037.67,3027.67,3004.6,2995.9,2980.1,2972.9,2968.5,2962.5,2952.6,2940.2,2930.5,2922.3,2908.6,2899.3,2888.5,2880.6,2868.5,2856.4,2843.2,2827.6,2814.5,2797.7,2781,2768.5,2751.1,2742.5,2729,2724.1,2713.2,2707.1,2699.9,2694,2689.2,2684.6,2678.8,2675.3,2670.5,2672.8,2670.6,2670.8,2669.8,2670.9,2676.6,2684.22,2686.89,2689.56,2694.78,2698.78,2702.78,2708,2711.89,2717.44,2722.67,2728,2730.67,2737.44,2738.78,2744.33,2752.44,2755.11,2757.89,2769,2771.78,2780.11,2787,2794,2804,2808.22,2822.67,2831.33,2840.11,2854.89,2863.67,2872.44,2883.11,2896.67,2910.22,2917.9,2931.8,2937.5,2943.1,2948.7,2957.2,2958.7,2966.1,2969.67,2971.33,2974.33,2983.2,2989.2,2997.9,3006.6,3014.1,3021.6,3031.9,3040.9,3051.6,3062.1,3071.1,3082,3091.2,3105,3117.5,3125.5,3131.6,3141.2,3146,3150.5,3158.6,3158.6,3160.2,3161.7,3161.6,3159.9,3155.2,3150.4,3150.4,3147.2,3147.2,3145.7,3140.9,3137.8,3136.2,3133,3129.9,3126.8,3123.7,3117.4,3108.2,3101.9,3094.6,3087.1,3082.6,3076.5,3072.1,3070.8,3069.3,3066.6,3063.6,3062.4,3064.2,3059.8,3065.9,3070.5,3073.6,3103.11,3106.67,3120.44,3125.67,3132.78,3139.89,3150.44,3161.56,3166.89
2860.9,2856.9,2857.8,2855.4,2855.8,2856.3,2858.5,2863.6,2864.9,2867.4,2869.8,2869.9,2869.7,2870.1,2873.5,2877.1,2883.6,2888.7,2894.9,2899.7,2950.22,2964.56,2971,2975.89,2980.78,2989,2995.56,3005.33,3019.78,3032.89,3046.33,3058.11,3073.44,3083.56,3090.44,3103.3,3112.8,3120.7,3132.2,3145.2,3147,3151.8,3142.1,3135.4,3125.4,3123.6,3117.1,3112.2,3102.7,3099.5,3100.9,3102.5,3107.2,3113.4,3115,3126.2,3126.2,3137.3,3147,3153.4,3161.5,3164.7,3165.33,3174.33,3178,3187.11,3190.78,3194.33,3199.78,3199.78,3203.44,3205.33,3207.22,3205.44,3207.3,3205.7,3207.4,3205.7,3202.3,3198.9,3197.2,3197.2,3195.6,3195.6,3192.4,3192.4,3190.7,3189.1,3189.1,3192.4,3195.8,3195.8,3197.5,3198.11,3199.89,3201.67,3203.56,3205.44,3211,3212.89,3214.78,3211.11,3214.89,3218.56,3220.44,3222.33,3222.33,3224.22,3224.22,3226.11,3226.11,3229.89,3226.11,3229.89,3233.44,3233.44,3237.6,3239.3,3239.3,3241,3247.9,3249.7,3254.9,3258.3,3263.5,3265.2,3267,3268.7,3275.7,3275.7,3277.4,3279.1,3279.1,3279.1,3279.1,3279.1,3277.4,3277.4,3275.7,3272.2,3270.5,3265.1,3266.8,3265,3266.8,3266.8,3266.8,3265.1,3261.7,3261.7,3260,3261.7,3258.2,3258.2,3256.5,3254.9,3253.3,3251.5,3249.8,3246.3,3244.6,3244.6,3241.2,3237.8,3234.4,3234.4,3229.3,3225.8,3225.8,3219,3219,3217.3,3218.44,3218.44,3214.78,3214.78,3214.89,3211.22,3207.56,3205.78,3202.11,3194.67,3191.11,3180.11,3178.33,3169.33,3160.33,3153,3142.44,3133.67,3065.4,3055.8,3046.22,3046.8,3040.6,3041.6,3040.1,3037.1,3036.4,3034.3,3029.8,3030.9,3026.3,3024.3,3027.1,3028.2,3030.7,3035.6,3049.3,3063.3,3083.1,3108.5,3128,3149.5,3171.5,3196,3214.1,3226,3236.1,3241.3,3248.2,3248.1,3248.1,3241.3,3230.9,3226.1,3217.6,3207.7,3195.9,3177.8,3166.6,3150.6,3136.2,3126.8,3120.6,3117.4,3116,3117.6,3117.5,3122.4,3130.4,3148.1,3158,3176.3,3192.9,3206.1,3228.2,3243.8,3261,3271.9,3288.1,3304.8,3313.9,3324.7,3332.6,3339.6,3335.7,3340.8,3334.9,3336.2,3337,3332.8,3332.3,3330.2,3329.7,3331.3,3336.7,3334.6,3338.3,3343.8,3349.7,3355,3359,3368.4,3376,3385.5,3389.2,3402.2,3410.1,3417.4,3419.2,3416.9,3422.9,3422.6,3422.7,3419,3411.6,3408,3397,3387.9,3377,3366.6,3354,3342.1,3330.1,3314.5,3305,3298.6,3290.6,3277.7,3268.2,3254.1,3242.5,3228.5,3211.8,3197.5,3182.5,3156.9,3078.33,3063.22,3049.67,3032.89,3022.78,3004.9,2991.8,2981.7,2973.2,2968.7,2958.5,2951.6,2941.9,2930.8,2921,2910.2,2898.3,2884.8,2875.4,2863.4,2850.1,2836.9,2817.3,2803,2792.7,2774.9,2761.2,2749.8,2736.4,2729,2722.9,2716.9,2710.8,2705.9,2701.1,2694,2686.9,2684.6,2679.9,2677.6,2678.8,2675.3,2675.4,2676.7,2679.1,2681.4,2683.8,2687.3,2690.8,2693.1,2698.78,2702.56,2705.22,2709.33,2714.56,2720,2725.33,2729.44,2733.44,2738.78,2741.67,2749.67,2753.67,2756.44,2763.44,2770.11,2777.33,2785.67,2789.89,2795.44,2803.89,2815.44,2824.33,2831.56,2845.78,2854.67,2865.33,2884.1,2896.3,2905.8,2916.7,2929.1,2936.1,2944.8,2950.3,2958.8,2960.2,2966.4,2970.7,2973.6,2979,2983.6,2986.5,2992.1,2999.5,3008.3,3014.4,3026.1,3033.6,3043.9,3057.7,3063.6,3078.7,3089.6,3100.2,3112.7,3120.6,3128.5,3142.6,3145.9,3155.5,3160.2,3163.3,3163.3,3166.4,3168,3167.9,3164.6,3163,3159.9,3153.4,3151.9,3151.9,3150.3,3148.7,3144,3140.8,3134.6,3133,3131.6,3120.7,3114.2,3106.6,3097.8,3093.2,3088.7,3082.6,3079.6,3076.7,3073.6,3072.5,3074.1,3074.2,3077.4,3083.5,3089.4,3096.7,3118.56,3122.44,3129.33,3139.67,3152.56,3161.33,3168.67,3179.44,3192.44,3197.89
2871.2,2868.2,2869.1,2868,2864.9,2868,2869,2870.5,2872.3,2874.8,2874.7,2874.8,2873.8,2872.4,2876.8,2879.6,2884.6,2889.7,2896.3,2902.6,2911.5,2926.4,2935.8,2948.5,2956.4,2967.4,2994,3003.56,3018.22,3018.5,3031.8,3045.3,3055.8,3074,3084.8,3097,3106.4,3109.5,3120.8,3138.4,3140.1,3140.1,3138.5,3134.9,3131.5,3125,3123.3,3118.4,3113.4,3111.8,3113.6,3115.1,3119.8,3127.8,3129.4,3137.3,3140.6,3150.2,3151.7,3164.7,3171.1,3177.7,3184.4,3190.9,3199,3194.33,3196.22,3201.56,3201.56,3207.11,3209,3212.78,3214.67,3215.6,3215.6,3215.6,3213.9,3209,3209,3203.9,3198.9,3198.9,3198.9,3198.9,3197.3,3195.6,3198.9,3198.9,3198.9,3197.4,3199.1,3197.5,3200.7,3207.3,3207.22,3209,3214.67,3216.56,3218.44,3218.44,3224,3224,3225.89,3226,3229.89,3231.78,3231.78,3233.67,3235.56,3239.44,3239.44,3239.33,3237.33,3242.8,3242.8,3241,3244.5,3246.2,3246.2,3249.6,3253.1,3256.6,3260.1,3261.8,3266.9,3270.4,3273.8,3277.4,3279.1,3280.9,3287.9,3287.9,3286.2,3286.2,3289.8,3289.8,3289.8,3289.8,3286.3,3282.8,3281,3275.8,3277.6,3274,3270.4,3268.6,3268.6,3266.8,3266.8,3263.4,3261.7,3258.2,3256.5,3256.5,3258.3,3253.2,3249.9,3249.9,3249.9,3251.6,3249.9,3248.1,3243,3236.1,3237.8,3234.4,3232.6,3232.6,3225.7,3222.3,3220.6,3219,3220.7,3217.4,3214.1,3214.89,3214.89,3214.89,3211.22,3203.89,3205.78,3194.67,3194.78,3185.67,3182,3174.56,3172.89,3162.11,3153.22,3083.9,3082.3,3079.1,3074.3,3071.1,3068,3063.2,3061.7,3058.4,3061.2,3059.7,3059.2,3063.5,3062.2,3062.9,3063.9,3067.6,3072.9,3080.9,3093.5,3109.1,3129.5,3149.4,3175.9,3193.4,3219.9,3238,3253.2,3262,3268.9,3270.6,3272.3,3274.1,3268.9,3263.7,3254.9,3244.7,3232.9,3220.9,3204.3,3187.7,3171.2,3156.7,3139.2,3129.6,3115.5,3112.4,3107.7,3104.6,3103.2,3108,3109.7,3125.5,3138.5,3149.6,3167.5,3189,3205.3,3229.2,3248.2,3267.4,3278.4,3294.9,3307.9,3322.6,3333.6,3333.4,3333.6,3338.6,3336.3,3337.6,3336.8,3336.2,3335.8,3337.4,3333.2,3340.3,3340.1,3345.4,3345.5,3351,3356.7,3364.1,3371.5,3379.1,3382.9,3392.3,3399.9,3409.3,3416.9,3422.7,3424.6,3428.3,3430.1,3426.3,3422.7,3420.9,3415.3,3411.7,3398.8,3389.6,3378.7,3366.3,3351.8,3338.1,3331.5,3319.2,3308,3299.8,3290.1,3277.1,3265.8,3255.1,3243.5,3225.4,3211.1,3193.6,3177.1,3152.4,3130,3058.33,3044.89,3042.2,3016.4,3000.5,2986.2,2976.2,2969,2964.7,2961.8,2951.9,2939.2,2931,2919.7,2909.1,2895.7,2883.3,2872.7,2859.4,2845,2829.3,2814.9,2800.6,2787.9,2776.3,2761.3,2751.2,2741.4,2731.5,2727.9,2719.3,2716.9,2710.9,2708.3,2698.8,2692.8,2688.2,2687,2684.6,2683.5,2681.3,2681.3,2682.5,2683.7,2686.1,2689.6,2691.9,2693,2693,2696.6,2701.33,2705.22,2707.89,2710.56,2717.22,2719.89,2726.67,2732.11,2734.78,2740.22,2745.56,2748.22,2755.22,2760.56,2767.56,2771.78,2780,2785.67,2792.89,2798.44,2808.33,2817,2825.78,2840.11,2853.3,2865.2,2877.4,2888.1,2899.2,2908.7,2922.3,2932.1,2938.9,2944.5,2949,2954.8,2959,2964.7,2964.7,2968.8,2974.4,2978.7,2985,2992.3,2999.7,3005.6,3016,3029.2,3035.1,3048.6,3059.1,3072.7,3078.8,3090.8,3103.3,3115.7,3128.6,3138,3150.9,3157.3,3162,3168.3,3168.3,3169.9,3171.4,3172.9,3168,3169.6,3166.1,3159.7,3159.8,3156.6,3158.2,3153.4,3151.9,3147.1,3140.7,3137.6,3134.7,3128.4,3117.4,3112.7,3105.3,3101,3096.5,3090.3,3090.4,3091.9,3090.6,3090.8,3091,3094.1,3098.8,3104.8,3110.6,3121.4,3141.67,3150.67,3156.22,3166.78,3178,3185.22,3194.44,3205.33,3212.67,3220.11
2890.4,2885.6,2882.3,2881.5,2879.5,2879.9,2881.9,2887.6,2885.8,2885.9,2888.3,2882.7,2882.7,2885.6,2885.6,2883.3,2891.2,2897.6,2901.5,2908.1,2916.8,2930,2942.4,2954,2962.9,2974.1,2982.2,2993.5,3008.1,3025.6,3031.4,3043.5,3052.4,3067.6,3078.4,3086,3100,3106.4,3117.6,3130.3,3135.1,3136.5,3139.7,3134.7,3131.5,3129.8,3126.3,3127.9,3119.8,3121.4,3121.4,3124.5,3129.3,3138.8,3142.1,3148.6,3155,3159.8,3167.8,3176.1,3181,3187.6,3194.1,3199.1,3203.9,3208.9,3212.2,3212.2,3212.2,3215.6,3215.6,3214.67,3216.44,3217.2,3217.2,3217.2,3217.2,3215.5,3213.8,3212.1,3207.2,3207.1,3207.1,3203.7,3203.7,3202.1,3200.5,3202.1,3203.8,3207.2,3203.9,3204.1,3208.9,3210.5,3215.6,3214.67,3218.44,3224.11,3224.11,3226,3229.67,3231.56,3229.67,3235.33,3239.22,3239.22,3241.11,3243,3243.22,3247.11,3245.11,3246.89,3248,3248,3248,3249.7,3251.4,3253.1,3253,3253,3256.5,3263.5,3267,3270.4,3272.2,3275.6,3279.2,3284.5,3286.2,3289.7,3293.3,3293.3,3296.8,3296.8,3296.8,3298.6,3295.1,3295.1,3291.6,3288.1,3286.4,3281,3281,3277.5,3272.1,3270.4,3268.6,3270.3,3266.9,3263.5,3259.9,3256.5,3256.5,3251.4,3249.8,3249.8,3249.9,3248.2,3248.2,3246.5,3246.5,3244.8,3243,3237.8,3234.3,3232.6,3230.9,3229.2,3229.1,3229.1,3225.7,3225.7,3219.1,3219.1,3214.1,3210.8,3206,3214.89,3213,3207.56,3207.56,3205.67,3200.11,3200.33,3194.67,3189.33,3183.89,3180.44,3109.9,3105.7,3099.6,3096.5,3093.2,3088.4,3088.2,3086.6,3089.4,3091.1,3091.2,3093.9,3095,3096.4,3097.5,3098.7,3106.2,3112.7,3117.5,3132.1,3148,3162.1,3185.7,3204.8,3230.6,3250.5,3267.6,3283.1,3297,3307.6,3309.4,3311.2,3311.2,3307.5,3300.6,3293.5,3282.9,3272.4,3256.8,3241.3,3224.4,3209.2,3186.2,3168,3155.2,3139.1,3126.5,3120.2,3114.1,3109.4,3109.4,3109.6,3114.4,3125.7,3135.3,3149.8,3156.3,3172.6,3197.1,3216.9,3239,3259.9,3272.4,3288.8,3301.6,3318,3325.5,3331.1,3331,3336.2,3333.7,3337.1,3338.3,3337.9,3343,3342.6,3342.1,3345.7,3345.5,3349.3,3352.9,3360.2,3363.8,3373.2,3378.7,3390.1,3392,3403.3,3409.1,3416.6,3422.4,3428.1,3426.1,3429.9,3431.8,3429.9,3426.1,3422.5,3418.7,3405.9,3400.6,3389.6,3380.5,3364.3,3355.3,3344.7,3329.2,3318.7,3310.4,3298.6,3288.8,3277.3,3268.5,3256.8,3244.2,3229.7,3212,3190.6,3169.3,3148.7,3124.3,3056.67,3064.6,3039.3,3018,2994.7,2984.7,2976.2,2970.6,2961.8,2957.6,2950.6,2940.7,2929.6,2917,2907.6,2895.5,2882.1,2871.5,2855.8,2842.7,2828.1,2815,2802,2790.5,2778.9,2766.2,2756.1,2746.3,2738.6,2731.5,2727.7,2722.8,2716.8,2713.1,2708.3,2704.7,2698.7,2692.9,2689.3,2690.5,2690.6,2686,2689.5,2691.9,2691.9,2693,2695.4,2695.4,2696.5,2697.7,2701.22,2707.78,2706.44,2711.89,2715.78,2717.11,2723.78,2729.33,2730.67,2737.33,2745.44,2749.56,2753.67,2763.33,2766.11,2770.33,2778.56,2785.67,2789.89,2795.67,2802.89,2810.11,2820.11,2831.78,2846.9,2857.5,2868.1,2880.1,2889.6,2899.1,2908.6,2919.6,2929.3,2934.7,2941.8,2944.5,2948.8,2955.8,2955.8,2962.8,2967.2,2971.6,2977.5,2984.9,2992.3,2999.5,3005.5,3018.7,3026.1,3037.9,3048.3,3060.3,3069.5,3081.6,3095.5,3106.3,3120.6,3134.9,3143,3149.3,3158.9,3165.4,3170.2,3171.8,3175.1,3176.6,3173,3172.9,3167.9,3163.1,3164.7,3164.7,3158.2,3156.7,3153.5,3152.1,3152,3147.3,3142.6,3137.9,3128.4,3123.8,3114.6,3111.7,3108.8,3107.4,3102.9,3104.5,3104.6,3107.9,3109.5,3112.6,3120.5,3126.4,3135.9,3155.89,3161.44,3168.56,3179.67,3190.89,3196.33,3209.22,3222.22,3231.67,3238.89,3248.33
2911.3,2907.9,2905.4,2907.3,2907.9,2903.3,2905.4,2907.8,2906.4,2906.5,2907.6,2907.8,2901,2901.1,2901.1,2906.7,2909.2,2911.7,2919.8,2923.3,2934.8,2945.6,2959.5,2969.9,2980.7,2984.8,2994.8,3000.5,3013.7,3025.5,3035.8,3041.6,3055.3,3061.4,3072.1,3084.5,3093.8,3106.3,3115.7,3125.4,3133.5,3136.4,3134.8,3134.6,3131.4,3132.9,3134.1,3134.1,3132.4,3130.9,3130.8,3135.6,3142,3145.2,3150.1,3156.5,3166.2,3171.1,3174.3,3184.2,3190.7,3199.1,3200.7,3207.2,3210.6,3214,3219,3219,3222.4,3222.4,3222.4,3222.3,3224,3222.3,3222.3,3220.6,3220.6,3218.9,3217.2,3215.5,3213.8,3212.1,3210.4,3208.8,3208.8,3203.8,3205.5,3207.2,3207.2,3208.9,3207.3,3210.5,3213.8,3218.9,3222.3,3224,3225.89,3229.67,3229.67,3233.44,3237.33,3239.22,3239.22,3241.11,3245,3248.78,3250.67,3256.56,3254.67,3256.67,3256.67,3260.2,3254.9,3256.6,3256.6,3254.9,3256.6,3256.5,3258.2,3261.7,3267,3267,3272.3,3275.7,3279.3,3281,3286.2,3288,3289.7,3293.2,3295,3296.8,3298.6,3300.4,3302.2,3302.2,3300.4,3302.2,3298.6,3293.4,3291.7,3286.4,3282.8,3281,3273.8,3272.1,3270.4,3268.7,3265.3,3260,3256.6,3254.8,3249.7,3249.8,3248.1,3246.4,3243,3246.4,3246.4,3244.7,3243,3244.8,3244.8,3236.1,3232.7,3234.3,3234.3,3232.6,3227.6,3227.6,3224.1,3224.1,3220.8,3219.2,3214.2,3210.9,3207.7,3206.3,3220.56,3218.67,3215,3215,3209.44,3205.89,3205.89,3206,3200.67,3136.5,3131.2,3129,3124,3124,3119.1,3117.5,3114.1,3118.2,3119.8,3122.6,3127.8,3128.8,3134.7,3141,3143.8,3151.3,3155.6,3165.9,3175.5,3188.2,3209.2,3233,3250.5,3272.1,3294.2,3309.7,3329.4,3340.1,3347.2,3352.7,3354.5,3352.7,3352.7,3347.2,3336.4,3331,3316.5,3311.1,3295.2,3272.5,3255.2,3236.5,3214.6,3194.6,3180,3163.9,3147.9,3142.9,3135,3125.5,3124.2,3125.8,3130.7,3137.4,3148.4,3160.2,3166.6,3181.6,3202.9,3222.7,3242.9,3260,3272,3284.4,3293.4,3300.4,3309.7,3318.5,3317,3323.9,3325.6,3330.8,3335.9,3339.5,3341.2,3346,3349.7,3347.7,3349.5,3356.7,3356.5,3365.8,3369.5,3378.8,3386.3,3390,3399.5,3407.1,3416.6,3420.4,3426,3427.9,3429.9,3431.6,3429.8,3427.9,3424.1,3416.7,3415,3409.4,3400.4,3389.3,3378.5,3365.6,3353.1,3342.5,3333.9,3325.2,3307.6,3293.7,3291.1,3285.4,3267.1,3258,3246.4,3228.4,3208.4,3187.1,3163.7,3140.2,3118.1,3094.3,3063.1,3039.4,3015,2996.2,2987.5,2974.7,2970.5,2964.8,2956.2,2951.9,2941.9,2930.7,2920.9,2910,2897.9,2884.6,2868.6,2858.1,2844.9,2830.5,2817.6,2804.5,2793.1,2781.4,2769.9,2763.5,2751,2743.5,2741,2736,2731.2,2725.1,2721.4,2715.5,2710.7,2707.1,2699.9,2696.4,2695.3,2691.7,2691.8,2691.9,2696.7,2696.6,2697.8,2697.8,2698.9,2697.7,2701.22,2702.56,2705.22,2705.22,2709.11,2710.44,2715.67,2718.44,2723.89,2729.22,2736,2742.67,2744,2750.89,2759.11,2763.33,2770.33,2774.44,2781.56,2786,2792.89,2801.56,2808.78,2810.33,2832.7,2842,2849.7,2858.8,2869.3,2881.5,2893.7,2901.8,2911.2,2918.2,2923.8,2933.3,2938.9,2944.11,2950.1,2954,2954.3,2962.7,2967.4,2974.3,2981.7,2987.5,2996.6,2999.5,3009.9,3020.2,3030.4,3042.2,3054.3,3063.2,3075.4,3087.7,3101.8,3112.9,3128.8,3140.1,3151.2,3157.8,3165.9,3167.5,3172.3,3175.6,3176.7,3173.3,3173.2,3169.7,3166.3,3166.4,3166.4,3159.9,3163.1,3159.9,3158.3,3153.6,3152,3147.3,3144.1,3139.5,3133.2,3128.8,3125.8,3126.1,3123.2,3123.3,3126.4,3124.8,3128.1,3129.9,3134.6,3137.8,3147.2,3156.5,3170.8,3183.11,3196.11,3205.44,3243.1,3262.3,3278.8,3293.3,3306.2,3313.3,3320.6
2937.7,2931.9,2927,2930,2927.6,2928.3,2927.9,2929.4,2929.4,2929.4,2930.7,2929.2,2927.2,2924.8,2925.2,2927.7,2931.6,2934.2,2942.1,2948.8,2952.3,2964.3,2976.3,2985.3,2992.1,3000.4,3007.8,3015.2,3022.7,3031.4,3040.2,3050.7,3056.8,3066,3075.2,3082.9,3093.8,3101.8,3112.8,3125.4,3130.3,3134.8,3137.9,3139.5,3137.8,3137.6,3135.7,3140.5,3135.6,3140.4,3143.6,3145.2,3150,3158.1,3162.9,3169.5,3172.7,3177.5,3184.2,3190.8,3197.4,3207.4,3209,3210.6,3219.1,3219.1,3222.4,3224,3224,3224,3224,3225.7,3227.4,3225.7,3225.7,3225.7,3225.7,3224,3222.3,3215.5,3215.5,3212.1,3210.4,3210.4,3212.1,3212.1,3212.2,3212.2,3213.8,3215.5,3212.2,3215.5,3217.2,3224,3224,3225.89,3225.89,3233.44,3235.33,3239.22,3244.89,3244.89,3244.89,3248.78,3256.44,3260.33,3262.33,3262.33,3262.33,3266.11,3263.6,3268.8,3268.8,3268.8,3267,3268.8,3265.4,3267.1,3267,3268.8,3272.4,3275.8,3277.6,3281,3282.8,3288,3291.6,3293.3,3296.8,3298.6,3300.4,3305.7,3303.9,3305.7,3304,3304,3304,3304,3302.2,3296.9,3289.9,3289.9,3284.6,3281,3275.7,3273.9,3270.4,3268.7,3260.1,3260.1,3258.4,3249.8,3246.4,3246.4,3241.4,3239.7,3241.4,3243.1,3244.8,3241.6,3243.3,3243.2,3241.5,3236.3,3234.5,3232.8,3232.7,3232.8,3231,3229.3,3224.3,3224.4,3224.4,3221,3219.3,3216.1,3213,3208.3,3205.6,3201.5,3192.2,3187.1,3182.1,3178.7,3172.4,3165.5,3162.2,3158.3,3157.3,3152.7,3156.7,3156.7,3153.3,3152.7,3156.1,3156.7,3159,3163,3167.6,3170.9,3181,3185.5,3197,3201.1,3212.6,3225.4,3240,3257.8,3278.5,3301.5,3318.1,3344.4,3362.2,3376.7,3389.5,3395.1,3400.7,3404.4,3400.7,3400.7,3397.1,3393.3,3382,3378.3,3367.3,3358.2,3338.3,3318.6,3299.3,3276.6,3250.9,3228.9,3209.2,3194.5,3176.8,3166.7,3158.6,3153.8,3147.4,3152.4,3153,3155.8,3170.7,3177.3,3184.1,3195.8,3215.9,3232.5,3245.7,3264.7,3274.6,3281.1,3289.6,3294.7,3302,3305.4,3305.3,3306.9,3306.9,3312.2,3313.9,3320.7,3326.2,3337.1,3340.6,3342.4,3345.9,3355,3360.5,3366.1,3377.4,3382.8,3388.4,3392.3,3397.8,3403.5,3412.7,3420.2,3422.1,3424.3,3429.7,3429.6,3429.8,3425.9,3422.1,3420.3,3411.1,3405.5,3399.9,3387.4,3378.3,3369.2,3357,3342.4,3330.1,3315.5,3310.9,3295.1,3285.1,3277.2,3267.7,3256.2,3237.7,3221.2,3199.9,3178.3,3154.8,3128.5,3103.8,3083.9,3041.56,3033.4,3013.6,2994.5,2984.6,2976.1,2969.2,2968.9,2957.6,2950.3,2944.7,2934.9,2923.6,2912.8,2900.5,2885.8,2873.7,2860.6,2848.6,2835.9,2824.1,2810.9,2799.4,2789,2779.9,2769.7,2759.7,2754.5,2749.4,2744.4,2739.6,2737,2729.8,2726.2,2717.8,2714.2,2708.2,2704.7,2703.6,2700,2697.6,2697.8,2700.2,2700.2,2701.2,2705.22,2703.89,2702.56,2702.56,2701.22,2703.78,2703.78,2705.11,2707.78,2711.78,2714.44,2722.56,2723.89,2731.89,2737.22,2740,2748.22,2756.44,2764.56,2771.56,2777.22,2782.89,2787.22,2790.11,2798.78,2800.22,2810.33,2819,2823.22,2834.89,2843.33,2853.56,2863.78,2879.9,2890.9,2901.5,2908.3,2916.6,2925,2929,2938.8,2943,2947.1,2952.9,2957.1,2962.9,2968.5,2977.5,2984.6,2993.7,2996.3,3008.3,3015.7,3025.8,3039.2,3048.2,3057.1,3069.3,3083,3095.4,3110,3121.2,3130.5,3141.8,3153.4,3159.8,3162.8,3169.4,3172.4,3173.8,3170.3,3171.7,3169.8,3164.8,3168.1,3168,3169.6,3167.9,3166.3,3163.1,3163.2,3163.4,3158.4,3158.7,3155.5,3152.4,3149.5,3148.1,3148.4,3146.8,3142.2,3146.9,3152,3152,3153.6,3155.2,3161.8,3171.2,3179,3196.9,3210.56,3223.8,3244.7,3266.7,3285.6,3300,3311.3,3320.2,3329.4,3331
2960.2,2957.3,2959.4,2957.1,2955.1,2954.3,2952.8,2953.7,2954.2,2953.7,2953.8,2952.3,2950.8,2948.4,2948.3,2950.8,2956.4,2962,2967.3,2970.7,2978.4,2985.7,2996.1,3001.3,3008.3,3019.9,3021.2,3030.2,3039,3043.3,3051,3058.4,3062.9,3073.7,3078.3,3087.5,3100.2,3103.4,3116.1,3127.1,3135.2,3139.8,3138.2,3139.5,3144.2,3145.7,3145.4,3148.6,3148.6,3146.9,3154.9,3151.6,3161.3,3166.2,3169.4,3172.7,3179.2,3185.9,3192.7,3200.8,3205.7,3210.6,3214,3214,3224.1,3225.8,3225.7,3224,3222.3,3224,3225.7,3222.3,3225.7,3225.7,3225.7,3227.4,3225.7,3225.7,3224,3220.6,3217.2,3218.9,3215.5,3215.5,3212.1,3215.5,3215.5,3217.2,3218.9,3218.9,3220.6,3220.6,3220.6,3224,3227.78,3229.67,3229.1,3233.44,3241.22,3243.11,3248.67,3248.67,3248.67,3260.22,3264.11,3266.22,3266.22,3272,3270.6,3270.6,3270.6,3272.4,3270.6,3270.6,3270.6,3272.3,3270.6,3272.3,3272.3,3274.1,3275.9,3277.6,3288,3289.7,3293.2,3293.2,3296.8,3298.5,3302.1,3305.7,3307.5,3309.3,3307.5,3309.3,3309.3,3307.5,3307.5,3307.5,3304,3296.9,3293.4,3289.8,3286.3,3282.8,3279.3,3274,3270.5,3263.6,3260.1,3251.6,3248.2,3243.1,3239.7,3238,3239.7,3236.4,3234.8,3236.6,3240.1,3238.4,3240.1,3240.1,3236.7,3236.5,3233,3231.3,3234.6,3232.9,3232.9,3229.6,3226.1,3227.9,3231.78,3233.67,3230,3233.78,3209,3207.9,3203.6,3202.9,3199.1,3193.6,3191.8,3195.3,3185,3186.1,3185.5,3182.9,3182.1,3187.2,3187.7,3189.5,3188.8,3188.9,3192.2,3197.5,3200.8,3206.2,3216.2,3221,3232.8,3239.9,3251.8,3257.8,3266.1,3284.8,3301.4,3323.5,3346.4,3370.8,3392.2,3406.7,3423.5,3434.7,3442.4,3448.2,3450.2,3450.1,3444.3,3442.4,3442.4,3440.5,3434.8,3425.2,3412.1,3404.7,3391.4,3365.9,3347.8,3321.3,3300.3,3276.2,3252.5,3232.9,3216.4,3201.2,3196.1,3186.2,3178,3179.7,3180.1,3185,3188.5,3201.8,3205.3,3220.5,3235.7,3247.6,3264,3276.1,3282.5,3288.7,3293.6,3298.8,3300,3298.2,3296,3294.1,3294,3299.2,3302.9,3302.8,3313.4,3318.9,3326.1,3331.5,3338.9,3346,3357,3361,3371.9,3379.4,3385.1,3388.8,3398.1,3405.3,3411,3416.6,3420.4,3422.2,3422.2,3426,3424.1,3414.6,3412.7,3412.8,3409.3,3405.6,3400.2,3385.5,3380,3367.4,3358.5,3348.2,3333.9,3319.5,3308.6,3300,3287.9,3272.7,3264.6,3251.6,3232.5,3218,3198,3171.6,3150,3122.3,3101.3,3055,3055,3037.9,3015.1,2994.6,2987.5,2978.9,2973.4,2970.4,2963.1,2957.4,2947.5,2939,2926.5,2916.9,2904.5,2892.3,2880.2,2866.8,2855,2843.4,2831.4,2821.1,2809.5,2800.4,2786.1,2777.1,2770.7,2760.6,2758.1,2753.1,2748,2744.3,2737.1,2729.8,2723.8,2719,2713,2707,2705.9,2704.8,2703.6,2700,2706,2704.8,2707.89,2705.22,2706.44,2703.89,2705.11,2707.78,2706.44,2702.44,2705,2709.11,2709.11,2714.44,2718.56,2721.22,2729.33,2734.67,2738.78,2745.44,2755.11,2759.11,2767.56,2775.89,2780.11,2784.33,2791.56,2795.89,2803.11,2808.89,2817.44,2820.33,2830.33,2845.6,2850.8,2862.7,2870.3,2882.4,2892,2900,2909.6,2913.7,2922,2931.7,2937.1,2941.4,2944.3,2953,2958.7,2966,2962.67,2970.78,2989,2997.8,3006.8,3014.1,3024.2,3034.7,3046.6,3054.2,3063.3,3077.1,3086.3,3098.9,3113.3,3127.5,3135.5,3145.3,3155,3161.5,3164.6,3167.7,3164.3,3169.1,3172.1,3163.6,3163.2,3166.5,3169.7,3168,3168,3171.1,3167.9,3172.9,3173,3173.2,3176.6,3172,3165.7,3162.5,3165.8,3169,3167.8,3168.1,3169.7,3171.4,3174.6,3174.6,3179.9,3181.4,3195.8,3201.9,3218.7,3232.1,3247.5,3261.7,3279.8,3302.1,3314.6,3324,3333.2,3338.7,3345.6
2987.3,2983.3,2978.3,2979.4,2978.9,2977.1,2978.2,2977.1,2975.6,2975.5,2975.7,2974.1,2970.7,2976.6,2973.7,2976.3,2981.9,2985.4,2992.1,2997.7,3004,3013.6,3018.8,3027.4,3036.2,3038.8,3045,3047.9,3055.6,3063,3067.5,3070.6,3076.9,3087.6,3090.8,3097.1,3101.8,3112.9,3122.6,3132.3,3139.8,3142.9,3146.1,3147.7,3150.7,3150.5,3153.6,3158.3,3155,3158.2,3159.8,3163,3167.8,3174.4,3179.4,3182.7,3187.6,3192.7,3197.5,3205.7,3210.7,3214,3219.1,3219.1,3227.6,3225.8,3227.4,3229.1,3225.7,3227.4,3224,3224,3224.1,3224.1,3225.8,3225.8,3224.1,3222.4,3222.4,3222.4,3222.4,3224,3219,3220.6,3220.6,3219,3218.9,3220.6,3222.3,3224,3224,3224,3224,3225.89,3230.8,3231.56,3232.6,3235.44,3241.22,3245,3252.67,3254.56,3256.44,3262.22,3268.11,3273.89,3275.78,3274,3274,3277.6,3277.6,3277.6,3277.6,3277.6,3277.5,3275.8,3274,3279.3,3279.3,3279.3,3284.4,3289.7,3293.3,3293.3,3295,3298.6,3302.1,3302.1,3309.3,3309.3,3312.9,3312.9,3316.4,3316.4,3316.4,3314.6,3311,3311,3309.3,3302.2,3298.7,3291.6,3288,3282.8,3279.3,3274.1,3268.9,3262,3256.8,3249.9,3246.6,3241.4,3237.9,3236.2,3234.6,3231.3,3231.5,3235,3233.3,3233.4,3236.8,3235.2,3240.3,3236.8,3247.22,3247.22,3239.56,3232.22,3235.89,3235.89,3232.22,3233.89,3234,3235.78,3217.7,3216.8,3215.4,3216.2,3215.5,3216.4,3212,3215.2,3263.11,3213.2,3214.3,3209.7,3207.8,3208.3,3210.8,3217.5,3220.8,3222.4,3225.9,3225.2,3235.9,3238.3,3246.5,3251.9,3264,3269.4,3279.7,3294.3,3308,3312.8,3329.3,3351.9,3371.2,3392.6,3438.67,3437.3,3454.3,3463.8,3477.4,3483.4,3489.4,3491.4,3487.3,3489.3,3483.4,3481.5,3479.5,3477.5,3471.6,3467.7,3461.9,3452.1,3438.8,3418.2,3399.9,3378.1,3352.9,3330.4,3307.9,3287.8,3270.8,3255.6,3241.7,3231.5,3224.7,3219.7,3218.2,3219.7,3223.3,3228.6,3235.5,3244,3254.3,3267.8,3281.2,3285.9,3297.8,3296.8,3296.1,3299,3300.4,3298.5,3292.9,3292.5,3288.9,3283.6,3286.9,3292.4,3301.1,3306.4,3310,3317.6,3324.8,3333.6,3339.1,3346.6,3355.5,3364.8,3366.6,3377.9,3383.4,3390.6,3399.9,3407.3,3409.2,3416.7,3414.5,3418.3,3420.3,3408.9,3410.9,3407.1,3409.3,3403.7,3402.1,3387.5,3380.2,3367.7,3358.9,3344.4,3333.4,3320.9,3308.6,3296,3285.7,3269.8,3256,3241,3220.8,3207.2,3187.5,3159.7,3133.7,3112.8,3092.3,3071.6,3053,3033.3,3016.7,2999.1,2989,2986.1,2977.5,2973.1,2967.4,2961.7,2951.7,2943.3,2932,2922.3,2908.3,2900.2,2889.4,2875.9,2862.9,2851,2840.5,2828.5,2818.3,2804,2797.5,2784.6,2778.2,2774.3,2768,2760.4,2755.5,2751.8,2746.8,2738.3,2731.1,2722.7,2716.6,2709.4,2705.8,2703.5,2701.1,2702.3,2704.8,2707.1,2707.1,2710.7,2711.9,2707.78,2706.44,2707.78,2706.44,2706.33,2707.67,2709.11,2711.78,2711.78,2715.89,2719.89,2728,2730.78,2738.78,2744,2753.78,2762,2767.44,2777.33,2778.67,2782.89,2788.67,2794.33,2800.22,2807.33,2826.2,2827.4,2823,2840.2,2848,2853.2,2863.9,2875.6,2883.8,2893.3,2900.1,2906.7,2914.9,2923.2,2927.3,2935.7,2942.9,2951.5,2957.3,2968.6,2973,2980.4,2989.1,2997.8,3005,3011,3022.8,3031.7,3040.5,3046.5,3057.2,3071,3083.2,3094.2,3107.1,3119.6,3130.8,3142.2,3145.2,3156.8,3161.3,3162.8,3166,3167.4,3162.4,3158.7,3160.1,3161.6,3164.7,3167.9,3168,3171.1,3172.8,3174.5,3181.3,3179.7,3184.9,3183.4,3181.9,3182,3182.2,3185.9,3185.9,3186.2,3189.5,3189.5,3193,3199.7,3201.3,3209.6,3214.2,3225.5,3240.5,3252.3,3264.7,3282,3296.5,3311.4,3326.3,3335.5,3340.7,3346.2,3351.9
3049.22,3002.1,3001.6,2999.7,2998.1,2996.6,2994.6,2993.1,2996.1,2996.1,2994.6,2994.6,2993.1,2996.1,2996.1,2998.7,3001.3,3008,3016.1,3019.8,3029.4,3037.7,3042.8,3048.4,3055.6,3064.7,3067.8,3073.9,3072.3,3078.6,3083.1,3090.9,3095.6,3103.3,3108.1,3111.3,3120.6,3127,3131.9,3141.5,3149.5,3152.7,3154.2,3158.9,3158.9,3163.5,3163.3,3163.2,3166.4,3164.8,3168,3169.5,3174.4,3181.1,3182.8,3184.4,3192.6,3197.6,3205.8,3207.6,3214.3,3220.9,3222.6,3224.3,3232.9,3231.2,3232.8,3230.9,3230.9,3231,3225.9,3229.3,3225.8,3225.8,3224.1,3224.1,3225.8,3224.1,3224.1,3225.8,3224.1,3222.4,3222.4,3220.7,3220.7,3219,3219,3222.3,3224,3227.4,3225.7,3227.4,3229.1,3229.1,3230.8,3232.6,3236,3241.2,3246.89,3248.78,3254.56,3260.22,3260.22,3270,3273.78,3275.78,3277.6,3281.2,3281.2,3281.2,3282.9,3284.6,3282.8,3282.8,3284.5,3286.3,3284.6,3284.6,3286.3,3288.1,3291.5,3295.1,3298.7,3300.4,3304,3307.4,3312.8,3316.4,3318.2,3320,3320,3321.8,3323.6,3321.8,3321.8,3318.2,3318.2,3316.4,3311.1,3309.3,3303.9,3302.2,3293.3,3289.9,3282.8,3277.7,3272.5,3263.8,3256.8,3248.4,3245,3243.3,3236.5,3234.7,3233,3231.4,3229.8,3233.3,3233.5,3235.2,3231.8,3233.6,3235.3,3235.3,3249.11,3245.33,3245.33,3239.78,3239.78,3238,3219.1,3216.2,3211.5,3217.3,3217.6,3221.8,3219.5,3223.6,3229.3,3231.8,3230.7,3234,3235.2,3231.2,3235.8,3237.1,3235.5,3244.3,3245,3249.1,3257.1,3260.5,3259.8,3265.3,3274.5,3279.7,3288.8,3297.9,3310.2,3317.6,3337.3,3349.1,3359.7,3373.7,3392.5,3416.4,3440.5,3481.89,3490.67,3495.3,3503.2,3515.1,3519.2,3523.2,3523.3,3523.3,3523.3,3523.2,3517.2,3515.2,3515.4,3509.3,3505.5,3503.5,3497.3,3491.3,3481.5,3464.4,3445.4,3428.9,3405.4,3382,3361.1,3342.3,3320.3,3304.4,3290.4,3280,3267.5,3265.8,3262.2,3262.5,3263.9,3263.9,3262.5,3270.8,3282.8,3293.2,3301.3,3306.2,3310.9,3310.1,3309.4,3303.4,3301.2,3295.5,3289.7,3287.9,3280.7,3280.5,3280.5,3280.6,3285.7,3289.2,3294.7,3303.5,3305.3,3312.6,3319.7,3323.2,3332.1,3341,3346.5,3354,3359.3,3368.4,3379.4,3386.7,3390.4,3399.6,3401.4,3404.9,3403.1,3403.2,3403.3,3401.5,3399.8,3399.9,3390.9,3387.3,3378.5,3371.3,3360.6,3349.8,3337.6,3320.8,3310,3297.6,3283.4,3267.4,3250.4,3234.9,3213,3199.8,3178.5,3153.7,3128,3107.3,3086.9,3069.8,3054.2,3034.7,3016.7,3003.4,2993.2,2988.9,2983.1,2980.1,2970,2964.4,2955.8,2947.3,2937.4,2926.3,2915.3,2904.2,2893.5,2882.6,2870.6,2857.4,2847,2837.4,2821.9,2814,2805,2794.7,2789.4,2780.6,2776.7,2769,2762.9,2758,2749.4,2740.9,2732.3,2726.3,2715.5,2710.6,2705.8,2702.3,2702.3,2698.7,2702.3,2702.3,2704.7,2710.7,2714.3,2716.9,2703.78,2706.33,2705,2705,2706.33,2710.33,2732.6,2736.4,2715.78,2721.22,2725.22,2729.33,2736,2742.67,2749.44,2759.22,2767.44,2770.22,2774.44,2784.33,2787.11,2791.56,2797.44,2802.89,2823.4,2827.4,2832.5,2837.7,2844,2850.5,2857.1,2867.6,2875.5,2885,2890.4,2901.2,2908,2914.9,2924.6,2931.5,2938.5,2949.9,2958.7,2965.8,2977.5,2984.6,2993.3,2997.8,3005.1,3016.9,3025.7,3031.8,3040.5,3049.5,3057.3,3069.5,3080.2,3096,3105.3,3116.4,3129.2,3137.2,3143.5,3150.1,3156.4,3159.7,3159.5,3164.2,3162.2,3158.7,3158.5,3159.9,3164.6,3167.8,3167.8,3172.6,3174.5,3181.2,3187.8,3194.7,3194.7,3199.7,3198.3,3197,3200.5,3204.1,3207.6,3207.5,3207.8,3213.1,3216.6,3221.5,3225,3231.6,3238.1,3246.1,3259.5,3273.2,3287,3297.6,3310.3,3326.7,3334.1,3341.6,3348.9,3352.5,3354.4
3064.56,3012.1,3061.11,3008.6,3010.1,3012.2,3007.7,3009.1,3009,3010.2,3010.2,3009.8,3014.3,3011.6,3014.6,3020.3,3021,3069.33,3035.9,3039.6,3046.1,3058.6,3065.7,3074.2,3077,3084.7,3087.7,3093.8,3098.6,3100.2,3106.4,3106.4,3117.3,3125.4,3128.6,3135.1,3138.2,3146.2,3154.2,3160.8,3165.7,3168.9,3167.1,3170.4,3173.6,3173.3,3174.9,3176.3,3174.6,3176.3,3176.2,3177.8,3179.5,3186.1,3186.2,3186.1,3197.7,3202.6,3207.6,3211,3219.4,3224.4,3227.8,3231.2,3229.5,3232.9,3232.9,3234.6,3236.2,3229.4,3231.1,3231.1,3229.4,3225.8,3225.8,3229.2,3229.2,3227.5,3225.8,3227.5,3225.8,3224.1,3222.4,3220.7,3220.7,3220.7,3222.4,3224,3227.4,3227.4,3227.4,3229.1,3232.5,3232.5,3234.2,3236,3236,3241.3,3243,3252.67,3258.44,3260.33,3260.22,3266.11,3275.67,3275.8,3281.1,3282.9,3282.9,3284.6,3284.6,3286.3,3289.8,3289.8,3291.6,3288.1,3288.1,3291.6,3289.9,3293.5,3296.9,3305.8,3307.6,3311.1,3316.4,3318.2,3323.6,3327.2,3327.2,3327.2,3330.8,3332.6,3332.6,3330.8,3329,3323.6,3321.8,3318.2,3318.2,3312.9,3307.5,3304,3295,3293.3,3288.1,3277.6,3272.5,3263.8,3258.8,3250.3,3246.9,3241.7,3236.7,3236.7,3236.7,3231.7,3226.7,3230.3,3230.3,3230.3,3228.7,3228.7,3225.5,3229,3249.22,3247.56,3243.78,3240.11,3242,3244,3244.22,3249.78,3251.89,3252.11,3262,3271.44,3279.33,3243.2,3294.78,3247.6,3255.3,3259.8,3261.1,3267.1,3265.1,3265.7,3273.1,3274.9,3280.2,3289.2,3298.2,3300.9,3304.6,3315,3320.5,3330.3,3335.9,3350.1,3361.6,3374.8,3387.9,3403.5,3416.4,3428.5,3452.3,3519.56,3526.22,3528.33,3539.44,3537.4,3547.5,3553.8,3551.8,3555.9,3555.8,3551.6,3549.5,3549.6,3545.6,3547.6,3545.6,3539.5,3537.6,3531.5,3529.6,3525.6,3513.6,3505.8,3486.6,3467.7,3453.3,3429.6,3412.4,3389.7,3376.2,3360.2,3343.4,3336.3,3325.3,3316.5,3314.8,3312.6,3309,3309.4,3305.8,3308.9,3317.4,3321.2,3326.3,3327.3,3328.5,3324.1,3319.8,3317.1,3313.1,3301.9,3289.4,3285.6,3279.7,3272.5,3269,3267.5,3272.5,3272.6,3276.1,3286.6,3288.3,3295.1,3297.2,3304,3311,3316.2,3316.1,3321.3,3328.4,3340.9,3348,3359,3366.1,3371.5,3378.8,3382.6,3390,3389.9,3393.7,3397.5,3395.8,3388.7,3387,3381.8,3372.7,3365.5,3353,3348,3335.4,3318.7,3306.3,3293.8,3275.9,3262.1,3248.3,3231.4,3209.2,3194.4,3172.9,3151.7,3127.4,3110.1,3088.1,3072.5,3049.5,3037.6,3019.6,3004.9,2997.6,2991.7,2984.6,2981.5,2975.7,2968.6,2958.6,2950.2,2940.2,2931.8,2922.1,2909.6,2894.8,2885.3,2875.8,2859.9,2848.1,2838.8,2825.7,2816.7,2807.5,2798.5,2791.9,2783,2777.9,2771.7,2764.2,2759.4,2751.9,2743.3,2734.8,2726.3,2715.5,2709.5,2704.6,2705.8,2698.7,2698.7,2699.9,2702.2,2704.6,2709.4,2716.7,2718,2721.9,2724.4,2727.2,2730,2732.5,2735.1,2735.1,2737.9,2740,2743.5,2748.4,2749.4,2755.5,2760.3,2749.33,2756.33,2766,2767.33,2773,2777.11,2782.78,2790,2811,2814.5,2819.5,2823.3,2829.7,2833.4,2839.8,2845.1,2851.8,2859.5,2867.5,2876.8,2880.7,2888.8,2899.8,2909.5,2916.3,2924.6,2938.6,2947.2,2958.3,2970,2978.6,2987.4,2994.6,2999.2,3006.3,3015.1,3025.6,3030.1,3037.5,3049.4,3055.6,3067.7,3075.6,3086.4,3098.7,3109.8,3117.6,3127.2,3136.7,3140,3147.9,3151.3,3154.2,3155.6,3155.6,3150.3,3153.4,3158.2,3162.9,3162.9,3171,3175.9,3179.3,3186.2,3197.8,3202.8,3209.8,3213.2,3213.5,3213.9,3219.1,3221,3222.7,3224.7,3229.9,3235,3238.5,3245.3,3246.9,3251.8,3260.5,3270.3,3282.2,3289,3297.6,3310.1,3320.8,3331.5,3336.8,3340.8,3346.2,3346.2,3350
3076.33,3021.2,3019.1,3016.6,3017.2,3018.2,3015.6,3017.7,3020.3,3022.8,3019.7,3021.2,3025.8,3026.9,3029.9,3035.6,3041.1,3047.9,3095.22,3098.67,3069.1,3076,3085.8,3091.4,3098.8,3103.3,3108,3114.1,3117.3,3125,3122,3129.9,3136.3,3144.5,3147.8,3156,3162.5,3170.7,3172.3,3178.9,3185,3186.9,3185.2,3185.1,3186.8,3186.5,3188,3191.3,3186.2,3191.1,3187.7,3186,3190.9,3194.4,3194.4,3199.2,3202.7,3207.7,3212.7,3217.8,3221.1,3224.4,3229.5,3231.2,3238.1,3239.8,3239.8,3239.7,3238,3234.5,3232.9,3231.2,3229.5,3229.5,3227.6,3229.2,3229.2,3229.2,3227.5,3227.6,3227.5,3229.2,3227.5,3229.2,3229.2,3225.8,3227.4,3232.6,3232.6,3234.3,3234.3,3232.5,3232.5,3232.5,3232.5,3236,3237.7,3241.1,3244.7,3249.8,3251.6,3255,3254.9,3263.6,3270.6,3277.6,3281.1,3286.3,3286.3,3288,3293.3,3295,3296.8,3296.9,3295.2,3295.3,3298.8,3298.8,3298.8,3309.11,3309.4,3314.7,3320.1,3323.6,3325.4,3330.8,3334.4,3338,3339.8,3341.6,3343.4,3339.8,3338,3339.8,3339.8,3336.2,3332.6,3332.6,3325.4,3321.8,3316.5,3309.3,3305.8,3298.6,3291.6,3284.6,3276.1,3265.7,3257.4,3254.1,3250.7,3247.4,3240.5,3237.3,3233.9,3230.5,3225.5,3229,3229.2,3225.6,3227.6,3224.3,3221,3219.5,3226.8,3223.8,3248.22,3240.56,3248.11,3251.89,3221.5,3218.9,3269.33,3273.56,3279.56,3242.7,3253.9,3260,3264,3270,3278.8,3283,3289.3,3297.5,3296.3,3304.1,3306.6,3314.1,3322.5,3328.2,3339.1,3349.8,3347.6,3358.8,3366.2,3373.8,3383,3399.4,3413.1,3424.6,3442.6,3457.9,3472.5,3558.33,3562.89,3567.11,3566.89,3571.44,3578.22,3578.4,3586.8,3586.9,3585,3580.7,3580.7,3582.7,3582.6,3578.6,3576.6,3570.4,3570.4,3566.4,3566.2,3562.2,3556.1,3554,3548.1,3536.1,3520.3,3509.1,3490.4,3472.4,3457.4,3446.1,3428.8,3415.9,3398.8,3389.2,3378.3,3372.6,3364.9,3359,3355.8,3353.7,3346.1,3346.1,3347.3,3352.7,3354.1,3352.2,3353.4,3342.7,3334.8,3328.6,3320.9,3311.6,3297.3,3286.3,3279.2,3268.6,3263,3263.1,3262.9,3264.6,3269.7,3274.9,3278.3,3285.2,3286.7,3286.6,3295.5,3293.4,3295.1,3301.8,3303.5,3314,3319.1,3326.2,3333.4,3344,3355,3358.5,3364,3371.3,3375,3379,3382.8,3382.9,3379.5,3374.2,3371,3361.9,3354.7,3341.9,3331.3,3322.1,3302.4,3286.4,3270.6,3256.6,3236.1,3214.89,3204.2,3187.4,3167.8,3149.8,3127.2,3108.2,3087.9,3070.8,3052.5,3034.5,3022.6,3009.1,3001.8,2994.6,2988.6,2981.3,2978.5,2969.9,2964.2,2954.5,2945.9,2935.9,2923.4,2912.5,2900.2,2888,2874.6,2861.4,2848.1,2840.1,2829.7,2820.6,2811.3,2802.4,2794.5,2784.3,2779.3,2771.7,2765.6,2758.1,2750.8,2739.7,2731.2,2725.1,2711.9,2705.8,2701,2699.8,2697.4,2693.8,2696.2,2698.6,2705.8,2711.8,2716.7,2719.2,2721.9,2723.2,2730.8,2732.4,2733.7,2736.3,2737.5,2738.7,2739.7,2743.3,2748.3,2751.8,2753,2757.8,2748,2768.7,2763.11,2763.11,2768.78,2778.67,2781.44,2787.11,2809.4,2813.1,2819.3,2823.1,2826.8,2834.5,2838.4,2839.6,2844.8,2855.4,2859.5,2867.5,2874.1,2879.4,2890.1,2897.1,2909.3,2917.5,2928.5,2942.7,2954,2964,2974,2985.7,2993,2998.8,3007.6,3014.9,3020.9,3031.5,3037.3,3044.7,3052.3,3066,3075.3,3086.2,3095.4,3103,3112.5,3117.2,3126.9,3134.8,3139.3,3144.2,3147.4,3147.2,3147.2,3142.2,3142.1,3151.6,3153.2,3161.2,3171.2,3174.6,3181.2,3192.8,3199.6,3208.2,3216.8,3221.9,3224,3231.2,3234.7,3236.6,3243.7,3247,3248.8,3250.4,3252.2,3260.8,3265.8,3274.1,3282.8,3289.3,3296,3301.4,3308.4,3317.1,3324.3,3329.7,3335.2,3338.7,3338.7,3340.5,3344.2
3028.8,3023.2,3023.2,3022.7,3022.7,3022.6,3021.1,3019,3019,3022.1,3024.2,3026.2,3029.3,3031.9,3036.4,3043.2,3049.4,3056.2,3065.6,3116,3119.89,3092,3100.2,3112,3116.4,3124.1,3128.5,3130.1,3133.1,3142.5,3147.4,3150.6,3157.1,3163.8,3173.4,3180.1,3186.7,3191.8,3201.8,3208.5,3210.1,3206.7,3205.2,3201.6,3205,3208.2,3206.4,3202.9,3199.6,3201.2,3197.7,3195.9,3200.9,3201.1,3202.6,3202.5,3209.4,3214.4,3216.1,3219.5,3221.3,3231.3,3231.3,3240,3241.6,3243.3,3244.9,3243.1,3244.8,3239.8,3239.7,3236.3,3236.3,3236.3,3236.3,3234.5,3234.5,3234.5,3232.7,3229.3,3232.6,3237.6,3237.6,3235.9,3239.5,3237.8,3237.8,3237.8,3236.1,3237.8,3241.2,3239.5,3237.7,3239.3,3236,3234.3,3237.8,3243,3244.8,3246.5,3251.7,3255.1,3258.5,3267.2,3272.4,3281.1,3284.6,3288,3289.8,3293.3,3295.1,3296.8,3302.2,3300.4,3305.8,3305.7,3307.6,3307.6,3317,3319,3318.3,3325.5,3330.9,3332.6,3341.6,3343.4,3347.1,3347.1,3348.9,3350.7,3352.5,3356.1,3356.1,3350.6,3348.8,3345.2,3343.4,3339.8,3341.6,3330.8,3330.8,3323.6,3316.5,3309.5,3302.3,3295.5,3286.7,3274.6,3266.1,3256.2,3252.9,3246.3,3244.7,3241.4,3234.7,3231.2,3233.1,3226.8,3226.8,3223.7,3223.8,3219.4,3219.2,3221.5,3220.3,3224.1,3216.3,3211.7,3212.5,3219.8,3222.4,3229.5,3231.9,3241.5,3247,3262.5,3277.6,3283.6,3287.1,3297.1,3305.1,3316.3,3324.3,3326.2,3330.5,3336.4,3346.1,3354.7,3362.9,3371.6,3385.7,3391.5,3402.3,3408.4,3416.3,3430,3446,3459.8,3471.6,3481.4,3494.8,3508.3,3602.89,3604.67,3609.22,3609.11,3606.33,3608.67,3614.2,3618.4,3620.6,3620.6,3616.4,3614.2,3614,3611.8,3607.7,3603.5,3603.5,3599.3,3599.4,3597.3,3595.3,3593.3,3589.2,3585,3578.7,3568.5,3556.7,3540.9,3531.7,3511.5,3496.1,3477.7,3465.8,3452.8,3444.6,3435.5,3426.3,3416.8,3408.6,3404.6,3401.9,3395.9,3390.7,3388.1,3383.2,3384.6,3382.5,3378.2,3373.8,3365.6,3354.4,3343,3335.6,3319.5,3305.5,3294.7,3278.7,3267.9,3261.2,3261.2,3260.9,3260.3,3263.5,3270.3,3277.1,3280.4,3280.5,3283.5,3286.7,3290,3291.7,3294.8,3299.7,3304.9,3310.2,3315.5,3322.4,3334.9,3342.2,3351.1,3358.5,3364.1,3364,3369.6,3375.3,3381,3374,3374.2,3372.7,3360,3356.4,3340,3331.3,3316.6,3300.4,3286.3,3272.1,3251.4,3236,3219,3202.3,3185.7,3161,3143.2,3122.4,3103.3,3089.3,3073.8,3053.7,3037.4,3025.4,3013.6,3007.6,2998.8,2995.8,2987.1,2984.2,2977,2968.3,2959.8,2951.4,2938.9,2928.8,2912.4,2903,2889.4,2876,2863,2847,2839,2829.8,2819.5,2811.4,2802.4,2793.2,2785.6,2776.6,2771.7,2760.5,2753.2,2747,2737.3,2728.8,2719.1,2709.5,2702.2,2697.4,2697.4,2695,2695,2696.2,2697.4,2703.4,2707,2716.7,2720.4,2721.8,2728,2730.8,2736,2736.1,2738.7,2739.9,2745,2747.1,2749.3,2752,2752.9,2755.3,2758.7,2762.4,2767.2,2773.5,2763.22,2766,2773.11,2797.7,2800.3,2806.6,2811.6,2821.8,2823,2829.3,2835.8,2839.8,2842.3,2850.1,2854.2,2856.8,2866.1,2872.8,2878.2,2886.4,2894.5,2905.3,2914.8,2925.7,2944.3,2955.4,2965.5,2977,2987,2993,3003.2,3006.1,3019.4,3020.9,3032.8,3037.2,3044.8,3047.8,3059.8,3069,3079.8,3084.4,3095.1,3106,3109.2,3118.6,3121.8,3124.7,3134.3,3134.2,3135.8,3137.3,3135.7,3134.1,3142.1,3151.7,3158.1,3166.4,3173,3179.6,3194.7,3206.4,3216.7,3223.6,3229,3234.4,3239.7,3248.3,3252,3258.9,3263.9,3267.4,3272.3,3275.8,3282.5,3284,3292.8,3299.8,3303.1,3308.4,3317.3,3320.8,3326.2,3328.1,3331.6,3335.3,3335.1,3337,3331.6,3333.5
3030.3,3029.4,3022.3,3023.1,3022.3,3022.4,3018.2,3083.11,3018.2,3022.3,3021.3,3024.4,3026.8,3028.3,3038.6,3048.5,3053,3058.9,3072.1,3126.67,3133.89,3139.11,3116.9,3122.2,3130.9,3138.4,3141.3,3147.4,3155.4,3165,3165.1,3170,3178.2,3184.8,3193.3,3201.5,3206.5,3216.7,3221.8,3226.8,3230.2,3228.4,3228.4,3226.6,3223.3,3223.4,3219.9,3221.5,3217.9,3216.2,3216.2,3211.1,3211.1,3210.9,3211,3211.1,3214.5,3217.8,3217.8,3226.4,3226.4,3234.9,3238.4,3245.1,3250.2,3251.9,3251.7,3253.4,3246.5,3246.6,3246.5,3246.4,3243,3238,3239.7,3241.4,3241.4,3241.4,3239.6,3239.4,3239.4,3239.5,3241.2,3244.7,3244.7,3243,3243,3243,3243.1,3246.5,3248.2,3246.5,3246.4,3244.6,3246.3,3241.1,3239.4,3244.7,3248.2,3250.1,3251.8,3255.2,3262,3265.5,3277.6,3284.7,3286.3,3291.6,3300.5,3300.5,3304.1,3307.6,3311.1,3311.1,3314.7,3316.5,3318.4,3327,3331,3333,3330.9,3336.2,3347.2,3350.8,3354.4,3358,3363.5,3365.3,3367.1,3367.1,3367.1,3367.1,3363.4,3363.4,3361.6,3358,3356.2,3356.2,3352.5,3350.7,3343.5,3339.9,3329.2,3329.2,3315.1,3308.1,3297.5,3287.1,3280.6,3275.7,3265.7,3266,3259.4,3254.3,3249.7,3241,3238,3236.8,3235.5,3232.3,3224.2,3223.1,3221.4,3223.4,3227.4,3228,3218.2,3217.1,3224.1,3228.5,3233.8,3245,3250.9,3260.4,3272.1,3292.6,3308.1,3311.4,3319,3328.2,3333.8,3343.3,3354.8,3364.5,3368.8,3374.1,3385.2,3397,3406.3,3417.8,3435.2,3442.3,3444.89,3464.89,3480.33,3487.44,3496.33,3505.22,3514,3520.33,3625.5,3643.67,3648,3647.67,3647.33,3646.89,3646.78,3650.7,3648.7,3652.8,3650.6,3646.3,3644.1,3646.3,3644.1,3642,3637.6,3635.4,3629.1,3627,3627,3625,3623.1,3616.9,3614.7,3610.4,3604.1,3602.1,3589.7,3575.8,3588.67,3579.67,3531.1,3514,3498.7,3491,3477.8,3465.5,3459.6,3453.8,3449.7,3437.3,3435.2,3429.3,3422.6,3416.8,3415.9,3419.2,3411,3408.5,3398.7,3390.7,3381,3368.2,3359,3346.4,3328.3,3314.4,3294.9,3284.3,3268.8,3265.4,3261.5,3266.1,3265.7,3272.8,3275.6,3282.7,3283.8,3285.3,3294.1,3295.4,3298.4,3303.4,3304.9,3312,3315.3,3322.4,3327.7,3336.7,3345.8,3351.1,3360.4,3365.9,3369.5,3375.2,3379.1,3381.1,3381.4,3377.9,3372.7,3365.5,3352.9,3343.5,3334.9,3322,3303.9,3288,3270.4,3253.1,3234.3,3215.6,3199,3182.2,3160.9,3144.7,3123.7,3106.3,3090.8,3073.7,3056.7,3041.7,3028.4,3017.9,3011.9,3001.7,3000.2,2995.9,2987,2981.3,2971,2961.2,2952.6,2941.5,2927.5,2913.7,2901.5,2888.2,2874.8,2859.1,2849.8,2839.2,2828.6,2818.1,2810.2,2801.1,2792,2781.7,2774.1,2769.2,2756.7,2750.6,2743.4,2732.4,2723.9,2714.3,2704.6,2699.9,2695.1,2691.6,2693.9,2693.9,2693.9,2696.3,2698.6,2704.6,2711.8,2720.3,2719.1,2721.7,2725.6,2728.1,2732,2738.2,2738.4,2743.3,2746.9,2748.1,2750.5,2753.7,2756.2,2757.4,2760.8,2764.5,2769.5,2773.5,2777.4,2783.7,2790.1,2796.4,2803.7,2811.3,2816.4,2825.5,2832,2838.3,2841,2846.2,2851.4,2856.8,2864.9,2870,2876.9,2882.2,2886.4,2897.2,2905.5,2916.4,2925.9,2938.5,2954.1,2964.1,2975.6,2985.8,2996,3006.1,3007.6,3017.9,3020.8,3031.2,3037.2,3043.2,3047.7,3055.3,3064.3,3072,3079.6,3084.1,3091.9,3101.4,3104.4,3112.2,3110.6,3116.9,3118.4,3123.2,3124.7,3123.2,3123.3,3132.7,3142.3,3153.6,3164.8,3174.7,3181.4,3191.5,3206.6,3222,3232.5,3239.3,3246.2,3253.3,3258.4,3265.1,3273.8,3278.8,3285.6,3292.6,3297.7,3301.2,3306.4,3309.9,3311.5,3316.9,3322.5,3322.5,3321,3322.8,3322.8,3326.5,3328.2,3330.4,3333.9,3326.7,3326.7
3028.9,3024.6,3023.5,3018.7,3018.7,3014.7,3010.7,3012.2,3009.2,3013.9,3015.4,3018.4,3018.3,3026,3030.8,3038.4,3048.2,3053.6,3066,3074.4,3085.9,3100.4,3114.5,3126.6,3135.3,3145.6,3154.8,3162.3,3171.8,3176.3,3181.2,3184.5,3196,3201,3211,3219.6,3224.7,3231.5,3241.7,3243.4,3245.1,3248.5,3243.5,3242,3238.5,3238.4,3238.3,3230,3231.6,3228.1,3224.5,3224.4,3221.1,3222.7,3219.5,3219.6,3222.9,3221.3,3228.1,3233.2,3238.2,3247,3250.3,3255.4,3258.7,3258.7,3257,3256.9,3260.3,3258.7,3255.2,3255.1,3251.6,3249.8,3248.2,3250,3248.3,3250,3251.7,3249.9,3246.4,3248.2,3250,3251.7,3251.6,3249.9,3251.6,3253.3,3255.1,3256.9,3256.9,3255.2,3255.2,3251.6,3248.1,3246.4,3243,3248.3,3250.1,3248.4,3255.2,3260.3,3263.9,3272.6,3281.1,3284.7,3290,3295.2,3302.3,3315.11,3315.11,3319,3323,3323,3331.11,3331.11,3331.11,3337.11,3341.11,3341.11,3349.22,3355.22,3361.6,3361.6,3367.1,3374.5,3378.1,3383.7,3387.5,3387.5,3387.5,3383.8,3383.8,3380.2,3380.2,3372.7,3372.7,3369.1,3369.1,3365.5,3361.7,3354.5,3349.2,3344,3331.3,3326.5,3314.4,3307.9,3297.5,3289.3,3286.3,3284.9,3276.6,3278.4,3268.1,3263.3,3260.2,3255.2,3251.2,3248,3238.1,3235.5,3233.8,3236,3238.3,3234.8,3228.8,3229.7,3237.7,3242.4,3250.1,3263,3272.8,3284.1,3295.9,3314.8,3328.6,3340.9,3348.5,3354.2,3365,3376.9,3389.6,3393.7,3403,3412.5,3423.7,3441.3,3449.3,3457,3476.7,3471.67,3487.56,3506.22,3515.56,3525,3531.56,3542.44,3553.89,3669.33,3678.22,3675.11,3681.67,3681.33,3678.78,3676.11,3678.33,3681.5,3678.9,3674.6,3674.7,3672.6,3668,3668,3665.8,3661.5,3661.5,3659.4,3652.8,3650.6,3644.2,3642.2,3640.2,3640.4,3638.3,3633.9,3627.7,3623.6,3608.6,3607.33,3602.67,3598.22,3589.11,3539.7,3523.7,3512.5,3507,3493,3483,3477.1,3469.6,3460.7,3458.7,3452.6,3445.9,3445.8,3435.4,3434.7,3434.2,3427.9,3423.7,3417.4,3407.6,3400.3,3381.8,3369.5,3353.2,3341.1,3319.6,3307.5,3295.4,3281.3,3284.6,3282.3,3285.2,3290.3,3291.7,3295.1,3299.8,3302.9,3307.9,3303.9,3305.1,3308.5,3317.4,3324.4,3329.5,3331.4,3334.8,3342.1,3352.9,3358.5,3371.5,3375.1,3376.8,3382.5,3386.5,3385,3387,3380.1,3376.4,3367.2,3356.4,3347.2,3336.5,3318.4,3302.1,3282.5,3270.4,3254.7,3230.6,3213.8,3198.6,3178.9,3162.3,3139.6,3125.2,3107.9,3090.6,3075.2,3056.8,3044.6,3034.1,3023.9,3013.4,3004.6,3001.7,2995.9,2988.5,2981.3,2972.5,2965.5,2951.3,2937.2,2927.5,2913.7,2901.6,2887,2872.6,2858,2848.8,2836.9,2823.6,2812.9,2805.2,2796,2784.4,2776.7,2770.4,2762.8,2751.8,2744.5,2737.2,2723.9,2719.1,2710.6,2703.5,2695.2,2690.5,2689.3,2689.2,2688.2,2688.4,2691.9,2696.5,2699.9,2707,2714.2,2716.6,2720.3,2720.3,2721.6,2727.7,2733.8,2735.2,2737.7,2742.5,2746.1,2747.3,2748.5,2750.9,2752,2755.7,2762,2764.6,2769.6,2774.8,2782.2,2784.7,2794.9,2802.4,2802.33,2817.7,2822.8,2830.6,2837,2842.3,2850.2,2848.56,2854.33,2860.33,2864.78,2876.9,2879.5,2886.4,2898.7,2902.7,2916.6,2927.6,2937.2,2947.1,2959.8,2974.3,2984.4,2993.1,3001.7,3007.6,3013.5,3023.8,3028.2,3032.7,3035.7,3044.7,3052.2,3056.8,3064.2,3067.4,3075.1,3081.3,3089.1,3092.3,3095.4,3101.7,3107.9,3111,3117.2,3115.7,3118.7,3118.7,3129.7,3140.8,3150.4,3163.5,3173.2,3184.8,3194.8,3211.5,3227.1,3240.7,3247.6,3256.2,3263.2,3271.5,3282.1,3288.9,3297.6,3304.5,3308,3313.2,3316.6,3323.7,3321.9,3323.8,3329.3,3329.3,3326.1,3327.9,3326.2,3324.4,3323.2,3323.2,3326.9,3323.5,3325.2,3316.4
3030.1,3024.9,3022.4,3017.4,3015.7,3011.2,3007.2,3004.7,3005.4,3004.6,3006.1,3007.7,3010.9,3017.6,3027.3,3032.1,3037.1,3043.9,3055.5,3069.8,3079.3,3097,3114.3,3124.5,3134.6,3145.1,3153.9,3166.1,3177.1,3184.9,3189.5,3199.3,3207.7,3217.6,3222.6,3232.7,3239.7,3246.5,3251.6,3258.6,3258.7,3257,3258.8,3255.4,3253.6,3251.8,3251.8,3246.6,3245.1,3240,3238.2,3234.8,3231.3,3232.9,3231.2,3228,3229.7,3229.7,3234.7,3241.5,3248.6,3252,3253.6,3258.8,3265.6,3267.4,3270.8,3269,3265.6,3269.2,3271,3269.2,3260.4,3260.4,3258.7,3257,3258.7,3257,3258.7,3257,3257.1,3257,3257,3260.4,3262.1,3258.7,3260.5,3264,3262.2,3263.8,3269,3267.2,3265.7,3260.5,3257,3255.1,3255.1,3253.5,3251.8,3251.9,3260.4,3265.7,3267.5,3277.8,3291.44,3297.44,3303.33,3309.11,3315.11,3317.11,3323.11,3327,3331.11,3333.11,3339.11,3339.11,3337.11,3347.11,3351.22,3359.22,3361.22,3363.22,3378.3,3380.2,3389.3,3393.1,3396.8,3400.7,3402.5,3402.5,3400.6,3400.5,3402.3,3402.3,3398.6,3391.2,3391.2,3387.4,3385.6,3381.9,3380.2,3372.9,3365.7,3360.5,3348.3,3339.9,3331.2,3323,3318.1,3308.3,3305.3,3305.7,3297.4,3299.4,3294.4,3286,3277.6,3277.9,3275.5,3267,3257.1,3250.9,3247.6,3251.9,3256,3255.7,3256.4,3253,3258.6,3273.5,3278.9,3290.8,3305.5,3313.5,3329.1,3348.4,3366.4,3373.2,3378.9,3386.1,3401.9,3412.8,3425.8,3431.5,3433.8,3449.4,3460.5,3474.5,3485,3499.9,3512.6,3503.44,3518.67,3535.56,3545.33,3554.78,3531.38,3648.71,3691.44,3698.11,3702.78,3704.33,3706.44,3706,3705.67,3705.33,3705.8,3703.5,3705.7,3698.8,3696.6,3694.4,3689.9,3692,3692,3685.2,3683.1,3676.7,3672.4,3668.1,3668.2,3666.1,3661.8,3655.6,3657.8,3649.2,3651.8,3640.9,3628.67,3626.44,3624.22,3612.44,3607.44,3598.11,3591.22,3584.33,3524.6,3516.9,3505,3496.9,3490.9,3484.5,3480.3,3470.1,3469.5,3464.8,3460.4,3458.1,3457.6,3477.78,3447.1,3439,3435,3427.6,3414.5,3405.5,3389,3376.6,3362.5,3344.8,3332.6,3325.5,3316.6,3315.9,3315.7,3317,3318.3,3318.2,3321,3320.6,3327,3323.2,3328.1,3329.7,3333.2,3340.3,3345.9,3349.3,3352.9,3362,3373.1,3378.7,3384.1,3384.2,3391.8,3390.1,3394.1,3396.5,3394.6,3389.5,3380.3,3374.9,3363.8,3349,3336.5,3323.7,3303.8,3291.1,3266.7,3252.8,3232.2,3215.2,3200.3,3180.3,3163.8,3144.4,3128.3,3109.4,3096.7,3081.3,3064.5,3047.7,3037,3026.7,3014.9,3007.5,3000.2,2995.8,2991.5,2982.9,2972.7,2961.3,2949.8,2941.4,2926.1,2911.1,2900.3,2887.2,2870.1,2855.5,2841.2,2830.6,2822.3,2811.9,2802.7,2787.3,2782.1,2769.2,2765.3,2756.8,2746.8,2734.8,2727.5,2716.7,2710.6,2701.3,2694.2,2689.5,2683.4,2684.7,2681.2,2682.4,2685.9,2690.8,2695.4,2698.9,2705.9,2710.7,2713.1,2715.5,2719.1,2717.9,2725.1,2728.8,2730,2733.6,2737.2,2738.4,2742,2745.7,2746.9,2745.8,2749.6,2752.2,2759.6,2763.3,2768.3,2777.2,2782.3,2789.7,2798.5,2804.9,2813.7,2821.4,2829.3,2835.6,2843.6,2850.2,2858.1,2860.8,2868.9,2874.3,2882.3,2883.6,2893.2,2899.9,2906.9,2920.6,2930.3,2937.4,2947.5,2958.6,2970.1,2980.1,2987.4,2998.9,3004.7,3012,3019.4,3022.4,3028.2,3035.7,3043.2,3044.7,3046.2,3052.2,3058.4,3060.1,3068,3069.8,3077.4,3083.7,3090.2,3094.7,3099,3106.6,3109.7,3112.6,3115.6,3126.6,3136,3148.8,3163.5,3176.4,3186.4,3199.8,3213.4,3235.4,3247.4,3262.9,3269.5,3280,3285.4,3295.6,3309.8,3313.2,3320.3,3325.5,3331,3329.2,3332.7,3334.5,3332.8,3334.6,3334.7,3327.8,3327.9,3322.6,3319.4,3317.9,3318,3318.3,3320.3,3317,3315.1
3035.4,3030.2,3023.7,3018.9,3013.9,3010.6,3002.2,3002.2,3001.3,3002,2999.7,3002.8,3007.4,3012.7,3014.4,3023.1,3028.7,3034.5,3042.9,3053.9,3064.5,3086.1,3101.2,3114,3131.1,3144.7,3150.2,3165.1,3176.2,3190.3,3191.7,3201.4,3216.2,3224.4,3231.1,3246.3,3251.4,3258.3,3267,3268.8,3272.4,3270.8,3270.7,3270.7,3269.1,3262.2,3262.2,3258.8,3258.8,3251.9,3248.4,3243.4,3243.4,3243.2,3241.4,3239.7,3236.4,3243.1,3244.8,3246.7,3250.2,3257,3260.4,3263.9,3272.5,3276,3279.5,3281.5,3278,3278.1,3279.8,3278.1,3276.3,3274.5,3270.8,3272.6,3269.1,3269.1,3265.6,3267.4,3269.2,3269.2,3269.1,3269.2,3270.9,3269.2,3272.7,3276.2,3277.9,3276.3,3272.8,3271,3272.7,3269.3,3264.2,3267.4,3265.6,3263.9,3262.2,3260.6,3264,3267.5,3271,3289.67,3297.56,3299.44,3307.22,3315.11,3323.11,3327.11,3333.22,3335.11,3341.11,3347.11,3349.11,3349.11,3351.22,3355.22,3363.44,3369.67,3373.67,3382,3391.4,3398.7,3408.2,3409.9,3419.3,3419.3,3423.1,3421.2,3419.3,3419.3,3421.2,3419.3,3419.3,3417.4,3411.7,3411.8,3409.9,3400.7,3397.1,3389.8,3390,3381.2,3367,3360.6,3354.3,3349.6,3344.9,3338.2,3330,3326.7,3329.3,3326,3319.5,3312.5,3305.8,3301.7,3297,3288.6,3278.3,3274.1,3274.3,3278.5,3280.7,3282.7,3281.4,3283,3292.6,3303.6,3318.3,3327.6,3342.8,3352.8,3366.8,3386.8,3406.2,3410.2,3420.5,3428.2,3439.6,3455,3463.1,3470.8,3473.9,3483.5,3500.1,3516.5,3526.78,3536.33,3539,3526.62,3539.12,3547.12,3574.89,3557.75,3671.43,3692.88,3713.44,3720.33,3724.44,3731.56,3728.56,3725.67,3725.33,3730.5,3728.2,3725.6,3723.4,3723.4,3721.1,3716.4,3718.6,3714.2,3709.7,3707.7,3705.4,3698.5,3694.2,3694.4,3690,3685.7,3679.1,3679.5,3677.3,3668.7,3666.8,3660.3,3656,3638,3638.22,3628.67,3626.33,3616.56,3609.44,3590.78,3586.44,3537.4,3529.1,3519,3514.9,3504.8,3496.5,3494.6,3485.8,3483.2,3482.3,3482,3477.6,3473.4,3469.2,3467,3461.4,3455.4,3471.44,3437.1,3445.89,3439.56,3427.22,3386.5,3372.2,3365,3359.4,3353.6,3356.2,3352,3351.8,3351.8,3349.3,3352.3,3353.6,3347.7,3354.8,3354.7,3358.2,3363.7,3369.3,3374.8,3376.7,3382.3,3386.1,3397.3,3401.2,3405.1,3401.5,3401.5,3407.4,3404.2,3402.2,3398.5,3385.7,3380.3,3369.2,3347,3339.9,3323.5,3303.6,3287.7,3268.2,3247.6,3230.4,3210.2,3198.4,3181.8,3163.8,3147.5,3126.8,3115.6,3096.8,3079.8,3063,3049.2,3035.5,3026.6,3017.8,3008.9,3001.7,2995.9,2991.8,2980.1,2972.8,2961.3,2949.9,2939.9,2923.3,2905.7,2893.6,2880.6,2865,2850.8,2837.6,2825.7,2816.3,2807.1,2794,2785.1,2772.2,2761.9,2755.7,2748.2,2739.6,2727.6,2720.4,2712,2701.5,2697.9,2691.9,2684.8,2678.9,2680.1,2678.9,2680.1,2686.1,2691.9,2694.3,2699.1,2701.4,2708.6,2709.5,2709.5,2713.1,2714.3,2719.1,2722.7,2726.4,2730,2733.6,2738.5,2739.7,2743.4,2743.4,2744.9,2744.9,2751.2,2754.8,2760.9,2765.9,2770.9,2779.6,2783.4,2793.3,2800.9,2806,2818.8,2825.4,2835.6,2843.5,2850.1,2855.4,2862.3,2870.2,2879.6,2882.3,2887.8,2893.1,2902.5,2909.6,2920.6,2929,2937.6,2947.4,2957.3,2967.3,2981.6,2986.1,2994.5,3001.8,3009.2,3012.2,3018,3022.4,3026.8,3027,3034.4,3034.8,3039.3,3043.8,3050.3,3053.5,3059.6,3066.1,3073.6,3078.2,3082.7,3090.3,3093.2,3102,3101.8,3106.4,3121.8,3134.4,3150.3,3163.3,3177.9,3191.3,3204.8,3225.1,3247.2,3262.8,3274.8,3283.4,3293.9,3300.8,3316.8,3322.1,3329.3,3336.6,3338.5,3345.6,3347.3,3349.1,3347.3,3345.6,3342.1,3340.3,3333.2,3328.1,3322.9,3315.9,3317.7,3316.4,3320.2,3318.5,3315.2,3319
3040.6,3030.8,3025,3018,3014.5,3007.4,3003.4,2998,2997.3,2996.3,2995.5,2992.5,2998.7,3000.9,3007.3,3015.8,3019,3027,3030.5,3035.6,3052.1,3069.2,3089.1,3100.9,3115.8,3134.6,3146.4,3163.1,3182,3191.1,3194.2,3210.4,3220.2,3231.9,3238.4,3253.5,3260.1,3270.6,3272.3,3275.8,3279.3,3282.8,3284.6,3283,3277.6,3277.6,3275.9,3270.8,3267.3,3265.6,3262.1,3258.7,3256.9,3255.2,3251.8,3248.3,3250,3248.3,3253.4,3256.8,3260.4,3263.8,3270.9,3276.1,3283.1,3286.7,3288.5,3290.4,3290.4,3290.6,3292.3,3286.9,3286.9,3283.4,3285.2,3283.2,3281.4,3283.3,3279.7,3277.9,3276.3,3278.1,3281.4,3281.4,3283.3,3285.1,3285.1,3283.5,3285.3,3285.3,3287,3287,3281.6,3279.8,3278.1,3276.2,3272.7,3270.9,3270.9,3269.2,3270.9,3274.6,3279.9,3293.67,3303.44,3313.22,3315.22,3323.22,3329.22,3333.33,3339.33,3345.22,3345.22,3349.33,3355.44,3357.44,3361.56,3365.56,3371.78,3382,3386.11,3402.8,3410.3,3414,3425.2,3430.9,3436.6,3438.5,3440.4,3442.3,3440.4,3442.3,3442.2,3438.4,3438.4,3436.5,3430.9,3429.1,3429.2,3427.2,3421.7,3418.2,3413,3408,3393.6,3389.1,3382.9,3376.6,3368.1,3365.7,3362.4,3355.7,3355,3351.6,3341.1,3334.4,3329.2,3324.9,3318.6,3314,3303.5,3299.2,3297.8,3305.8,3311.3,3311.9,3311.9,3313.4,3323.3,3336.5,3351.5,3363.2,3379.9,3395.2,3402.6,3424.1,3438.1,3451.3,3457.5,3470.9,3473,3486.9,3496,3506.5,3509.7,3521.7,3534.6,3546.9,3559.1,3568.4,3579.6,3583.2,3581.56,3596.67,3603.44,3711.75,3716.62,3754.38,3739.89,3746.89,3756.78,3751.22,3753.44,3755.56,3757.6,3746.2,3746.1,3743.8,3741.4,3739.1,3736.7,3732.3,3734.6,3732.3,3730,3721,3716.5,3714.5,3709.8,3710.1,3705.8,3701.5,3696.9,3694.8,3688.3,3688.4,3679.7,3675.7,3669.2,3656,3649.3,3636.5,3619.7,3630.78,3619,3579.8,3572,3561.9,3551.7,3543.3,3531.3,3522.9,3521.2,3508.6,3508.2,3503.7,3501.2,3507,3504.5,3502.2,3496.1,3496,3488.1,3484.3,3480.6,3469.3,3459.9,3446.8,3435.9,3428.8,3413.8,3408.6,3402.7,3427.44,3396.1,3397.2,3398.9,3398.8,3400.2,3398.2,3397.7,3397.2,3397.2,3396.9,3397,3400.7,3404.5,3404.6,3406.6,3414,3414.2,3420.1,3422,3427.8,3426,3420.6,3420.9,3417.5,3411.8,3400.7,3395.1,3382.4,3365.6,3352.7,3337.9,3323.5,3307.4,3287.7,3270.2,3249.3,3233.9,3220.2,3200.2,3183.3,3163.9,3145.8,3131.6,3115.7,3101.5,3081.5,3067.7,3050.8,3038.6,3026.7,3019.1,3007.5,3001.8,2991.7,2990.5,2977.1,2969.9,2956.9,2947,2932.9,2916.4,2901.4,2888.3,2876.5,2862.3,2845.5,2828.9,2820.9,2809,2796,2787,2776.4,2764.9,2753.4,2748.4,2738.6,2729.1,2719.3,2713.3,2706.2,2696.9,2692.1,2686.1,2682.6,2676.8,2677.9,2676.8,2678,2683.8,2686.2,2693.3,2694.5,2695.7,2699.3,2700.3,2702.6,2704.9,2710.8,2712,2719.1,2721.5,2727.6,2731.3,2736.1,2736.3,2741.2,2741.2,2743.8,2745,2752.5,2753.8,2758.6,2763.5,2767.3,2776,2780.8,2787,2795.7,2802.1,2813.5,2824,2830.5,2839.7,2846.2,2855.7,2862.2,2868.8,2876.9,2882.3,2887.7,2894.5,2899.8,2909.6,2916.6,2926.3,2934.8,2946.2,2955.9,2967.4,2974.5,2984.8,2989,2993,3001.9,3007.8,3012.2,3012.5,3015.4,3018.6,3020.3,3023.8,3027,3031.5,3034.9,3039.5,3045.6,3053.4,3060.8,3069.7,3074.2,3078.6,3085.9,3096.2,3100.5,3109.6,3120.3,3129.7,3147.1,3164.9,3184.5,3196.2,3216.2,3240.3,3262.6,3278.2,3290.7,3302.7,3311.7,3320.6,3334.9,3342.1,3351.5,3357,3360.7,3362.5,3364.3,3368.2,3364.3,3358.9,3351.8,3351.7,3342.6,3331.8,3328.2,3324.9,3323.2,3321.8,3321.9,3327.5,3325.9,3324.3
3046.8,3039.2,3029.6,3020.8,3016,3006.5,3001.1,2993.2,2994,2990.2,2988.7,2990.3,2993.3,2993.3,2996.4,3001.9,3007.3,3014.3,3018.4,3026.7,3038.1,3050.5,3071.7,3089.3,3102.8,3124.3,3144.5,3161.2,3178,3192.3,3203.1,3216.2,3227.8,3234.2,3244.1,3253.9,3263.9,3272.4,3274.1,3282.8,3284.5,3284.5,3286.3,3286.3,3279.5,3283.1,3281.3,3281.3,3279.6,3276,3272.6,3267.3,3263.8,3269,3263.9,3262.1,3263.7,3262,3263.9,3267.3,3272.6,3277.8,3279.5,3283.2,3292.1,3297.4,3297.5,3299.4,3302.9,3299.4,3299.6,3301.4,3301.2,3297.7,3297.8,3294.2,3295.8,3290.4,3290.4,3288.6,3290.4,3290.4,3292.4,3295.8,3299.3,3294.2,3299.5,3299.5,3295.9,3297.7,3299.5,3296,3295.8,3290.7,3292.3,3283.3,3281.5,3281.5,3279.8,3278.1,3285.3,3287,3305.78,3303.78,3315.33,3319.44,3327.33,3339.33,3339.33,3343.33,3353.22,3353.33,3357.44,3361.56,3369.78,3371.89,3371.89,3376,3382.22,3390.44,3408.7,3416.1,3421.7,3431.2,3440.6,3448.1,3450,3461.8,3459.8,3457.9,3461.7,3463.7,3463.7,3459.7,3457.8,3453.9,3452,3450.1,3446.4,3444.5,3443,3435.5,3437.8,3432.8,3422.2,3412.4,3408.4,3399.1,3396.2,3391.8,3385.2,3384.4,3379.2,3433.67,3424.67,3416.56,3357.4,3354.3,3349.7,3345,3336.1,3332.9,3332.2,3331,3338.3,3342.2,3344.2,3353.7,3359.9,3376.3,3390,3402.1,3417,3432.6,3444.2,3462.5,3474.8,3488.9,3497.4,3505,3516.4,3522.8,3534.6,3540.1,3548.7,3560.7,3573.8,3586.4,3595,3605.8,3610.3,3619.8,3626.5,3639,3735.67,3743.11,3774,3774,3761.89,3766.78,3771.56,3768.89,3768.33,3771.5,3769.1,3766.8,3757.5,3757.4,3757.4,3752.8,3752.8,3748.3,3748.3,3750.6,3748.3,3739.1,3732.2,3730,3727.9,3725.7,3716.8,3712.5,3708,3705.9,3704,3697.3,3695,3686.7,3680.2,3671.6,3662.4,3653.6,3636.4,3619.7,3609.3,3601.4,3591.3,3579.1,3573,3565,3556.5,3550.6,3538.1,3539.7,3531.2,3528.8,3530.3,3532,3531.8,3533.7,3525.4,3529.4,3521.5,3519.6,3513.7,3508.2,3496.4,3486.9,3494.33,3470,3466.3,3456.8,3454.6,3468.11,3452.1,3453.4,3453.2,3455.1,3452.7,3458.2,3460.3,3460,3458.1,3458.1,3458.1,3458.1,3456.3,3452.3,3452.3,3456.4,3454.7,3454.6,3452.9,3453.2,3451.3,3446,3444.2,3437.2,3423.7,3417.9,3403.1,3391.9,3371.4,3354.5,3338.1,3323.7,3305.4,3289.4,3268.4,3252.7,3232.1,3215.4,3201.7,3186.9,3170.4,3149.1,3133.2,3120.5,3103.2,3079.9,3066.2,3050.9,3037.1,3028.2,3016.2,3004.8,2998.9,2990.2,2983,2974.2,2964.2,2955.4,2944.2,2928.8,2913.6,2897.3,2885.5,2872.4,2857,2842.9,2827.5,2817.3,2805.4,2796.3,2782.1,2769.2,2758.9,2747.4,2741.5,2732.8,2723.2,2714.8,2707.6,2699.4,2692.4,2687.6,2681.6,2680.4,2674.5,2673.2,2674.5,2674.6,2680.6,2683,2687.7,2687.8,2691.4,2691.3,2693.8,2698.3,2698.2,2702.8,2706.3,2714.6,2718.1,2721.6,2729.1,2729.2,2734.2,2740.2,2740.3,2742.8,2745.5,2747.9,2755.2,2760,2760,2767.5,2771.1,2777.3,2783.4,2789.6,2795.9,2804.8,2816.4,2824.1,2833.3,2839.7,2850.2,2860.9,2870.3,2881,2886.4,2891.7,2898.6,2901.3,2911,2918.1,2926.4,2933.5,2943.3,2950.5,2960.5,2970.6,2976.4,2983.5,2989.1,2993.2,3000.6,3006.5,3008.2,3005.4,3011.6,3009,3016.8,3020,3024.8,3025.1,3031.5,3038.8,3043.6,3050.9,3061.1,3067,3071.3,3078.4,3085.7,3096,3104.9,3112.4,3132.7,3150.2,3169.6,3187.7,3207.9,3229.9,3252,3276.7,3297.9,3311.9,3322.6,3329.9,3342.5,3355.1,3364.5,3372.2,3381.7,3383.9,3383.9,3384.1,3387.6,3382.1,3373,3367.2,3356.3,3354.3,3341.6,3339.4,3335.8,3334.1,3334.6,3334.5,3334.6,3336.4,3333
3049.7,3043.1,3034.2,3024.7,3015.1,3009.5,3001,2992.5,2989.3,2987.1,2982.5,2985.6,2985.5,2985.5,2990.1,2989.4,2997.9,3004,3008,3015.2,3031.2,3046.7,3064.4,3080.8,3100,3120.2,3132.3,3154.4,3177.9,3226,3202.4,3217,3228.7,3235,3246.6,3261.3,3266.2,3272.8,3279.6,3283,3283,3286.4,3284.7,3283,3284.7,3286.5,3283,3281.3,3281.3,3281.3,3281.3,3279.6,3277.8,3277.8,3274.2,3270.7,3275.9,3274.1,3272.4,3277.6,3279.4,3288.3,3291.8,3297.5,3299.4,3306.6,3311.8,3312,3312.2,3315.8,3315.8,3314.1,3312.3,3308.7,3310.3,3310.3,3304.8,3308.2,3306.4,3304.6,3306.4,3304.7,3306.5,3306.6,3308.6,3308.4,3306.6,3308.4,3310.2,3308.6,3308.6,3306.8,3303.2,3304.9,3302.9,3294,3295.6,3293.9,3290.4,3292.3,3294.2,3299.6,3317.44,3323.44,3327.33,3333.33,3339.33,3345.44,3353.44,3355.44,3361.56,3359.44,3365.78,3374,3376.22,3378.33,3380.33,3384.33,3392.56,3396.67,3422,3431.4,3435.1,3444.6,3458,3463.8,3471.7,3475.6,3477.6,3479.5,3481.4,3483.3,3481.4,3479.5,3479.5,3473.5,3473.5,3471.5,3467.7,3464,3460.3,3462.6,3461.1,3456,3447.4,3439.9,3428.6,3420.9,3415.5,3416.4,3467.89,3466.11,3466.22,3465.67,3459,3459.11,3391,3387.8,3388,3381.4,3373.1,3367.9,3369.9,3377.9,3380.2,3383.8,3387.6,3394.4,3405.5,3419.4,3433.1,3446.7,3460.1,3474.3,3486.2,3502.9,3513.1,3521.4,3533.4,3541.6,3551.3,3561,3571.9,3575.2,3590.8,3598.4,3598.22,3587.62,3622.67,3627.89,3630.56,3640.67,3650,3764.89,3772.44,3772.33,3777.11,3776.78,3784.33,3789.44,3789.22,3783.78,3787.9,3780.7,3778.2,3775.8,3775.8,3773.5,3773.4,3764.3,3764.3,3764.3,3759.7,3759.7,3752.8,3748.3,3746.1,3741.5,3739.2,3730.4,3725.9,3723.7,3721.5,3717.2,3712.9,3713,3706.4,3695.7,3693.3,3684.4,3671.1,3662.3,3651.4,3634.2,3625.7,3617.4,3607.1,3598.9,3592.9,3589.1,3578.7,3574.4,3567.8,3565.8,3565.3,3558.9,3558.6,3562.4,3560.1,3562.1,3558,3564.1,3551.9,3554.2,3549.9,3544.2,3538.4,3532.8,3526.7,3520.8,3521,3514.7,3506.5,3510.3,3514.1,3513.8,3515.7,3517.5,3523.6,3525.6,3529.7,3529.5,3531.6,3535.8,3533.7,3531.7,3533.9,3521.6,3517.9,3513.9,3509.9,3508,3500.5,3494.7,3483.1,3479.4,3467.9,3456.9,3449.1,3430,3418.6,3403.7,3383,3360.5,3349.4,3327.4,3307.2,3287.7,3271.9,3254.5,3237.5,3222.2,3203.6,3191.8,3172.2,3150.9,3133.4,3115.8,3098.5,3083.1,3066.2,3049.4,3037.3,3022.3,3012,3004.7,2996.1,2985.9,2983.2,2972.9,2962.6,2949.8,2940.1,2923.4,2909.7,2893.2,2881.2,2866.8,2854.3,2837.6,2826,2813.2,2802.8,2790.1,2778.4,2766.8,2751.6,2742.8,2736.7,2727,2722.4,2711.6,2705.5,2699.6,2692.6,2686.5,2681.8,2679.4,2677.2,2673.5,2672.1,2673.7,2677.3,2680.9,2682.1,2683.3,2687.1,2690.4,2690.5,2692.8,2697.4,2698.5,2707.9,2712.4,2716,2720.8,2724.5,2728.4,2732.1,2733.3,2738.2,2741.9,2743.4,2747.1,2751.9,2754.1,2759,2767.7,2771.4,2773.7,2780,2783.6,2793.5,2798.6,2811.4,2820.5,2829.4,2838.6,2847.5,2859.5,2870.3,2881,2890.6,2898.7,2902.8,2905.7,2915.2,2920.9,2927.7,2932,2939.3,2944.9,2954.8,2962,2970.6,2976.3,2980.6,2986.2,2991.9,2996.4,2999.5,3002.9,3004.7,3001.9,3008.6,3013.3,3015.2,3018.3,3026.1,3030.8,3038.1,3045,3049.2,3056.6,3066.8,3072.5,3079.8,3088.5,3094.1,3113.9,3129.6,3151.8,3174.5,3196.1,3221.1,3245,3267.8,3295.8,3315.8,3328.2,3342.7,3355.6,3364.9,3374.2,3383.5,3391.4,3397.5,3401.7,3400.4,3402.2,3402.1,3394.8,3384.8,3377.7,3371.9,3362.5,3354.7,3349.1,3345.2,3345.2,3345.6,3349,3350.8,3352.5,3348.9
3058.1,3053.2,3039.6,3030,3022,3015.8,3004.8,2999.3,2995.4,2991.5,2987,2987,2986.9,2985.4,2987,2987.7,2988.5,2994.8,2999.3,3008,3020.7,3036,3054.8,3075.1,3091.4,3114,3132.2,3154.6,3174.4,3190,3203.8,3220,3233.1,3235.8,3247.4,3258.8,3270.2,3273.2,3278,3283.2,3283.2,3281.4,3286.6,3283.1,3281.4,3281.4,3284.8,3283.1,3286.7,3288.4,3284.9,3286.6,3279.6,3284.8,3283,3283,3279.5,3279.4,3281.2,3286.5,3293.5,3300.6,3297.4,3302.9,3311.9,3319,3319.2,3321.3,3324.9,3326.8,3325.1,3328.5,3324.9,3321.3,3317.7,3321.3,3323,3319.5,3317.7,3313.7,3313.7,3319.2,3324.6,3324.6,3326.3,3321,3317.7,3319.5,3317.7,3319.4,3319.4,3317.5,3315.7,3319.2,3313.8,3311.8,3308.2,3306.5,3308.3,3304.7,3308.3,3315.4,3319.1,3326.3,3341.56,3349.56,3349.56,3359.56,3365.67,3369.67,3369.78,3371.89,3378.33,3380.44,3386.44,3384.56,3386.78,3392.78,3398.89,3422.2,3427.9,3441.2,3446.8,3464,3469.7,3483.5,3485.4,3493.2,3499.2,3501.1,3505.1,3501,3499,3499,3497.2,3493.3,3491.3,3491.3,3487.5,3487.7,3484.1,3484.5,3479.2,3474.3,3467.9,3458.9,3453.3,3498.89,3499.56,3504.44,3504.89,3505.11,3505,3504.56,3502.56,3426.6,3423.5,3420.5,3422.8,3420.8,3415.3,3414.4,3416.7,3420.4,3432.2,3430.7,3438.6,3442.6,3447.3,3463.2,3473.1,3491.4,3501.4,3513.6,3524.2,3531.4,3543.9,3554.6,3564.4,3570.5,3587,3593.6,3601.5,3610.2,3604,3606.25,3617.5,3624.75,3652.11,3665,3675.44,3684.5,3786.78,3789.44,3789.44,3789.33,3794.44,3797.11,3796.78,3801.89,3799.33,3799.5,3794.7,3792.3,3792.2,3785.1,3780.5,3775.8,3775.7,3768.8,3768.9,3771.3,3764.4,3759.7,3762,3757.4,3750.7,3750.6,3748.3,3741.5,3732.6,3735.2,3730.7,3726.2,3726.3,3719.8,3713.1,3702.2,3695.4,3686.22,3671.44,3666.67,3661.56,3652.11,3649.67,3640.22,3625.9,3621.8,3615.6,3607.7,3599.2,3594.9,3588.7,3586.2,3583.9,3585.9,3587.8,3591.7,3587.3,3587.1,3584.9,3580.6,3576.4,3583,3576.7,3575.2,3569.1,3569.3,3561.56,3561.56,3563.67,3563.1,3558.9,3560.8,3562.9,3562.5,3570.6,3574.5,3580.8,3587.2,3593.1,3603.5,3607.9,3610.1,3614.4,3612.4,3610.5,3610.4,3602.3,3589.7,3581.7,3567.4,3559.7,3541.5,3529.2,3515.5,3499.9,3482.5,3467,3449.6,3426.5,3411.3,3389,3372.1,3353.4,3333,3311.1,3293.4,3273.8,3256.5,3239.5,3222.5,3209.1,3194,3171.1,3156.2,3140,3122.6,3103.5,3086.4,3066.5,3051.1,3037.5,3024,3013.6,3005,2996.2,2983.4,2980.4,2967.2,2959.9,2948.6,2937.1,2919.4,2908.3,2889.1,2885.67,2864.1,2851.3,2835.9,2820.6,2811.4,2801.2,2788.6,2775.8,2761.8,2751.8,2739.2,2733.4,2723.7,2717.7,2709.4,2703.2,2698.4,2691.6,2689.2,2681.8,2680.6,2676,2674.6,2671.1,2672.4,2674.8,2680.8,2679.8,2682.4,2684.9,2686.1,2688.5,2690.8,2693,2695.4,2702.4,2706.8,2710.3,2717.5,2722.6,2728.6,2732.3,2733.7,2738.6,2740.9,2742.2,2749.5,2750.5,2759.1,2759,2766.3,2771.3,2773.9,2778.9,2783.7,2791.2,2796,2806.2,2812.6,2821.4,2834.4,2846.2,2858.1,2870.3,2882.5,2892.1,2900.3,2905.8,2909.9,2916.8,2923.7,2926.5,2932.2,2938,2943.5,2954.8,2957.7,2963.2,2970.2,2973.4,2980.4,2987.6,2990.7,2995.3,2998.6,3000.3,3001,3003.3,3009.3,3011.4,3014.4,3020.7,3025.3,3032.7,3041.1,3049.6,3053.8,3059.6,3068,3081.4,3087,3097.3,3109.3,3132.7,3161.6,3179.5,3206,3233,3257.4,3281.8,3314.3,3335.6,3350.2,3361.3,3370.7,3381.9,3389.6,3401.6,3407.4,3411.8,3414.5,3412.4,3414.8,3409,3403.3,3391.4,3382.1,3376.4,3367.1,3366.4,3362.4,3355,3358.3,3361.5,3365.2,3365.1,3368.5,3366.8
3063.7,3058.8,3048.9,3042.5,3033.1,3025.8,3014.9,3011,3003.9,2998.4,2996.8,2996.9,2990,2986.9,2990,2990.8,2990,2990.7,2993,3000.2,3015,3029.5,3047.2,3065.4,3085.7,3108,3128.1,3153.3,3171.3,3188.5,3203.8,3219.8,3232.9,3238.8,3247,3259.7,3264.4,3268.6,3273.4,3278.5,3278.3,3281.7,3281.6,3279.9,3278.2,3281.7,3286.9,3283.4,3290.4,3288.6,3286.9,3286.9,3286.7,3286.7,3281.3,3281.3,3283.1,3286.7,3286.6,3293.5,3299,3304.4,3310,3313.7,3317.5,3322.9,3328.3,3332.1,3335.8,3334.2,3337.9,3334.2,3336.1,3335.9,3334.1,3328.6,3326.9,3332.1,3333.9,3326.7,3328.5,3330.4,3330.4,3332.2,3333.9,3333.8,3332,3332.3,3328.7,3330.5,3330.4,3330.3,3326.6,3324.6,3326.4,3322.6,3320.8,3322.5,3319.1,3317.3,3322.7,3328.3,3333.6,3335.5,3357.78,3361.89,3367.89,3373.89,3378,3378,3382.33,3384.56,3384.56,3388.56,3391,3391,3397.11,3401.22,3407.44,3418,3441.3,3452.7,3460.4,3471.9,3487.4,3495.5,3505.2,3509.1,3515.2,3517.2,3517.2,3517.2,3515.2,3517.2,3513.1,3509.2,3507.2,3505.2,3503.3,3503.6,3496.1,3496.6,3495.5,3488.9,3480.6,3526.78,3527,3527.44,3530.33,3533.44,3525.12,3541.22,3547.44,3468.2,3466.8,3462.3,3461.9,3462,3463.9,3465.1,3463.1,3465.5,3466.2,3472.2,3476.1,3476,3486.1,3492.5,3496.6,3512.9,3518.9,3529.5,3537.6,3550.6,3561.4,3570.9,3581.9,3588.3,3598,3606.7,3616.9,3606.44,3616.33,3630.33,3623,3631.62,3659.22,3669.67,3677.44,3680.11,3690.44,3804.33,3807,3801.89,3807.22,3807.22,3804.67,3807.22,3807.11,3804.33,3804.33,3804.1,3799.3,3799.2,3796.8,3792.1,3787.4,3782.7,3782.7,3780.4,3778.1,3775.8,3775.8,3771.1,3768.9,3762,3757.5,3752.9,3748.4,3748.5,3741.7,3741.9,3737.4,3735.3,3730.8,3728.6,3719.8,3719.9,3711.2,3699.7,3686.11,3681.22,3673.67,3664.1,3655.2,3655.6,3649.3,3643,3636.7,3633.1,3629.2,3624.9,3616.1,3613.7,3609.5,3605.1,3606.8,3610.7,3610.5,3608.2,3605.7,3605.8,3605.8,3599.6,3606.1,3602.1,3596.1,3600.5,3595.67,3602.9,3607.1,3609.1,3604.7,3608.9,3610.5,3618.8,3622.9,3627,3633.4,3642,3657.2,3667.9,3674.7,3681.3,3679.5,3679.5,3681.8,3677.5,3666.8,3651.8,3641.3,3621.9,3607.4,3595.4,3570.5,3552.4,3528.3,3506.7,3486.8,3463.3,3440,3421,3396.6,3375.8,3351.6,3333,3311.1,3296.8,3275.8,3256.4,3239.4,3224.3,3209.2,3192.5,3176.1,3158,3143.6,3119.7,3102.3,3082.1,3068,3049.7,3036,3022.5,3012.2,3001.9,2993.4,2980.5,2974.7,2965.8,2954.3,2943,2933.1,2915.4,2901.6,2887.7,2874.4,2859.8,2849.7,2833.9,2818.7,2806.2,2799.7,2784.6,2775.8,2763.1,2749.4,2738.3,2731.2,2722.7,2715.3,2706,2701.1,2696.4,2691.7,2689.3,2682.1,2679.6,2674.8,2675.8,2668.8,2673.6,2673.6,2676.2,2679.8,2678.9,2679.3,2682.9,2686.5,2688.7,2691.1,2691.1,2698.1,2702.9,2705.2,2712.2,2717.1,2720.6,2728,2729.3,2735.4,2740,2743.6,2748.4,2752.2,2760.4,2760.3,2765.3,2769,2771.6,2777.7,2780.3,2786.4,2790,2797.5,2803.8,2815.2,2826.5,2841,2855.5,2866.4,2878.5,2888.3,2897.8,2903.2,2912.7,2919.7,2921,2928.1,2929.5,2935.2,2942.2,2943.6,2951.9,2959.1,2963.5,2970.4,2973.2,2982,2988.1,2991.2,2990,2996.3,3000.1,3000.9,3004.2,3010.6,3010.9,3017,3021.5,3027.1,3034.1,3042.6,3047.9,3055,3069.7,3078.2,3085.5,3094.4,3111.1,3139.2,3164.9,3192.7,3217.8,3246.7,3272.9,3298,3328.6,3350.7,3368.8,3380.4,3389.7,3399.5,3407.3,3412.9,3424.8,3423.6,3425.8,3422.5,3424.2,3418.5,3411,3397.5,3388,3378.6,3376.7,3372.1,3371.6,3367.7,3371.4,3371.1,3378.1,3376.3,3381.6,3381.5
3073.4,3065.2,3060.2,3051.3,3041.6,3037.6,3029.7,3023.4,3021,3015.5,3008.4,3003.8,3001.4,3001.6,2998.3,2996.8,2990.7,2993.1,2997.7,3000,3015.6,3026,3038,3058.5,3076,3098.6,3123.3,3147.6,3167.1,3182.5,3197.6,3211.8,3227.8,3236.9,3244.7,3254.1,3258.3,3262.6,3267.1,3270.4,3271.8,3274.9,3278.3,3280,3276.7,3283.5,3283.7,3288.8,3292.4,3290.6,3288.7,3288.8,3286.9,3285.1,3290.1,3288.3,3286.6,3285.1,3285,3292,3299.2,3299.3,3313.7,3312.1,3319.6,3326.7,3330.3,3336.1,3343.4,3341.6,3343.4,3347,3345.1,3343.3,3345.1,3343.1,3343.1,3341.2,3339.6,3339.7,3339.7,3343.4,3343.4,3343.3,3341.4,3341.4,3341.4,3339.6,3337.7,3339.5,3339.5,3337.7,3337.5,3335.5,3335.3,3338.9,3339,3337.2,3331.8,3331.7,3338.9,3357.67,3344.6,3368.11,3372.11,3376.11,3380.33,3377.4,3379,3392.78,3392.67,3392.78,3392.89,3393,3397,3401.56,3403.67,3407.89,3415.89,3426.56,3455.2,3466.5,3476.2,3481.8,3499.4,3509.2,3519.1,3523.2,3529.2,3529.2,3533.2,3533.2,3535.3,3527.3,3525.3,3525.3,3519.3,3519.3,3511.5,3506,3504.8,3503.3,3504.3,3537.22,3535.33,3540,3540.33,3545.44,3548.11,3548.14,3458.22,3482.1,3488.4,3493.1,3489.1,3498.1,3495.6,3499.8,3501.9,3500.5,3500.5,3508.9,3510.7,3521.1,3527.4,3529.4,3535.7,3542.1,3546.3,3559,3563.1,3569.7,3578.3,3586,3590.4,3594.7,3606.7,3609,3596.33,3625.8,3637.1,3647.1,3649.4,3645.11,3638.62,3664.22,3689.6,3699,3708.3,3710.8,3817.22,3819.89,3820,3817.33,3820.11,3815,3817.56,3817.56,3814.89,3820.6,3820.6,3815.8,3808.8,3808.8,3806.4,3799.2,3796.8,3799.2,3787.5,3785.2,3789.8,3785.2,3780.5,3773.4,3766.6,3766.6,3762.1,3759.7,3759.7,3753.1,3746.4,3744.1,3741.9,3737.5,3735.4,3735.6,3731,3717.5,3715.2,3706.3,3699.4,3690.4,3686.1,3681.7,3668.3,3668.6,3666.8,3660.7,3654.5,3646.2,3648.6,3640.5,3633.6,3629.4,3629.1,3622.4,3624.4,3626.2,3625.9,3627.7,3621,3622.7,3622.7,3624.8,3622.8,3625.1,3623,3630.1,3631.33,3639,3641.3,3647.7,3643.3,3645.2,3658,3660,3675,3675,3685.8,3694.5,3707.7,3721.2,3728,3734.9,3735,3737.4,3737.6,3726.4,3720.1,3706.5,3689.1,3671.7,3652.4,3628.9,3606.1,3578.9,3550.6,3522.3,3502.7,3479.1,3447.5,3424.7,3396.3,3370.1,3355.1,3329.5,3309.5,3289.5,3272.2,3258,3241.6,3224.5,3209.8,3194.9,3178.3,3162.1,3140.9,3125.1,3107.9,3090.6,3071.4,3054.5,3040.6,3025.5,3018.4,3003.3,2991.8,2983.4,2971.6,2962.9,2954.3,2940,2928.9,2913.9,2899.9,2886.4,2870.3,2862.3,2842.7,2831,2819.8,2808.3,2798.1,2783.1,2773.1,2759.4,2749.5,2739.7,2729.9,2720.4,2712,2704.9,2700.1,2696.4,2692.8,2685.8,2682.1,2678.5,2678.4,2673.5,2670,2668.8,2672.6,2676.2,2677.6,2676.5,2680.6,2683,2686.5,2686.7,2691.3,2718.44,2719.78,2723.78,2730.56,2733.33,2713.1,2721.1,2723.7,2732.1,2734.4,2739.2,2741.6,2747.4,2752.2,2758.5,2759.6,2764.4,2763.1,2769.2,2775.4,2774.2,2777.7,2786.3,2790.2,2795.2,2803.9,2826.56,2835.33,2841.22,2854.78,2870.4,2884.1,2891,2900.7,2907.4,2912.9,2921.3,2922.6,2928.3,2929.8,2935.4,2939.6,2946.3,2952.1,2957.8,2960.7,2968.9,2974.9,2982.3,2981.3,2986.1,2989.4,2995,3001.4,3002,3005.7,3011.7,3013.2,3023.3,3026,3031.3,3041,3048,3054.8,3067.8,3074.8,3089.7,3101.9,3120.4,3147.4,3171.5,3197.8,3229.6,3255.5,3288.9,3319.4,3344.9,3370.8,3385.5,3397.2,3406.5,3416.3,3422.3,3428.3,3438,3440.4,3435.5,3433.7,3432.1,3426,3416.6,3406.8,3401,3391.4,3389.6,3385.2,3381.2,3377,3378.6,3380,3387.3,3390.8,3394.5,3396.2
3082.2,3075.7,3073.2,3063.4,3057.7,3049.5,3047.9,3039.9,3039.2,3033.7,3027.4,3021,3019.5,3017.1,3010.1,3011.5,3003.7,3005.2,3006.9,3009.2,3018.7,3028.3,3039.3,3054.8,3072.9,3095.4,3115,3136.4,3155,3171.7,3186.6,3198.6,3210.7,3228.5,3237.3,3243.8,3248.3,3253.7,3265.1,3269.5,3265.7,3270.2,3273.6,3275.1,3273.2,3276.9,3285.6,3287.2,3290.7,3296.1,3292.5,3290.7,3285.4,3288.7,3285,3283.2,3283.3,3285.3,3281.7,3290.3,3297.7,3301.3,3310.6,3312.6,3321.5,3328.7,3332.3,3338,3343.6,3347.2,3350.8,3350.8,3352.6,3350.5,3348.7,3348.7,3348.9,3348.9,3350.5,3350.5,3350.5,3354.4,3354.4,3354.3,3356.1,3354.3,3354.3,3352.4,3352.3,3352.3,3354.1,3353.9,3352,3352.1,3353.7,3351.8,3351.7,3349.8,3351.7,3353.5,3371.78,3373.89,3378.33,3382.56,3384.56,3384.67,3393,3385.1,3394.2,3395.9,3395.9,3399.6,3397.6,3405.67,3409.78,3413,3412.11,3420.56,3429.11,3439.44,3463.1,3476.2,3485.9,3499.7,3513.5,3521.3,3533.3,3535.3,3543.5,3545.5,3547.5,3545.5,3543.4,3537.3,3537.3,3533.5,3531.7,3525.7,3522,3518.5,3511.4,3510.1,3503.5,3548.56,3546.56,3553.44,3558.33,3565.44,3563.5,3472.5,3481.56,3508.6,3511.5,3508.2,3514.6,3517.5,3517.2,3525.4,3533.8,3516.33,3545.1,3551.5,3555.8,3559.8,3570.5,3574.8,3583.1,3583.1,3589.9,3594.2,3599.7,3604.2,3606.5,3611,3616.6,3616.6,3617.8,3622.2,3630.4,3640.5,3647.2,3659.6,3664.2,3664.44,3684.9,3696.5,3707.2,3714.3,3721.4,3825,3830.44,3835.78,3833.22,3830.56,3830.67,3828.11,3830.67,3822.67,3835.1,3827.9,3823,3820.6,3823.1,3820.6,3813.5,3808.7,3806.3,3803.9,3799.2,3801.5,3796.9,3787.5,3787.6,3785.2,3778.3,3771.4,3762.2,3764.4,3762.1,3757.8,3751,3751.1,3751,3744.4,3742.3,3737.7,3733.1,3726.4,3722,3718.22,3710.56,3707.78,3700.56,3688.3,3688.3,3686.5,3684.4,3678.4,3674.4,3666.1,3663.8,3661.9,3655.4,3648.7,3644.5,3642.2,3641.8,3645.8,3643.4,3640.9,3638.2,3637.9,3635.4,3641.8,3641.9,3646.4,3649,3651.5,3656.2,3665.3,3671.9,3676.4,3680.8,3687.3,3691.4,3697.6,3710.8,3719.6,3730.5,3746.4,3759.8,3771.3,3783,3790,3790,3792.5,3788,3778.7,3774.1,3753.7,3735.6,3720.5,3693.9,3667.7,3639.6,3608.1,3579,3548.6,3518.5,3486.8,3453.4,3426.1,3395.7,3377.3,3351.1,3334.4,3311.3,3287.9,3273.8,3260.6,3243.3,3228.6,3213.9,3201,3186,3164.8,3149,3131.1,3110.4,3093,3073.9,3059.9,3041.3,3030.5,3017.1,3004.8,2993.2,2981.8,2971.6,2962.9,2948.5,2940.1,2925.9,2912.4,2894.6,2886.4,2870.2,2860.9,2845.2,2833.5,2818.2,2806.8,2794.2,2784.1,2766.8,2757,2746.1,2736,2727.6,2720.6,2710.9,2704.9,2701.3,2697.6,2694,2688.1,2684.4,2680.8,2677.2,2675.8,2669.9,2670,2669.1,2672.7,2676.5,2677.9,2676.9,2705.11,2706.44,2711.89,2717.22,2719.89,2723.89,2725.33,2732,2736.22,2743,2745.67,2751.11,2754,2762.11,2764.89,2745.5,2745.4,2754.8,2755.9,2758.3,2763.2,2764.4,2765.6,2769.5,2769.4,2774.4,2780.3,2782.9,2788,2812.22,2820.78,2828.11,2835.44,2842.3,2858.4,2873.2,2884,2892.4,2903.4,2906.2,2914.2,2920,2924.78,2930.78,2935.56,2941.89,2945,2955.78,2957.44,2955.1,2960.7,2967.9,2976.7,2977.2,2979.2,2985.6,2990.8,2994.8,2998.1,3003,3009.4,3009.4,3018.1,3026.3,3029.8,3039.9,3047.7,3056.1,3067.7,3079.3,3094.4,3105.1,3125.4,3152.3,3179.9,3209.6,3236.5,3272.8,3301.1,3332.1,3357.6,3387.5,3402.6,3414.1,3423.6,3433.5,3435.3,3439.7,3449.9,3446.2,3446.8,3447.3,3445.6,3437.8,3433.6,3423.7,3410.1,3400.7,3396.6,3394.3,3392.2,3389.8,3389.5,3398.7,3400.7,3402.4,3407.6,3409.3
