0,0,0,0,0,0,0,0,0,0,0,0,0,0,0,0,0,0,0,0,0,0,0,0,0,0,0,0,0,0,0,0,0,0,0,0,0,0,0,0,0,0,0,0,0,0,0,0,0,0,0,0,0,0,0,0,0,0,0,0,0,0,0,0,0,0,0,0,0,0,0,0,0,0,0,0,0,0,0,0,0,0,0,0,0,0,0,0,0,0,0,0,0,21.2,63.6,105.9,84.5,211,211,211,210.8,210.7,210.7,211,211,211,211,211.1,189.9,21.1,21.1,21.1,211,211,211,210.9,210.9,210.5,147.2,189,210.2,210.3,210,210,210,210,210,210.1,210.2,210.2,210.1,210.2,210.3,210.3,210.5,63.2,105.5,126.6,42.2,211,189.9,211.2,211.4,211.4,169.2,211.2,211.2,211.3,211.3,211.4,211.3,211.2,211,147.7,21.1,63.3,211,211,211,211,211,211,211,211,211.1,211.2,211.5,212,211.8,211.6,211.8,211.5,211.5,211.1,211,211,211,211,211,211.2,211.4,211.7,211.7,211.7,211.8,212,211.9,212,212,212,211.7,211.6,211.4,211.1,211,211,211,211,211,211,211,211,211,211,211,211,211,211.1,211.3,211.2,211.2,147.8,147.8,147.8,211,211,211,211,211,211,211,211,211,211,211,211,105.5,211,211,211,211,147.7,0,0,0,0,0,211.1,211.3,211,211,211,211,211,211,211,211,211,211,147.7,84.5,148,211.4,211.4,211.3,211.1,211.1,211,211,211,211,211,211,211,211,211,211,211.1,211.3,211.4,211.4,211.5,211.5,211.4,211.4,211.3,211.3,211.2,211.1,211,211,211,84.4,21.1,211.9,211.9,212.1,212.3,212.4,212.5,212.4,190.9,212.1,212,169.6,84.8,63.6,63.6,211.6,211.4,211.5,211.4,211.2,211.1,211.1,211.2,211.3,211.2,211.2,211.2,211.3,211.4,211.7,211.7,211.8,211.5,211.5,211.6,211.9,211.9,211.9,211.8,211.8,211.6,211.7,211.9,211.8,211.7,211.7,211.5,211.6,211.3,211.6,211.5,211.3,211.3,211.3,211.2,211,211.3,211.3,211.1,211,211.1,211.1,211.1,211.1,126.8,21.2,211.7,211.7,212,212,212,212,212,212,212,212,212,212,212,190.8,148.4,212,212,212,211.9,211.9,211.4,211.1,211,211,211,211,211,211,211,211,211,0,0,0,0,211,211,168.8,211,21.1,63.3,168.8,211,211.3,211.3,211.4,211.4,211.6,211.9,211.9,211.8,212,212,211.9,211.9,211.9,211.9,211.9,211.9,211.9,211.9,211.9,211.9,211.6,211.3,211.2,211.4,211.7,211.9,211.7,211.6,211.8,190.6,212,212,212,212,212,212,212,212,212,212,212,148.4,211.6,84.6,169,211.4,212,212,212,212,212,212,21.2,212,212,212,190.8,21.2,21.2,169.7,212.2,169.9,63.6,212.2,212.1,212.1,212.1,212.1,212,212.1,169.3,169.3,211.7,211.7,211.8,211.7,169.4,169.4,190.6,169.5,212,212,212,212,212,211.8,211.5,211.2,211.2,211.3,211.3,211.2,211.2,211.2,211.1,211,211.1,211.1,211.2,211.1,211.2,211.2,211.6,211.8,212,212,212,212,148.4,84.8,148.4,212.1,212,212,212,212,212,212,169.2,211,211,211,211.1,211.1,211.2,211.5,211.8,190.6,211.8,211.7,211.4,211.4,211.4,211.4,211.5,148,63.5,0,106,211.8,211.6,211.5,211.4,211.5,211.4,211.3,211.2,211,211,211,211,211,210.9,210.9,211,211,211,189.9,0,63.4,42.3,212,212,212,212,106,42.4,106,42.4,148.4,211.9,211.8,211.8,212,212,212,212,212,212,212,212,211.8,211.8,211.7,211.8,211.8,211.8,211.8,212,212,211.9,211.9,211.9,211.9,211.9,211.9,212,211.9,212,212,212,212,212,212,212,212,212,212,212,212,212,212,212,212.1,211.9,211.9,211.9,211.9,211.9,211.9,211.9,211.9,211.9,211.8,211.8,211.8,211.8,211.8,211.8,211.8,211.6,211.6,211.4,211.4,211.3,211.3,211.6,211.7,211.7,211.8
0,0,0,0,0,0,0,0,0,0,0,0,0,0,0,0,0,0,0,0,0,0,0,0,0,0,0,0,0,0,0,0,0,0,0,0,0,0,0,0,0,0,0,0,0,0,0,0,0,0,0,0,0,0,0,0,0,0,0,0,0,0,0,0,0,0,0,0,0,0,0,0,0,0,0,0,0,0,0,0,0,0,0,0,0,0,0,0,0,0,0,0,0,0,0,42.2,126.1,210,210,210,210,210,210,210,210,210.1,210.3,189.1,21,0,0,105.4,210.8,210.3,210,210,210,210,210,210,210,210,210,210,209.9,209.8,209.9,209.9,209.9,209.9,210,210,210,210,210,210.2,210.4,210.7,210.7,210.7,210.7,210.8,211,211,211,147.7,126.6,84.4,211,210.9,211,211,42.1,0,0,0,42.1,210.8,210.5,210.3,210.1,210.2,210.2,210.3,210.6,211,211,211,211,84.4,42.2,189.9,211,210.9,210.9,210.6,210.5,210.7,210.6,210.9,211,211,211,211,189.9,211,211,211,211,211,211,211,211,211,211,210.7,210.6,210.1,210.1,210.2,210.6,210.3,210.2,210.3,210.3,210.8,210.7,210.7,210.7,210.7,210.7,210.5,126.2,84.1,210.1,210,210,210,210,210,210,210,210,210,210.1,210.1,210.1,210,210.1,210,210,210,63,0,0,0,0,210.2,210.5,210.4,210.7,210.8,210.7,210.6,210.4,210.2,210.5,210.6,210.8,0,0,0,0,168.8,211,211,211,211,211,210.9,210.6,210.6,210.5,210.3,210.3,210.5,210.4,210.6,210.6,210.6,210.7,210.7,210.7,210.6,210.6,210.7,210.8,210.8,210.6,210.2,210.3,168.5,42.1,21.1,211,211.1,190,211.3,211.6,211.6,190.4,0,63.3,84.4,211,211,105.5,21.1,105.5,211,211,211,211,210.9,211,210.9,210.9,210.9,210.9,210.7,210.8,210.9,211,211.1,211.2,168.8,105.5,84.4,147.9,211.3,211.4,211,211,211,211,211,211,211,211,211,211,210.9,211,211,210.9,211,211,211,211,211,211,211,210.9,210.8,210.7,210.7,210.9,210.9,211,211,211,211,211.1,211,211,211,211,211,211,211,211,211,211,211,211,211,211,211,211,211,211,210.8,210.7,210.5,210.3,210.2,210.1,210.2,210.1,210.2,21,21,0,42,210,210,105,105,42,0,0,210.7,210.8,211,211,211,211,211,211,211,211.1,211.2,211.2,211.1,211,211,211.1,211.1,211.1,211,211,211,211,211,211,211,211,211,211,211,126.6,84.4,147.7,211,211,211,168.8,42.2,211,21.1,189.9,189.9,189.9,189.9,211,211,210.8,211,211,211,211,211,211,211,211.1,211.2,211.2,211.2,190.1,42.3,21.2,21.2,211.6,211.8,211.8,211.6,211.4,211.2,211.2,211.2,211.2,211.2,211.1,211.1,211.1,211.1,211.1,211.1,211.1,126.6,21.1,21.1,0,211,211,211,211,211,211,211,211,210.9,210.9,210.8,210.7,210.7,210.7,210.7,210.8,210.8,210.7,210.6,210.4,210.5,210.6,210.8,211,210.9,211,189.9,147.7,0,0,211.2,211.3,211.6,211.6,211.2,211,211,147.7,210.7,210.4,210.4,210.4,210.6,210.9,211,211,211,211,211,210.9,210.7,210.4,210.5,210.3,210.2,0,0,21.1,189.9,211,211,211,211,211,211,211,210.9,210.5,210.3,210.2,210.1,210,210.1,210.1,210.1,189.2,84,21,21,0,21.1,211,211,0,0,0,0,42.2,0,210.9,211,211,211,105.5,84.4,0,0,0,211,211,211.1,211.1,211,211,211.2,211.4,211.4,211.4,211.4,211.2,210.9,210.9,210.9,211,211,211,211,211,189.9,211,211,211,211,211,211,211,211,211,211,211,211.1,211.1,211.1,211.1,211.1,211.1,211.1,211.1,211,147.7,211,211,211,211,211,211,211,211,211,189.9,189.9,211,168.8,189.8,210.9,210.9,210.9,210.9,211
0,0,0,0,0,0,0,0,0,0,0,0,0,0,0,0,0,0,0,0,0,0,0,0,0,0,0,0,0,0,0,0,0,0,0,0,0,0,0,0,0,0,0,0,0,0,0,0,0,0,0,0,0,0,0,0,0,0,0,0,0,0,0,0,0,0,0,0,0,0,0,0,0,0,0,0,0,0,0,0,0,0,0,0,0,0,0,0,0,0,0,0,0,0,0,21,209.5,209.6,209.5,209.2,209,209,209.1,209.1,209.9,210,209.9,210,126,0,0,0,189,210,210,210,209.8,209.5,209,209.1,209,209,209,209,209,209,209,209,209,209,209,209.2,209.5,209.7,209.7,167.8,83.9,84,210.1,210,210.2,210.4,210.5,210.4,210.4,168.1,126,126,210.1,210,210,210,210,0,0,0,63,210,210,210,210,210,210,210,210,210,210,210,147,42,21,84,210,210,210,210,210,210,210,210,210,189,147,126,210,210.2,210.2,210.2,189,63,63,21,210,210,210,210,210,210,210,210,210,210,210,210,210,210,210,210,210,168,189,126,63,210,210,209.8,210,210,210,210,210,209.8,209.7,209.7,209.8,209.9,209.8,209.9,209.7,209.3,209.1,209,209.1,167.2,209.1,83.6,104.5,209.3,209.9,209.9,210,210,210,210,210,210,210,210,210,210,0,0,21,210,210,210,210,210,210,210,210,210,210,210,210,210,210,209.8,209.8,209.8,209.9,209.8,210,210,210.1,210,210,210,210,210,210,168,63,168,210,210.1,210.1,189.2,168.4,105.2,147.4,210.4,210.2,210,210,210,210,210,210,168,210,210.3,210.1,210,210,210.1,210.1,210.1,210,210,210,210.1,210.3,210.5,210.6,105.1,42,42,105.3,168.8,211,210.8,210.5,210.2,189.1,210.1,210.1,210,210,210,210,210,210,210,210,210,210,210,210,210,210,210,210,210,210,210,210,210,210,210,210,210,210.3,210.2,210.1,210.1,210.2,210,210.1,210.5,210.3,210.1,210,210,210,210,210,210,210,210,210,210,210,210,210,210,210,210,210,210,210,189,167.8,167.7,209.3,209.3,209.3,209.3,21,125.8,209.7,210,210,210,210,210,210.1,210.3,210.5,210.5,210.4,210.3,210.4,210.5,210.3,210.3,210.3,210.4,210.7,210.8,210.6,210.1,210,210,210,210,210,210,210,210,210,210,210,210,210,210,21,147,0,84,84.1,147.1,189,210,210,210,210,210,210,210.1,210.6,210.9,211,211,211,211,211,211,211,211,211,211,211.3,211.3,211.2,210.9,210.9,210.8,210.7,210.6,210.5,210.3,210.3,210.3,210.2,210.1,210.1,210,210,189,42,0,126,210,210.1,210.1,210.1,210,210,210,210,210,210,210,210,210,210,210,210,210,210,210,209.9,209.9,210,209.9,210,210,189,0,0,210,105.1,210.8,210.9,210.9,210.9,210.6,210.1,210,210,210,210,210,210,210,210,210,210,210,210,210,210,210,210,209.7,209.5,0,0,0,42,210,210,210,210,210,210,210,210,210,210,189,84,210,210,210,209.9,209.9,125.9,63,105,168,0,168,210,209.9,63,0,0,0,0,0,209.8,210,210,210.1,189.1,147.1,0,0,126.1,210.2,210.1,210.1,210.1,210.4,168.2,168.3,168.4,210.6,210.6,147.3,168.4,210.5,189,189.1,210,210,210,210,210,189,210,210,210.1,210,210,210,210.3,210.5,210.6,210.4,210.4,210.7,210.7,210.7,210.7,210.7,210.7,210.7,189.4,210.4,210.2,210.2,210.2,210.3,210.3,210.3,210.3,210.2,210.2,210.2,210.1,210,210,210,210,210,210,210,209.9,210
0,0,0,0,0,0,0,0,0,0,0,0,0,0,0,0,0,0,0,0,0,0,0,0,0,0,0,0,0,0,0,0,0,0,0,0,0,0,0,0,0,0,0,0,0,0,0,0,0,0,0,0,0,0,0,0,0,0,0,0,0,0,0,0,0,0,0,0,0,0,0,0,0,0,0,0,0,0,0,0,0,0,0,0,0,0,0,0,0,0,0,0,0,0,0,20.8,209,209,209,209,209,209,209,209,209,209,209,209,209,209,209,188.1,188.1,209,209,209,209,209,209,209,209,209,209,209,209,209,208.9,208.9,208.9,208.9,209,208.9,209,209,208.9,188.1,146.5,146.6,188.7,209.7,209.7,209.7,209.8,210,210,126,188.9,209.8,209.5,209.4,209.1,209.1,209,209,0,104.5,209,209,209,209,209,209.1,209.1,209.2,209.5,209.7,209.8,209.7,125.6,167.2,0,167.2,209,209,209,209,209,209,209.1,209.2,209.5,209.6,209.6,209.8,209.9,209.9,209.9,0,0,0,0,0,20.9,209,209,209,209,209,209,209,209.1,209,209,209,209.1,209.1,209.1,209.1,209,209,209,209,209,209,209,209,209,209,209,209,209,209,209,209,209,209,209,209,209,209,209,208.9,208.5,208.6,208.6,208.7,208.8,209,209,209,209,209,209,209,209,209,209,209,209,209,209,188.1,209.1,209.1,209.2,209.5,209.3,209.7,209.3,209.1,209,209,209,209,209,209,209,209,209.1,209.1,209.2,209.2,209.2,209.2,209.2,209.1,209.1,209.1,209,209,209,209,209,188.1,167.2,209,209.2,209.2,209.5,209.4,209.5,209.4,209.3,209,209,209,209,209.1,209.4,188.7,209.8,209.8,209.7,209.7,209.6,209.6,209.6,209.3,167.3,188.3,146.4,209.7,209.9,210,210,210,209.9,84,21,147,210,210,210,189,188.9,189,209.7,209.4,209.4,209.1,209.3,209.2,209.4,209.5,209.6,209.6,209.7,209.4,209.2,209.1,209.1,209.1,209,209,209,209,209.3,209.6,209.7,209.8,209.7,209.9,209.9,210,209.8,209.7,209.9,210,210,209.9,209.9,209.7,209.7,209.7,188.5,209,209,209,209.1,209.1,209.1,209.1,209.1,209.1,209.2,209.1,209,209,209,209,209,209,209,209,208.9,208.8,208.8,209,209,209,209,209,209,209.1,209.4,209.8,147,210,168,210,210,210,210,209.9,209.8,209.9,209.9,209.9,210,210,210,210,209.9,209.5,209.2,209,209,209,209,209,209,209,209,209.1,209,209,209.1,209.1,209.2,209.4,209.6,209.6,209.5,209.2,209.1,209.1,209,209.7,210,210,210,210,210.1,210.2,210.3,210.4,210.4,210.3,210.3,168.3,168.2,105.2,168.5,126.2,189.4,210.4,168,146.9,209.9,209.8,209.8,209.7,209.8,209.7,209.3,209.1,209.1,209,209,209,20.9,0,83.7,188.3,209.5,209.9,210,210,210,209.9,210,209.9,209.8,209.6,209.4,209.1,209,209,209,209,209,209,209,209,125.4,83.6,209,41.8,125.4,0,209.1,209.2,209.7,209.9,210,189,0,0,0,209,209,209,209,209,209,209,209,209.2,209.3,209.5,209.4,209,209.1,209.1,209,209,208.9,209,0,209,209.1,209.1,209,209.3,209.7,210,210,210,209.7,209.4,209,104.5,41.8,146.3,209,209,209,209,188.1,209,209,209,125.4,125.4,209,208.9,208.8,167,0,0,62.6,208.5,208.8,209,209.1,209.1,209.2,188.4,125.5,125.5,62.7,209.2,209.3,209.4,209.6,209.6,209.6,209.7,83.8,83.9,167.9,209.8,209.8,209.7,209.7,209.5,209.5,209.4,209.3,209.1,209,209,209,209.2,209.3,209.3,209.4,209.4,210,210,210,209.9,209.9,209.9,209.9,209.9,209.9,188.9,209.9,209.9,209.9,209.9,209.9,209.9,209.9,210,210,210,210,210,210,210,209.9,209.9,209.6,209.4,209.2,209,209.1,209.1,209,209.1
0,0,0,0,0,0,0,0,0,0,0,0,0,0,0,0,0,0,0,0,0,0,0,0,0,0,0,0,0,0,0,0,0,0,0,0,0,0,0,0,0,0,0,0,0,0,0,0,0,0,0,0,0,0,0,0,0,0,0,0,0,0,0,0,0,0,0,0,0,0,0,0,0,0,0,0,0,0,0,0,0,0,0,0,0,0,0,0,0,0,0,0,0,0,0,0,166.4,208,208,208,208,208,208,208,208,208,208,208,208.1,208.3,208.4,208.7,208.8,209,208.9,209,209,209,62.7,0,208.4,208.2,208.1,208.1,208.1,145.6,104,208,208,208,208,208.1,208.1,145.6,0,0,0,41.6,208.6,208.7,208.7,208.8,208.8,209,208.9,209,209,209,209,208.5,208.4,208.3,208.2,208.3,208.4,208.2,208.1,208,208,208.1,208.4,208.7,187.7,187.9,41.8,104.5,208.8,187.7,0,0,62.4,208,208,208,208,208,208.1,208.2,208.3,208.6,208.8,209,209,209,209,209,208.9,0,0,0,0,0,20.8,208,208.1,208.1,208.1,208.1,208.6,208.8,208.9,0,208.8,208.6,208.8,208.9,208.9,208.7,208.6,208.4,208.4,208.4,146.1,208.5,208.2,208,208,187.2,208.1,208.1,208,208,208,208,208,208.2,208.1,208.1,208,208.1,208,208,208,208,208,208,208,208,208,208,208,208,208,208,208,208,208,208,208,208,208,208.1,208.1,208.4,208.6,208.7,208.8,208.9,209,209,208.9,208.5,208,208,208.1,208.1,208.1,208.3,208.5,187.8,125.1,208.7,208.8,208.9,208.8,209,209,209,208.7,187.4,208,208,208,187.2,187.2,208.1,187.5,208.4,208.5,208.4,208.4,208.4,208.2,208.2,208,208,208.1,208.4,208.9,208.9,208.9,208.9,208.9,208.9,208.9,208.9,209,188,41.8,41.8,20.9,209,209,209,62.7,0,0,0,0,41.8,209,209,209,104.5,41.8,209,209,209,209,188.1,188.1,146.1,20.9,62.7,209,209,209,209,209,209,209,208.8,208.8,208.8,208.6,208.9,209,209,125.4,209,209,209,209,209,209,209,188.1,209,209,209,209,209,209,209,209,208.9,208.6,208.1,208.3,208.3,208.5,208.5,208.7,208.8,208.8,208.8,208.7,208.8,208.4,208.4,208.2,208.2,208.2,208.2,208.1,208.1,208.1,208.1,208.1,208.2,208.1,208.2,208.3,208.9,209,188.1,146.3,188.1,209,209,209,209,209,209,209,209,209,209,209,209,209,209,209,209,208.9,208.7,208.6,208.1,208.1,208.1,208.1,208.1,208.3,208.4,208.2,208.3,208.4,208.5,208.5,208.6,208.8,208.8,209,209,209,209,188.1,209,209,209,209,209.7,63,62.9,20.9,104.8,209.7,209.9,189,0,0,0,0,0,62.7,83.7,83.7,104.6,188.3,208.9,209,208.9,208.9,208.9,208.9,208.7,208.6,208.1,208,208,166.5,20.9,104.4,125.3,209,209,209,209,209,209,209,209,209,209,209,208.8,208.7,208.2,208,208,208,208,208,208.1,208.1,208.1,208.1,208.1,187.3,208.1,208.3,208.7,209,209,209,0,0,0,0,0,208.1,208,208,208.1,208.1,208.3,208.8,83.6,125.4,146.3,209,208.9,187.7,187.6,208.2,208.1,208,208,208,208.2,208.4,208.7,208.8,209,209,209,209,209,209,209,208.9,208.6,208.5,208.6,208.3,208.2,208.1,208.1,208,208,208,208,208,208,208,207.9,207.7,207.7,207.8,207.9,207.9,208,208,208,208.1,208.2,208.4,208.4,208.4,187.5,166.8,208.6,208.7,208.9,208.9,208.9,208.9,167.1,83.5,62.6,167.1,209,209,209,209,209,209,208.7,208.7,208.6,208.4,208.1,208.4,208.5,208.6,208.9,209,209,209,209,188.1,209,209,209,209,209,209,209,209,209,209,209,209,209,209,209,146.3,209,209,209,209,209,209,209,209,209,208.9,208.9,208.9,208.9,208.9,187.9
0,0,0,0,0,0,0,0,0,0,0,0,0,0,0,0,0,0,0,0,0,0,0,0,0,0,0,0,0,0,0,0,0,0,0,0,0,0,0,0,0,0,0,0,0,0,0,0,0,0,0,0,0,0,0,0,0,0,0,0,0,0,0,0,0,0,0,0,0,0,0,0,0,0,0,0,0,0,0,0,0,0,0,0,0,0,0,0,0,0,0,0,0,0,0,0,207.1,207.2,207.3,207.2,207.3,207.2,207.4,207.7,207.7,207.7,207.7,207.8,207.8,207.9,208,208,208,208,208,208,208,208,187.2,145.6,208,208,208,208,208,207.8,207.7,207.4,207.3,207.2,207.2,207.6,207.5,186.6,20.7,0,0,103.8,124.7,166.3,187.1,207.8,208,208,208,187.2,145.6,145.6,166.4,166.4,207.7,207.5,207.5,207.6,207.6,207.6,207.5,207.4,207.3,207.7,208,208,208,104,0,0,207.7,207.5,186.6,207,207,207,207,207,207,207,207.3,207.5,207.7,207.8,208,208.2,208.1,208.1,62.4,187.2,208,124.5,62.2,0,0,0,0,207.2,207.4,207.5,207.9,207.9,208,208,41.6,187.2,208,208,208,208,208,208,208,208,208,208,208,208,208,208,208,62.4,208,208,208,207.9,207.8,207.9,207.9,207.9,207.8,207.7,207.8,207.6,207.9,207.9,207.7,207.9,207.7,207.7,207.7,207.7,207.8,207.5,207.3,208,207.9,208,208,208,207.9,207.8,207.2,207.3,207.3,207.4,207.4,207.7,207.7,207.9,208.1,208.1,208,208,208,208,208,208,208,208,208,208,208,208,187.2,187.2,208.1,208.1,208,208,208,208,208,207.9,207.9,207.9,207.4,207.4,186.8,186.8,186.8,207.5,207.5,207.5,207.5,207.7,207.6,207.3,207.2,207.2,207.4,208,208,208,208,208,208,208,208,208,208,208,166.4,187.2,62.4,166.4,208,208,187.2,0,0,0,0,208,208,208,208,104,104,208,208,208,208,208,208,208,104,83.2,208,208,208,208,208,208,208,208,208,208,208,208,208,0,41.6,0,0,208,208,208,187.2,166.4,62.4,208,208.1,208.4,208.4,208.2,187.2,145.6,41.6,208,208,207.8,207.9,207.8,207.9,207.9,208,208,208,208,208,208,208,208,208,208,208,207.9,207.6,207.6,207.5,207.6,207.8,207.7,207.6,207.9,208,208,145.6,0,0,187.2,208,208,208.4,208.1,208.2,166.4,166.4,187.2,208,208,208,208,187.2,145.6,0,0,187.2,208,208,208,207.9,207.9,208,208,208,208,208,207.9,208,208,207.9,208,208,208,208,208,208,208,208,208,208.1,208.2,208.6,41.7,83.6,0,0,62.6,208.8,208.9,209,0,0,0,0,0,20.8,83.3,187.4,187.4,208.2,208.2,208.2,208.2,208,208,208,208,208,208,207.8,207.6,207.6,207.9,207.9,208,208,208,208.2,208.3,208.4,208.4,208.1,208,208,208,208,208,208,207.9,207.6,207.5,207.1,207.1,207.1,207.1,207.1,207.1,207.1,207.2,207.1,207.6,208,208,208,208,208,166.4,0,0,0,0,103.5,207.2,207.2,207.8,207.8,208,208,208,166.4,208,208,208,208,208,207.9,207.2,207.2,207.2,207.4,208,208,208,208,208.1,208.3,208.4,208.4,208,208,208,208,208,208,208,208,208,208,208,208,207.7,207.8,207.6,207.5,207.1,207,207,207,207,207,207,207,207,207,207.1,207.3,207.6,207.6,207.5,207.5,207.5,207.5,207.9,207.9,207.9,208,208,208,208,20.8,145.6,208,208,208,208,208,187.2,208,208,208,208,208,207.8,207.9,208,208,208,62.4,41.6,208,208,208,208,208,208,208,208.2,208.2,208.2,208.3,208,208,208,208,208,208,208,208.1,208.2,208.2,208.2,208.2,208.2,208.2,208.3,208.2,208,208,208,208,208,208,208
0,0,0,0,0,0,0,0,0,0,0,0,0,0,0,0,0,0,0,0,0,0,0,0,0,0,0,0,0,0,0,0,0,0,0,0,0,0,0,0,0,0,0,0,0,0,0,0,0,0,0,0,0,0,0,0,0,0,0,0,0,0,0,0,0,0,0,0,0,0,0,0,0,0,0,0,0,0,0,0,0,0,0,0,0,0,0,0,0,0,0,0,0,0,0,41.4,207,207,207,207,207,207,207,207,207,207,207,207.1,207.1,207.2,207.2,207.2,207.1,207.1,207.1,186.4,207.1,207,207,207,207,207,207,207,207,207,207,207,207,207,207,207,207,186,0,0,0,186.1,144.9,82.8,41.4,41.4,41.4,62.2,41.6,0,0,0,0,0,124.4,186.5,207,207,207,206.8,206.8,206.7,206.8,207,207,207,124.2,20.7,0,0,206.6,206.4,206.4,206.1,206,206,206,206,206.3,206.5,206.6,206.6,206.8,206.8,207.1,82.8,0,0,41.4,41.4,206.8,206.2,206,206,206,206.1,206.3,206.7,207,207,207,207,207,207,207,207,207,207,207.1,207.1,207.3,207.3,207.1,207,207,207,207,207,207,207,207,103.5,207,207,207,207,207,207,207,207,207,207,207,207,207,207.2,207.1,207.1,207,207,207,207,207,207,207,207,207,207,207,207,207,207,207,207,207,207,207,207,207.1,207.1,207.1,207.2,207.3,207,207,207,207,207,207,207,207,207,207.1,207.1,207.3,207.7,207.7,207.6,207.7,207.5,207.6,207.5,207.1,207,207,207,207,207,186.3,207,207,207,207,207,207,207,207,207,207,207,207,207,207,207,207.1,207.2,207.1,207,207,207,207,207,207,207,207,207,207,207,207,207,0,0,207,207,207,207,62.3,207.7,166.1,207.7,207.6,207.2,207,207,207,207,207,207,207.1,207,207,207,207,207,207,207,207,207,207,207,207,41.4,207,145,186.4,207,207,207,207,207,207,207,207.2,207.5,165.8,165.7,145,124.2,207,207,207,207,207,207,207,207.1,207.2,207.3,207.2,207.4,207.3,207.1,207.3,207,207,207.1,207.1,207.1,207,207,207,207,207.1,207.1,207,207,207,207,207,20.7,0,207,207.2,207.4,207.4,207.5,207.5,207.5,124.3,207.2,207.1,207,207,207,186.3,0,0,20.7,207,207,207,207,207,207,207,207,207,207,207,207,207,207,207,207,207,207,207,207,207,207,207,207,207,207.1,145.2,0,0,0,0,0,0,207.9,207.9,0,0,0,0,0,41.4,103.6,145.1,207.2,207.2,207.2,207.2,207.2,207.4,207.5,207.5,207.4,207.1,207,207,207,207,207,207,207,207,207.1,207.6,208,208,208,208,208,208,207.6,207,207,207,207,207,207,207,206.9,206.8,206.7,206.8,206.7,206.6,207,207,207,207,207,186.3,207,207,207,207,20.7,144.9,82.8,186.3,207,207,207,207,207,207,207,207,207,207,207,207,207,207,207,207,207,207,207,207,207.2,165.9,62.3,104,187.2,208,208,207.2,207,207,207,207,207,207,207,207,207,207,207,207,207,207,207,207,206.8,206.6,206.6,206.6,206.6,206.6,206.8,207,207,207,207,207,207,207,207,207.1,207.1,207.1,207.1,207.1,207,207,207,207.1,207.1,207.1,207.2,207.2,207.6,207.6,186.9,145.6,186.7,207.2,207,207,207,207,207,207,207,62.1,20.7,207,207,207.1,207.2,207.3,207.3,207.4,207.5,207.6,207.9,207.9,207.8,207.8,207.6,207.4,207.3,207.5,207.8,207.9,207.7,207.7,207.6,207.6,207.8,208,207.9,166.4,83.2,187.1,207.7,207.6,207.2,207.1,207
0,0,0,0,0,0,0,0,0,0,0,0,0,0,0,0,0,0,0,0,0,0,0,0,0,0,0,0,0,0,0,0,0,0,0,0,0,0,0,0,0,0,0,0,0,0,0,0,0,0,0,0,0,0,0,0,0,0,0,0,0,0,0,0,0,0,0,0,0,0,0,0,0,0,0,0,0,0,0,0,0,0,0,0,0,0,0,0,0,0,0,0,0,0,0,206.1,206.2,206.2,206.1,206.1,206,206,206,206.4,206.4,206.4,206.4,206.6,206.6,206.6,206.6,206.7,206.4,206.3,206.2,206.1,206.1,206,206,206,206,206,206,206,206,206,206,206,206,206,206,206,206,206,102.9,0,0,206,206,206.1,185.6,103.2,0,0,0,0,0,0,186.3,165.5,103.4,103,165,123.6,144.3,206.2,185.4,206,206,206,206,206,82.4,0,20.6,123.5,205.4,205.4,205.4,205.4,205.7,205.9,205.8,205.8,205.9,206,206,185.4,185.4,206,123.7,0,0,0,0,20.6,205.9,205.7,205.2,205.3,205.6,205.9,206,206,206,206,206,206,206.3,206.5,206.8,207,206.9,206.6,206.7,206.9,207,207,206.9,144.7,144.5,185.7,206.4,206.2,164.8,82.4,185.4,164.8,206,206.6,206.9,206.9,206.8,206.9,206.8,206.7,206.4,206.4,206.4,206.5,206.9,186.2,206.9,207,207,207,207,206.9,206.2,206,206,206,206,206,206,206,206,206,206,206,206,206,206,164.8,165,185.6,186.1,144.9,124.2,207,207,207,206.3,206.3,206,206.1,206,206,206.2,206.6,207,207,207,207,207,207,207,207,207,206.8,206.7,206.3,206.2,206.1,206.3,206.3,206.6,206.6,206.7,206.6,206.8,206.9,206.8,206.1,206,206,206,206,206.2,206.8,206.9,186.2,62,103,206.3,206,206,206,185.4,206,103,144.2,206.1,206,206,206.1,206.1,206,206,206,206,206.2,206.5,206.7,206.8,206.8,206.7,206.6,206.4,206.3,206.4,206.3,206.6,206.9,207,206.9,206.9,186.1,20.7,186.3,206.9,206.3,206.5,206.6,206.6,206.7,185.9,20.7,20.7,62.1,206.4,206.3,206.2,206.1,206.1,206.2,206.3,206.3,206.4,124,0,20.6,0,61.8,206.2,206,206,185.4,206,206.3,206.3,206.7,206.7,206.8,206.9,207,206.9,207,206.9,207,207,207,206.9,206.6,206.5,206.6,206.4,206.6,206.8,206.7,206.9,206.7,206.3,206.3,206,185.5,165,185.6,206.3,206.3,206.4,206.9,207,207,207,207,206.7,206.5,206.5,206.4,206.2,82.5,123.7,206.1,206.1,206.2,206.4,206.1,206.4,206.3,206.4,206.2,206.2,206.2,206.1,206.1,206.4,206.4,206.5,206.4,206.6,206.8,206.9,206.8,206.6,206.6,206.5,206.4,206.2,206.3,206.3,61.9,103.3,103.4,0,0,0,206.7,206.7,206.6,61.9,0,0,20.6,123.6,144.3,123.9,165.3,206.5,207,207,207,165.6,207,207,207,207,206.9,206.5,206.2,206,164.8,185.4,164.8,185.5,206.9,207,207,207,165.6,165.6,186.3,207,207,207,207,206.8,206.6,206.2,206.1,206,206,206,206,206.1,206,206.1,206.2,206.3,185.9,206.7,165.6,186.2,206.9,206.8,206.6,206.4,206.3,206.2,206,206.1,206.2,206.3,206.5,206.4,206.5,206.6,206.5,206.5,206.5,165.1,206.4,206.5,206.4,206.4,206.2,185.5,206.6,206.7,207,207,207,165.6,103.5,124.2,62.1,207,207,207,207,207,207,207,207,207,207,207,207,207,207,207,207,206.8,206.5,206.1,185.4,164.8,206,206,206,206,206,206,206.1,206.3,206.5,206.6,206.6,206.6,206.6,206.7,206.8,206.9,206.9,207,207,207,207,207,207,207,207,207,207,207,207,165.6,207,207,206.9,206.6,206.1,206.1,206.1,206.1,206,185.4,206,164.8,206.1,206.8,206.9,206.9,206.9,206.9,207,207,207,207,207,207,207,207,207,207,207,207,207,207,207,207,207,207,207,207,186.3,207,207,207,207,206.6,206.6
0,0,0,0,0,0,0,0,0,0,0,0,0,0,0,0,0,0,0,0,0,0,0,0,0,0,0,0,0,0,0,0,0,0,0,0,0,0,0,0,0,0,0,0,0,0,0,0,0,0,0,0,0,0,0,0,0,0,0,0,0,0,0,0,0,0,0,0,0,0,0,0,0,0,0,0,0,0,0,0,0,0,0,0,0,0,0,0,0,0,0,0,0,0,0,0,164.8,206,205.7,205.6,205.7,205.7,205.5,205.5,205.7,205.6,205.6,205.7,205.7,205.7,205.8,205.9,205.9,205.4,82.2,184.6,205.1,205.1,205,123,61.5,82,143.5,205,205,205,205,205,205,205,205,205,164,102.5,20.5,20.5,184.5,205,205,205.3,205.7,185.4,185.4,185.4,61.8,144.2,206.1,206.2,206.3,185.5,0,20.5,20.5,41,164.1,164.1,205,205,205,205,205,205,82,143.5,143.5,205,204.8,122.8,163.9,205,205,205,205,205,205,205,143.5,184.5,205,123,82,0,0,0,20.5,164,205,205,205,205,205,205,205,205,205,205.3,205.4,205.6,205.8,206,206,206,206,206,206,206,206.1,206.2,206.1,144.2,82.4,205.7,205.7,205.7,205.7,205.9,205.8,205.9,205.9,206,206,206,206,206,206,206,206,206,206,205.9,206,206,206,185.4,206,185.4,206,206,206,205.8,205.4,205.2,205,205.1,205.2,205.3,205.3,205.6,205.9,205.9,205.7,205.8,205.5,205.4,164.6,185.3,185.4,61.8,61.8,185.4,206,206,206,206,206,205.9,205.5,205.5,123.6,123.6,164.8,206,206,206.2,206.3,206.3,206.1,206.1,206,206,205.9,205.8,205.8,185.2,185.2,205.8,185.4,185.4,144.2,61.8,123.6,206,206,206,206,205.8,205.4,205.5,205.9,206,206,164.8,164.8,185.4,206,205.7,205,205,61.5,0,0,61.8,205.4,205.1,205.1,205.5,205.7,205.4,205.1,205.1,205.1,205.4,205.6,185.3,206,206,206,206,206,206,206,206,206,206,206,206,206,206,206,206,206,206,206,206,206,206,205.9,0,0,0,185.2,205.4,205.2,205.2,205.2,205.5,205.4,205.5,205.8,20.6,0,0,0,0,205.5,205,205.1,205.6,205.7,205.9,206,206,185.4,206,206,206,206,206,206,206,206,206,206,206,206,206,206,206,206,206,206,205.8,205.8,205.6,205.5,205.5,205.4,205.4,205.3,205.5,205.7,206,206,206,206,206,206,205.9,205.9,205.8,205.9,205.9,205.8,205.8,205.8,205.7,206,205.8,206,206,206,206,206,206,205.9,205.9,205.9,205.9,206,206,206,206,206,206,206,206,206,205.9,205.5,205.3,184.8,143.7,205.2,143.9,0,0,0,205.8,205.8,205.6,41,0,0,41,184.7,184.9,185.1,103,82.4,144.2,103,185.4,185.5,206.1,206.1,206,206,206,206,206,205.8,205.5,184.9,205.5,185.2,205.9,206,206,206,20.6,82.4,206,206,206,206,206,206,206,206,206,206,206,205.9,205.9,205.9,206,206,185.4,206,206,164.8,144.2,206,206,206,206,206,206,206,206,206,206,206,206,206,206,206,206,206,206,206,206,206,206,206,206,206,164.8,206,206,206.2,206.2,0,103.2,0,0,206.2,206,206,206.1,206.1,206,206.1,206,206,206,206,206,206,206,206,206,206,206,205.9,205.9,205.7,205.7,205.6,205.6,205.6,205.7,206,206,206,206,206,206.2,206.2,206.2,206.2,206.2,206.3,206.4,206.5,206.5,206.1,206,206.3,206.2,206.3,206.1,206.1,206.1,206,185.7,164.9,185.5,144.2,206,206,205.9,205.9,205.8,205.3,205.3,205.2,205.2,205.4,205.9,206,206,206,206,206,206,206,206,206,206,206,206,206,206,206,206,206,206,206,164.8,185.4,206,206,206,206,20.6,103,0,82.4,185.4,206,206
0,0,0,0,0,0,0,0,0,0,0,0,0,0,0,0,0,0,0,0,0,0,0,0,0,0,0,0,0,0,0,0,0,0,0,0,0,0,0,0,0,0,0,0,0,0,0,0,0,0,0,0,0,0,0,0,0,0,0,0,0,0,0,0,0,0,0,0,0,0,0,0,0,0,0,0,0,0,0,0,0,0,0,0,0,0,0,0,0,0,0,0,0,0,0,20.5,82.1,123,164,205,184.5,184.5,184.3,205,204.8,204.8,204.8,184.3,184.5,204.9,184.4,205.1,205.1,204.8,81.9,143.1,183.9,204.2,204.1,204.1,163.3,142.9,183.7,204.2,204.5,204.8,204.9,205,205,205,204.8,204.5,204.1,204.2,204.3,204.5,204.7,204.8,204.7,204.9,205,205,205,184.5,205,205.1,205.4,205.3,184.5,0,0,20.4,81.6,40.8,122.5,204.1,204.1,204.2,204.3,204.3,204.1,204.1,204.1,204.2,204.1,204.1,204,163.2,204,204,204.2,204.2,204.3,204.4,204.8,204.9,204.9,204.6,204.6,122.6,20.4,0,0,20.4,61.3,204.1,204,204.1,204.1,204.1,204.4,204.3,204.4,204.5,205,205,205,205,205,205,205,205.2,205.3,205.3,205.3,205.5,205.6,205.7,205.4,143.6,184.5,20.5,205,205,205,205,205,205,205,205,205,205,205,205,205,205,205.1,205.1,205.1,205.1,205.1,205.3,184.7,102.5,102.5,164,184.5,205,205,205,205,205,205,205,205,205,205,205,205,205,205,205,205,205,184.5,184.5,205,102.5,205,205,205,205,205,205,205,205,205,205,205,205,205,205.2,205.9,206,206,206,206,206,205.6,205.5,205.3,205.1,205.1,205.1,205.1,205.2,205.1,205.2,164.1,143.5,123,164,205,205,205,205,205,205,205,205,205,205,205,82,205,205,205,205,205,205,205,205,205,205,205,205,205,205,205,204.9,205,205,205,205,205,205,205,205,205,205,205,205,205.1,205.1,205.1,205.1,205,205,205,205,205,205,205,205,205,205.1,205,205.1,205,204.8,184.3,204.6,204.4,204.4,204.9,205,205,205,205,205,0,0,0,163.9,204.7,204.5,204.9,204.9,205,205,205,205,205,205,205.1,205.1,205,205.2,205.1,205.1,205,205,205.1,205.1,205,205,205,205,205.1,205.1,205,143.5,41,204.9,204.7,184.1,184.1,143.3,143.3,204.8,205,205,205,205,205,205,205,205,205,205,205,205,205,205,205,205,205,205,205,205,205,205,205,205,205,205,205,205,205,205,205,205,205,205,205,205,205,205,205,205,205,204.9,204.7,184.5,184.5,205,205.1,205,205,205,205,61.5,41,163.9,204.9,204.9,205,205,184.5,184.5,123.1,205.2,205.5,205.7,205.9,205.9,205.4,205.1,205,205,205,205,205,205,205,205,205,205,205.2,144,123.5,205.6,205.6,205.6,205.4,205.4,205.3,205.1,205.2,205.1,205,205,205,205.2,205.4,205.4,205.5,184.9,205.3,205.4,185,143.9,205.5,205.5,205.5,205.3,205.3,205.5,205.3,205.3,205.4,205.4,205.5,205.4,205.5,205.4,205.3,205.4,205.3,205.2,205.3,205.1,205.1,205.5,205.6,205.5,205.6,205.6,205.7,205.5,102.7,143.8,20.6,41.2,0,41.1,205.6,206,206,206,206,206,206,205.9,205.7,205.7,205.3,205.3,205.2,205.4,205.4,205.4,205,205,205,205,205,205,205,205,205,205,205,205,205,205.2,205.3,205.5,205.5,205.6,205.8,205.8,205.8,205.9,205.9,205.9,206,205.9,205.9,206,205.9,205.9,205.6,205.6,205.6,123.5,164.5,82.2,41,205.1,205,205,205,205,205,205,205,205,205,205,205,205,205,205,205,205.1,205.3,205.6,205.9,205.9,205.7,205.2,205,205,205,205.1,205,205,164,0,0,205.3,205.4,205.2,205,205.1,164.4,41,143.5,205.3,205.4,184.7
0,0,0,0,0,0,0,0,0,0,0,0,0,0,0,0,0,0,0,0,0,0,0,0,0,0,0,0,0,0,0,0,0,0,0,0,0,0,0,0,0,0,0,0,0,0,0,0,0,0,0,0,0,0,0,0,0,0,0,0,0,0,0,0,0,0,0,0,0,0,0,0,0,0,0,0,0,0,0,0,0,0,0,0,0,0,0,0,0,0,0,0,0,0,0,0,41,184.2,204.6,204.2,204.2,204.1,204,204,204,204,163.3,61.2,163.2,183.7,163.2,163.2,183.6,163.2,163.2,203.8,203.6,203.4,203.2,182.7,182.7,203.2,203.3,203.9,203.9,204,204,204,204,204,204,204,203.9,203.9,203.9,204,204,204,204,204,204,204,204,203.8,203.6,203.6,203.5,203.4,203.1,20.3,20.3,40.6,121.8,20.3,203.1,203.1,203.4,203.9,204,101.9,204,204,204,163.2,203.9,203.3,203.1,203.2,203.4,203.5,203.8,203.9,204,204,204,204,204,204,203.9,183.4,203.4,101.7,81.4,162.7,183,203.1,203.3,203.8,204,204,204,204,204,204,204,204,204,204,204,204.1,204.4,205,205,163.8,122.8,122.7,204.7,204.6,81.6,61.2,40.8,20.4,183.6,204,204,204,204,204,204,204,204.5,204.5,204.4,183.8,163.4,204.2,204.2,204.4,204.7,204.6,204.8,204.7,0,0,102,81.6,0,163.2,204,204,204,204,204,204,204,204,204,204,204,204,204,204,204,204,183.6,204.1,204.4,204.6,204.7,204.8,204.9,204.8,204.9,204.6,204.3,204,204,204,204,163.2,204.5,204.9,82,0,0,82.1,102.6,205.1,205.1,205.1,205,204.8,204.6,204.6,204.5,204.5,204.4,20.4,0,20.4,0,61.3,183.8,204.1,204.1,204.2,204.1,204,204.2,204.2,204.3,204.3,204.3,81.8,183.6,204,204,204,204,204,183.6,40.8,0,0,61.2,204,204.1,204.1,204.1,204.1,204.1,204.3,204.4,204.7,204.8,41,82,143.4,204.9,164,205,205,205,205,205,205,205,205,204.8,204.8,204.7,204.2,204.1,204.1,204.1,163.4,0,0,204.2,204.1,204.1,204.1,204.1,204,204,204,204.3,204.3,204.2,204.1,204,204,204,183.6,204,204,204,204,204,204,0,102,102,20.4,0,205,205,205,204.9,205,205,123,102.2,204.5,204.3,204.1,204.1,204.2,204.2,204.2,204.1,0,40.8,183.6,203.9,203.9,204,183.6,183.6,142.8,183.6,183.6,204.1,204.1,204.3,204.3,204.2,204.1,204.1,204.2,204.1,204.3,204.3,204.3,204.3,204.3,204.3,204.2,204.3,204.4,204.3,204.2,204.2,204.2,204.2,204.1,204.2,204.4,204.6,204.7,204.9,143.4,204.9,204.8,204.7,204.4,204.1,204,204,204,204,204,204,204,204,204.1,204.2,204.3,204.4,204.4,204.5,204.4,204.4,204.3,204.2,204.2,204.2,204.5,204.6,204.8,123,205,205,205,205,205,205,205,204.9,204.6,204.4,143,204.1,204.1,204.2,204.4,204.6,204.7,204.9,205,205,205,205,205,205,205,205,205,205,205,205,205,205,205,205,205,205,184.5,205,205,205,205,205,205,205,205,205,205,205,205,205,205,205,205,205,205,205,205,205,205,205,205,205,205,205,205,205,205,204.9,204.5,143,204.1,0,204.2,204.2,204.5,204.8,205,205,205,205,205,205,205,205,205,205,205,205,205,205,204.9,204.8,122.6,204.4,204.2,204.1,204.1,204.1,204,204.1,204.4,204.6,204.8,205,205,205,205,205.2,205.2,205.2,205.2,205.3,205.3,205.1,205,205,184.5,205,205,205,205,205,205,205,205,205,205,205,204.9,204.9,204.7,204.7,204.4,204.2,204.1,204,204,204,204,204.1,204.3,204.9,205,205,205,205,205,205,205,205,205,205,205,205,205,204.9,204.9,205,184.5,205,205,205,205,205,205,205,205,205,205,205,205
0,0,0,0,0,0,0,0,0,0,0,0,0,0,0,0,0,0,0,0,0,0,0,0,0,0,0,0,0,0,0,0,0,0,0,0,0,0,0,0,0,0,0,0,0,0,0,0,0,0,0,0,0,0,0,0,0,0,0,0,0,0,0,0,0,0,0,0,0,0,0,0,0,0,0,0,0,0,0,0,0,0,0,0,0,0,0,0,0,0,0,0,0,0,0,0,0,61.2,204,204,204,203.9,203.8,203.8,203.8,183.3,183.4,81.4,81.4,142.5,203.7,203.7,203.4,203.2,203.1,162.4,202.8,202.4,202.3,202.3,202.5,202.8,202.8,202.9,203,203,203,203,203.1,203.1,203,203,203,203,203,203,203.1,203.1,203,203.1,101.5,203.1,203.1,203.1,203.1,203,202.8,202.6,60.7,20.3,0,80.9,101.1,202.2,202.2,202.4,203,203,203,203,203,203.1,203.1,203.1,203,203,202.9,202.9,202.9,203,203,203,203,203,203,203.1,203.1,203,203,202.9,202.8,202.7,202.7,202.7,202.8,202.9,203,203,203,203,203,203,203,203,203,203,203,203.4,204,204,204,204,204,61.2,40.8,40.8,81.6,203.7,81.3,0,121.8,162.4,182.7,182.7,203,203.5,203.9,204,204,204,204,204,102,81.6,0,203.6,203.9,203.9,204,204,204,204,0,0,0,0,0,60.9,203,203,203,203,203.1,203.2,203.2,203.3,203.2,203.5,203.6,203.7,203.4,203.4,203.5,203.6,203.6,203.7,204,204,183.6,204,204,204,204,204,204,203.8,203.8,203.6,203.6,203.8,203.9,20.4,0,0,0,0,0,81.6,204.1,204.1,204.1,204.1,204.1,204.1,204,204,203.9,0,0,0,0,0,81.5,203.5,203.9,203.9,204,204,204,204,204,204,204,203.9,203.9,203.6,203.3,203.3,203.3,203.4,203.3,0,0,0,0,183.1,203.6,203.9,204,203.9,203.9,204,204,204,204,204,204,204,204,122.4,81.6,183.6,204.1,204.4,204.4,204.1,204,204,204,204,204,204,204,204,163.1,0,0,0,20.3,203.1,182.7,203.1,203.1,203.1,203.2,203.3,203.3,203.2,203.3,203.3,203.2,203.1,203.1,203,203,203,203,203,203,203.2,0,0,0,40.8,163.2,204,204,204,204,204,163.2,0,183.6,204,204,203.9,204,203.7,203.6,40.7,20.4,0,20.3,203,203,203,203,203.2,203.1,182.8,142.3,203.4,203.7,203.9,204,204,204,203.9,204,204,204,204,203.9,203.8,203.7,203.8,204,203.9,204,204,204,204,204,204,163.2,204,204,204,204,204,183.6,102,122.4,183.6,204,204,204,203.9,203.8,203.7,203.4,203.3,203.4,203.5,203.8,204,204,204,203.9,203.9,204,204,204,204,204,203.9,203.9,203.9,204,163.2,20.4,142.8,204,204,204,204,204,204,204,203.9,203.8,203.7,203.8,203.8,203.8,203.9,204,204,163.2,102.1,204.2,204.4,204.4,204.4,204.4,204.3,204.3,204.3,204.1,204.2,204.1,204.2,204.3,184,204.7,204.8,204.7,204.7,204.5,204.5,204.4,204.3,204.2,204.5,204.3,204.3,204.3,204.5,204.5,204.6,204.7,204.7,204.6,204.5,204.5,204.5,204.6,204.5,204.5,204.4,204.3,204,204.3,204.3,204.3,204,163.2,102,40.8,142.7,40.6,121.8,40.6,162.6,203.2,203.7,203.8,204,204,204,204,204,204,204,204.1,204.3,204.1,204,204,204,204.1,204.1,204,204,0,40.8,203.9,204,204,204,204,204,204,204,204,204,204.2,204.4,204.4,183.9,204.5,204.4,204.4,204.3,204.3,20.4,0,0,0,204.2,204.5,204.5,204.4,204.3,204.3,204.2,204.1,204,204,204,204,204,204,204,204,204,204,203.9,203.8,203.9,204,204,204,204,204,183.6,183.6,122.4,204.1,204,204,204,204,204,204,204,204,204,204,204,183.6,204,204,204,204,204,204,204,204,204,204,163.2
0,0,0,0,0,0,0,0,0,0,0,0,0,0,0,0,0,0,0,0,0,0,0,0,0,0,0,0,0,0,0,0,0,0,0,0,0,0,0,0,0,0,0,0,0,0,0,0,0,0,0,0,0,0,0,0,0,0,0,0,0,0,0,0,0,0,0,0,0,0,0,0,0,0,0,0,0,0,0,0,0,0,0,0,0,0,0,0,0,0,0,0,0,0,0,0,0,0,20.4,182.8,203,203,203,203,203,203,203,142.1,60.9,202.9,202.8,202.8,202.7,81,141.7,141.5,202,201.9,201.8,201.9,201.9,201.9,202,202,202,202.1,101.2,40.6,162.4,202.8,202.8,202.7,181.9,202.5,182.5,182.6,203,142.1,60.9,60.9,81.2,81.2,182.7,202.6,182,202.2,161.6,0,0,0,0,121,201.8,201.8,202,202,202,202,202.2,202.4,202.4,202.2,202.3,202.3,202.1,202,202,202,202,202,202,202,202,202,202.8,202.9,202.8,202.8,202.6,202.2,202.2,202.1,202.1,202.1,202,202,202,202,202.2,182,202.8,202.9,202.9,202.9,202.9,203,203,203,203,203,203,203,203,101.5,60.9,0,20.3,202.3,202,141.5,141.4,202,202.1,202.3,203,203,203,203,203,203,203,203,182.7,0,20.3,203,203,203,203,203,203,203,202.9,202.7,182.2,162.1,202.2,202.1,202.1,202.4,202.7,203,203,203,203,203,203,203,203,203,203,203,203,203,203,203,203,203.2,203.3,203.5,203.8,203.5,203.2,203.2,203,203,203,203,202.9,202.9,203,81.1,40.6,0,0,0,0,182.8,203.1,203.1,203.1,203.1,203.1,203.1,203,203,203,20.2,0,20.2,0,81,202.7,203,203,203,203,203,203,203,203,203,203,203,203,203,203,203,203,203,203,162.4,20.3,0,101.5,203,203,203,203,203,203,203,203,203,203,203,203,203,203,203,142.1,142.5,204,204,204,204,204,204,203.9,203.5,203.2,203,203,203,60.9,81.2,182.7,20.3,40.6,40.6,202.2,182,202.5,202.7,203,203,203,203,203,203,203,203,203,203,203,202.9,203,182.6,203,203,182.7,81.2,162.4,203,203,203,203,203,203,162.4,121.8,101.5,203,203,203,203,203,203,203,203,81.2,0,101,202,202,202.1,202.3,202.5,202.5,202.6,202.9,203,203,203,203,203,203,203,203,203,203,203,203,203,203,203,203,203,203,203,203,203,203,203,182.7,203,203,203,203,203,203,142.1,162.4,203,203,203,203,203,203,203,203,203,162.4,142.1,182.7,182.7,182.7,203,162.4,0,81.2,60.9,121.8,203,203.1,203,203,203,203.1,182.8,203.1,203,203,203,203,203,203,203,203,203,203,203,203,203,203,203,203,203.1,203.2,81.3,203.8,203.9,203.9,204,204,203.9,203.9,203.9,203.9,203.9,203.9,183.6,122.4,142.8,204,204,204,204,204,204,204,204,204,204,203.9,204,204,204,204,204,204,183.6,204,204,204,204,204,204,204,204,204,204,183.6,61.2,204,183.6,40.7,0,0,0,0,0,0,121.7,202.8,203,203,203,203,203,203,182.7,40.6,162.8,203.8,204,204,204,204,204,204,163.1,20.3,40.6,20.3,40.6,203,203,203,203,203,203,203,203.1,203.3,203.7,203.8,203.8,183.5,183.5,183.6,203.7,203.7,203.8,203.7,122.2,0,0,20.4,203.9,203.9,203.9,203.8,203.9,203.8,203.7,203.7,203.6,203.6,0,203.5,203.4,203.3,203.4,203.1,203.1,203.1,203.1,203.1,203.1,203.1,203.1,203.1,203.3,203.5,183.5,204,204,204,204,204,204,204,203.8,203.4,203,203,203,203,203,203,203.3,203.4,203.4,203.4,203.6,203.6,203.7,162.8,0,20.4,121.8
0,0,0,0,0,0,0,0,0,0,0,0,0,0,0,0,0,0,0,0,0,0,0,0,0,0,0,0,0,0,0,0,0,0,0,0,0,0,0,0,0,0,0,0,0,0,0,0,0,0,0,0,0,0,0,0,0,0,0,0,0,0,0,0,0,0,0,0,0,0,0,0,0,0,0,0,0,0,0,0,0,0,0,0,0,0,0,0,0,0,0,0,0,0,0,0,0,0,20.2,202.5,202.3,202.3,202,202,202,202,202,161.6,202,202,202,201.7,201.7,161.4,161.3,201.5,201.3,201.2,201.1,201.1,201,201.1,201.3,181.2,141.3,202,181.8,20.2,181.8,202,202,202,80.8,0,202,121.2,20.2,20.2,181.8,141.4,101,181.8,181.8,20.2,121,60.6,40.2,80.4,20.1,0,0,201,201,201,201.2,201.3,201.5,201.9,161.6,161.6,121.2,161.6,181.8,202,201.9,201.7,201.4,201.6,201.2,201.2,201.4,201.9,202,202,202,202,202,202,202,201.8,201.8,201.8,201.8,201.8,201.8,201.7,201.7,181.8,60.6,181.8,202,202,202,202,202,202,202,202,202,202,202,202,141.4,40.4,40.4,20.2,201.7,201.4,181,181.2,100.9,60.6,141.3,181.7,202,202,202,202,202,202,202.1,202.1,202,202,60.6,202,202,202,202,202,20.2,20.2,0,0,40.3,161.3,201.5,201.7,201.9,202,202,202,202,202,202,202,202,202,202,202,202,202,202,202.1,202,202.6,203,203,203,203,203,203,203,202.9,202.6,202.2,202.1,202,202,202,202,202,202,20.2,0,0,0,202,202,202,202.1,202.2,202.4,202.1,202,202,202,202,202,202,202,202,202,202,202,202,202,202,202.1,202,202.2,202.2,202.2,202.2,202.2,202.1,202.1,202,202,202,202,202,202,202,202,202,202,202,202.2,202.2,202.4,182.1,101.2,161.9,202.3,202.3,202.1,202.2,202.3,202.4,202.9,203,203,203,203,203,203,203,203,203,203,203,202.8,202.1,0,202,161.6,60.6,20.2,141.4,161.6,202,202,181.8,141.4,101,101,80.8,20.2,20.2,60.6,202.2,202.1,202,202,202,202,202,202,202,202,202,202,202,202,202.1,202.1,202.1,202,202.1,202.1,202.1,202.1,202,202,202,202,202,202,202,202,121.2,202,201.8,201.7,201.8,201.9,202,202,202,202,202,202,202.1,202.2,202.4,202.7,182.3,202.7,202.6,202.6,202.8,202.7,202.7,202.6,202.6,202.7,202.8,202.6,202.6,202.6,202.6,202.8,203,203,203,203,203,203,203,203,101.5,182.7,182.7,202.7,202.8,202.6,202.4,202.1,202.1,202,202.2,161.6,161.6,182.1,182.2,202.4,202.8,162.1,162.1,60.9,60.9,40.6,142,202.9,202.7,202.7,202.7,202.9,202.9,202.9,202.9,202.9,202.9,202.8,203,202.6,202.4,202.4,202.4,202.2,202.1,202.1,202.1,202.1,202,202.3,202.6,202.9,202.9,203,203.1,203.4,203.4,203.7,203.6,203.4,203.5,203.4,203.3,203.2,162.5,101.7,183.3,203.6,203.6,203.6,203.4,203.4,203.4,203.1,203,203,203,203,203,162.4,182.7,203,203.2,203.2,203.4,203.6,203.5,162.7,203.3,203.3,203.3,203,203,203,203,60.9,0,60.9,203,81.2,81,80.8,101,101,201.8,121.2,202,202,202,202,202,202.1,202.2,161.7,0,40.6,203,203,203,203,203.2,203.2,203.2,203.3,203,203,203,203,203,202.9,203,203,203,203,203,203,203,203,203,203,182.7,182.7,162.4,182.7,203,203,203,203,203,203,203,203.1,203.2,203.2,203.2,203.2,203.3,203.1,203.1,202.9,202.9,101.4,0,121.7,60.7,0,40.5,182.3,202.6,202.5,202.5,202.4,202.6,202.7,202.9,202.9,203,203,162.4,203,203,203,203,203,203,203,203,203,203,202.9,202.8,202.6,202.8,203,203,203,203,203,203,203,203,203,121.8,162.4,81.2
0,0,0,0,0,0,0,0,0,0,0,0,0,0,0,0,0,0,0,0,0,0,0,0,0,0,0,0,0,0,0,0,0,0,0,0,0,0,0,0,0,0,0,0,0,0,0,0,0,0,0,0,0,0,0,0,0,0,0,0,0,0,0,0,0,0,0,0,0,0,0,0,0,0,0,0,0,0,0,0,0,0,0,0,0,0,0,0,0,0,0,0,0,0,0,0,0,0,0,0,201.9,201.7,181.4,180.9,201,201,180.9,180.9,201,201,200.8,200.8,200.9,201,200.9,200.9,200.9,200.7,200.7,200.6,200.7,200.8,200.9,200.9,201,201,160.8,201,201.1,201.1,201.1,201,100.5,201,160.8,201,201,201.1,201,201,140.7,201,201,180.9,201,120.6,100.5,140.7,120.6,160.6,200.9,201,201,201,201,201,201,201,180.9,20.1,40.2,0,80.4,201,201,201,201,201,201,201,201,201,201,201,201,201.8,201.8,201.8,201.7,201.3,201,201,201,201,201,201,201,201,180.9,201,201,201,201,201,201,201,201,201,201,201,201,201,200.9,100.5,180.7,200.7,200.5,200.4,200.5,200.8,200.8,201,201,201,201,201,201.6,201.9,101,161.5,201.8,201.6,201.4,201.2,201.1,201.1,201,201.2,201.2,181.1,60.3,40.2,0,0,180.9,201,201,201,201,201,201,201,201,201.1,201.1,201.3,201.5,201.4,201.5,201.6,201.7,201.6,202,202,202,202,20.2,0,0,40.4,202.4,202,202,202,202,201.8,201.7,201.6,201.4,201,201,201,201,0,0,0,0,201,180.9,181.1,181,181.3,181.4,181.3,161,181.1,201.1,201,201,201,201,201,120.6,180.9,201,201.4,201.8,202,202,202,202,202,202,202,201.9,201.7,201.7,201.6,201.5,201.2,201.2,201.2,201.1,201.4,201.5,201.5,201.8,202,202,202,202,141.4,0,101,80.8,202,202,202,202,40.4,161.6,181.8,202,202.3,0,0,0,0,20.2,202.3,202,202,202,101,40.3,100.8,201.6,40.4,141,180.9,181,181,201.4,181.3,201.7,161.6,80.8,0,20.2,101,181.8,202,202,202,202,202,202,202,201.9,201.9,201.6,201.5,201.6,201.6,201.5,201.5,201.6,201.5,201.4,201.8,201.9,201.9,201.9,201.9,201.7,201.7,100.7,201,201,201,201,201,201,140.7,160.8,180.9,201.1,201.2,201.2,201.2,201.2,201.3,201.7,202,202,202,161.6,40.4,202,202,202,202,202,202,202,181.8,141.4,181.8,202,202,202,202,202,202,202,202,202,202,202,202,202,20.2,60.6,181.8,202,202,202,202,202,202,202,202,202,201.9,181.8,181.7,121.1,201.9,121.1,20.2,0,0,40.4,141.4,181.8,202,202,202,202,202,202,202,202,202,202,161.6,202,202,202,202,202,202,202,202,202,202,202,202,202,202,121.3,161.9,202.8,202.9,203,203.1,203,203,202.8,202.8,202.8,202.9,182.7,203,203,203,203,202.9,202.9,202.9,202.8,202.7,202.3,202,202,202,0,40.4,121.3,202.4,202.7,202.9,142.1,0,0,0,202.8,202.7,202.5,202.1,202,202,0,0,0,202,201.7,181.5,181.5,201.4,201.6,201.5,201.3,201,201,201.6,201.8,202,202,202,60.6,20.2,40.4,141.4,202,202,202.3,203,203,203,203,202.8,202.7,202.5,202.4,202.2,202.1,202,202,202,202,202,202,202,202,202,202,181.8,161.7,161.7,161.7,202,181.8,202.1,202,202.1,202.2,202.6,202.6,202.5,202.5,202.5,202.4,202.4,202.4,202.4,202.4,202.2,202,181.8,101,80.8,0,40.4,161.4,201.9,201.9,202,202,202,202,202,202,202,202,202,202,202,202,202,202.1,202.1,202,202,202,202,202,202,202,202,202,202,202.2,202.2,202.2,202.2,202.2,202.3,202.1,161.7,202.1,141.4
0,0,0,0,0,0,0,0,0,0,0,0,0,0,0,0,0,0,0,0,0,0,0,0,0,0,0,0,0,0,0,0,0,0,0,0,0,0,0,0,0,0,0,0,0,0,0,0,0,0,0,0,0,0,0,0,0,0,0,0,0,0,0,0,0,0,0,0,0,0,0,0,0,0,0,0,0,0,0,0,0,0,0,0,0,0,0,0,0,0,0,0,0,0,0,0,0,0,0,0,60.3,160.7,160.7,200.3,200.1,160,60,20,0,0,200,200,200,180,180,180,180,199.9,200,200,200,200,200,200,200,200,200.1,200.3,200.2,200.2,200.2,200.2,200.2,200.2,200.2,200.2,200.2,200.2,200.2,200.2,200.3,200.4,200.3,200.3,200.2,160,160,160,160,200,200,200,200.1,200.1,200,200.2,200.2,200.2,200.1,200,200,180,200,200.1,200,200,200,200.1,200.3,200.2,200.3,200.5,200.9,201,201,201,201,201,201,160.8,180.8,200.8,200.9,200.2,200,200,200,200,200,200,200,200.1,200.1,200,200,200,200.4,200.2,200.1,200,200,200,200,200,200,200,199.9,100,199.9,200,200,200,200.5,200.6,200.8,201,201,120.6,0,180.9,201,201,201,200.8,200.8,200.8,200.6,200.6,200.5,200.8,100.3,120.1,0,80,160,200,200,200,200,200,200.2,200.5,200.9,201,201,201,201,201,201,201,201,201,201,201,201,201,60.3,0,0,0,201.7,201.4,201.1,201.1,201,201,201,201,201,201,200.6,200.1,200,140,20,140,200,200.2,200.3,180.5,180.8,180.9,180.9,180.9,180.9,201,201,200.6,200.5,200.8,201,200.8,201,201,201,201,201,201,201,201,201,201,201,201,201,201,201,201,201,201,200.9,201,201,201,201,201,201,201,201,201,180.9,40.2,80.4,201,201,201,201,201,201,201,201,201.3,201.5,101,0,0,0,0,40.4,202,201.7,201.3,201,201,100.5,201,180.9,200.9,180.7,180.8,180.9,180.9,180.9,201,201,201.1,201.1,140.7,140.7,201,180.9,201,201,201,201,201,201,201,201,201,201,201,201,201,201,201,201,201,201,201,201,201,201,201,201,80.4,80.4,201,201,200.9,200.8,200.9,200.9,160.6,200.9,180.9,201,201,201,201,201,201,201,201,201,201,201,201,201,201,201.3,201.4,201.7,201.5,201.5,201.6,201.5,201.6,201.6,201.7,201.3,201.3,201.6,201.6,201.8,201.8,201.7,202,202,202,202,80.8,101,202,201.9,201.9,201.9,201.8,201.2,201,201,201,201,201,201,200.9,180.8,200.9,180.6,0,0,140.7,201,201,201,160.8,180.9,120.6,201,201.2,201.1,201,201,201.1,201,181,201,201,201.1,201,201,201,201,201,201,201,201,201,201,100.5,60.4,181.7,202,202.2,202.3,202.4,202.5,202.4,202.4,202.4,202.3,202.4,202.6,202.7,202.7,202.7,182.4,161.8,202.1,202.1,202,202,202,201.9,181.6,100.9,40.4,181.7,201.9,201.9,202,202,0,0,0,0,101,202,201.6,201.1,80.4,0,0,0,20.1,201.1,200.7,200.7,200.6,200.6,200.6,200.6,200.6,200.6,200.8,201,201,201,201,201,201,201,201,201,201,201.3,201.7,0,0,0,0,0,201.9,201.9,201.9,201.9,201.9,202,202,202,202,202,202,202,201.9,201.7,201.6,181.4,161.3,141.1,181.2,181.2,201.1,201.1,160.9,161,201.5,201.6,201.7,201.7,201.7,201.6,201.5,201.7,201.7,201.4,201.4,201.4,201.1,201,201,0,0,0,180.9,201,201,201,201,201.1,201.1,201.1,201.1,201.1,201.2,201.2,201.3,201.4,201.3,201.6,201.9,201.6,201.2,201.1,201,201,201,201,201,201,201,201.2,201.4,201.4,201.6,201.5,201.5,201.5,201.4,201.3,181,160.8
0,0,0,0,0,0,0,0,0,0,0,0,0,0,0,0,0,0,0,0,0,0,0,0,0,0,0,0,0,0,0,0,0,0,0,0,0,0,0,0,0,0,0,0,0,0,0,0,0,0,0,0,0,0,0,0,0,0,0,0,0,0,0,0,0,0,0,0,0,0,0,0,0,0,0,0,0,0,0,0,0,0,0,0,0,0,0,0,0,0,0,0,0,0,0,0,0,0,0,0,80,179.9,200,200,199.3,199.2,199.1,199.1,199.1,199.1,199,59.7,19.9,59.7,119.5,79.7,59.7,99.7,99.9,99.9,179.8,179.8,199.9,199.8,120,60,160,200,179.8,179.5,199.4,199.4,199.5,199.6,199.4,199.4,199.6,199.7,199.6,199.7,199.8,200,199.9,200,199.9,199.9,199.7,199.7,199.7,199.6,199.6,199.8,120,40,20,40,100,200,200,200,200,200,200,200,200,200,200,200,200,200,200,200,200,200,200,200.2,180.3,140.2,140,80,180,120,200,200,199.9,199.6,199.4,199.4,199.8,200,200,200,200,200,200,200,200,200,200,199.9,199.7,199.2,199.2,179.3,199.2,199.2,199.2,199.2,199.2,199.4,199.8,199.9,200,200,200,200,200,200,180.2,200,200.1,200,200,200,200,200,200,199.9,199.9,200,200,200,200,199.9,199.5,199.6,199.8,199.9,200,200,200,200,200,200,200,200,200,200,200,160,200,200,200,200,200,180,40.1,0,0,0,0,200.8,200.7,200.5,200.6,200.4,200.5,200.3,200,200,200,200,199.9,199.9,199.8,199.8,199.9,199.9,199.9,199.9,200.1,200.2,200.2,180.2,180.1,200.1,200,200,200,200,200,200,200,200,200,200.2,200.7,200.7,200.7,200.7,200.8,200.7,200.7,200.6,200.6,200.5,200.5,200.6,200.5,200.5,200.5,200.5,200.4,200.6,200.7,200.5,200.3,200.4,200.6,200.7,200.7,200.9,200.9,200.6,200.5,200.4,200.8,200.8,201,201,201,201,201,201.1,20.2,0,0,0,0,201,201,200.9,200.8,200.5,200.3,200.3,200.3,200.2,200.1,200.4,200.6,200.7,200.9,200.9,200.8,200.8,200.7,200.6,200.4,200.4,160.4,200.5,200.8,201,201,201,201,201,201,201,201,201,201,200.8,200.8,200.6,200.4,200,200.2,200.1,200.4,200.9,200.7,200.8,200.6,200.5,200.3,200,200,200,200,200,200,200,200,200,200,200,200.1,200.1,200,200.1,200.1,200.1,200.3,201,201,201,201,201,201,201,201,201,201,201,201,201,201,201,201,201,201,201,201,201,201,201,201,201,201.1,201.2,201.2,201.2,201.2,201.1,201,201,201,201,200.9,200.6,200,200,200,200,200,200,199.8,199.8,200,200,200.1,200.1,200.1,200.3,200.6,200.9,201,201,201,201,201,201,200.9,200.7,200.7,200.6,200.6,200.6,200.5,200.5,200.5,200.6,200.4,200.2,200.1,200.2,200.5,200.9,200.9,201,201.2,201.3,201.7,201.9,202.1,202.1,202,201.8,201.8,202,202.3,202.3,202.3,161.7,101,100.8,121.1,201.7,201.2,201,201,201,201,160.8,180.9,201,201,201,201,201,20.1,0,0,0,140.7,201,200.7,200.1,200,40,80,20,200.1,200.4,200.3,200.3,200.3,200.3,200.2,200.1,200,200,200,200,200,200.2,200.1,200.1,200.1,200.1,200.2,200.3,200.3,200.4,200.5,0,0,0,0,0,180.8,201,201,201,201,201,201,201,201,201,201,201,201,201,201,201,200.9,180.9,180.9,200.7,200.7,200.6,180.8,180.9,180.9,201,201,201,200.9,200.9,200.9,200.9,200.9,200.8,200.7,200.4,200.4,200,200,180,60,200,200,200,200,200.2,200.4,200.6,200.6,200.6,201,201,201,201,201,201,201,201,201,201,201,200.7,200.4,200.1,200,200,200,200.1,200.4,200.5,200.8,200.9,201,201,200.9,200.8,200.7,200.7,200.4,200.1
0,0,0,0,0,0,0,0,0,0,0,0,0,0,0,0,0,0,0,0,0,0,0,0,0,0,0,0,0,0,0,0,0,0,0,0,0,0,0,0,0,0,0,0,0,0,0,0,0,0,0,0,0,0,0,0,0,0,0,0,0,0,0,0,0,0,0,0,0,0,0,0,0,0,0,0,0,0,0,0,0,0,0,0,0,0,0,0,0,0,0,0,0,0,0,0,0,0,0,0,0,139.3,199,199,199,199,199,199,198.9,198.9,198.7,198.7,198.8,159,79.5,79.5,119.3,119.3,119.3,139.3,159.2,199,199,199.1,0,0,0,119.4,159.2,159.2,159.2,159.2,199,199,199,199,199,199,179.1,199,119.4,119.4,179.1,199.1,199.2,199,179.2,179.1,199,199,199,199,0,0,39.8,79.6,199,199,199,199,199,199,199,179.1,159.2,199,199,199,199,199,199,199,199,199.2,199.4,199.6,179.7,199.6,139.5,39.8,199,199,199,199,199,199,199,199,199,199,199,199,199,199,199,199,199,199,199,199,199,199,199,199,199,199,199,199,199,199,199,199,199,199,199,199,199.1,199.3,199.7,199.7,199.4,199.3,199.2,199.1,199,199,199,199,199,199,199,199,199,199,199,199,199,199,199,199,199,199,199,199,199,199.2,199,199.1,199.3,20,199.4,199.4,199.5,199.1,199,159.2,0,0,0,0,199.7,199.9,199.8,200,200,200,200,200,200,199.9,199.8,199.2,199,199,199,199,199.1,199.1,199.3,199.7,199.8,159.9,199.8,199.9,200,199.9,199.9,199.8,199.7,199.7,199.9,200,199.7,199.7,199.7,199.8,200,200,200,200,200,200,199.9,199.9,199.8,199.9,199.8,200,200,200,200,200,200,200,200,200,200,200,200,200,200,200,200,200,200,200,200,160,200,200,200,200,200,200.6,60.3,20.1,0,0,20,200.2,200,200,200,199.9,199.8,199.8,200,199.8,200,200,200,200,200.2,200.2,200.1,200.1,200,199.9,199.7,179.9,179.7,199.7,200,200,200,200,200,200.1,200.1,200.1,200.1,200,200,200,200,200,200,200,140,140,100,200,200,200,200,200,200,200,200,200,200,200,200,200,200,200,140,200,200,200,200,200,200,200,200,200,200,200,200,200,200.1,200.4,201,201,200.6,200.5,200.4,200.4,200.4,200.4,200.4,200.3,200.4,200.3,200.3,200.4,200.3,200.3,200.3,200.9,201,201,201,201,201,201,201,200.8,200.3,200,200,200,200,200,199.5,199.1,199,199.2,199.1,199.1,199.1,199.2,199.5,199.8,200,200,200,200,200,200,200,200,200,200,200,200,60,120,200,200,200,200,200,200,200,200,200,200,200,200,20,0,40,80.2,200.9,201.1,201.4,181.4,201.4,201.3,201.4,201.5,201.6,201.6,121,40.3,20.1,100.5,80.4,140.7,200.9,200.5,200.1,200,200,180,200,200,200,200,200,200,200,0,0,0,200,200,200,200,199.9,159.9,199.9,199.8,199.7,199.7,199.6,199.6,199.7,199.9,199.6,199.6,199.6,199.6,199.4,199.7,199.7,200,199.9,199.7,199.7,199.9,199.9,199.9,199.8,199.9,40,0,0,0,0,0,0,200,200,200.4,200.6,200.8,200.7,201,201,201,200.8,200.3,200.1,180.1,160.1,160.1,200,200,200,200,200,200,160,140,0,20,200,200.1,200.1,200.1,200.1,200.1,200.1,200,200,200,199.9,199.8,199.4,199.1,199.1,199.1,199.1,199.1,199.5,199.7,200,200,200,200,200,200,200,200,200,200,200,200,200,200,180,200,200,200,200,199.8,199.7,199.6,199.8,199.9,200,200,200.1,200,200,200,200,200,200,199.9
0,0,0,0,0,0,0,0,0,0,0,0,0,0,0,0,0,0,0,0,0,0,0,0,0,0,0,0,0,0,0,0,0,0,0,0,0,0,0,0,0,0,0,0,0,0,0,0,0,0,0,0,0,0,0,0,0,0,0,0,0,0,0,0,0,0,0,0,0,0,0,0,0,0,0,0,0,0,0,0,0,0,0,0,0,0,0,0,0,0,0,0,0,0,0,0,0,0,0,0,59.4,198,198,198,198,198,198,198,198,198,198,198,198,198,198,198,178.2,138.7,158.8,158.9,159,198.9,198.9,199,179.1,99.5,59.7,179.1,198.6,198.5,158.7,119,138.9,198.4,198.4,198.4,198.8,199,199,199,139.3,139.3,139.3,179.1,199,199,199,198.8,198.8,198.8,198.7,198.5,178.6,178.6,178.6,198.4,198.5,198.5,198.5,198.9,199,199,199,199,199,199,199,199,199,199,199,198.9,198.9,198.9,198.9,198.9,198.9,198.9,198.9,178.8,198.7,198.8,198.7,198.6,198.4,198.5,198.4,198.6,198.9,199,199,198.9,198.9,199,199,199,199,199,199,198.3,198.4,198.3,198.2,198.2,198.2,198.1,198,198,198,198,198.1,198.5,198.9,198.7,198.7,198.8,198.9,199,199,199,199,199,198.9,198.7,198.8,198.7,198.6,198.6,198.1,198.2,178.4,138.9,178.7,198.5,198.4,198.4,198.9,199,199,199,199,199,199,199,199,199,199,199,199,199,199,199,199,199,198.8,198.4,19.8,0,0,198.7,198.8,199,199,199,199,199,199,199,199,199,199,199,199,198.9,198.8,198.9,198.9,198.9,198.9,198.9,179.1,159.2,198.9,199,199,199,199,199,199,199,199,199,199,199,199,199,199,199,199,99.5,99.5,159.2,199,199,199,199,199.1,199.2,199.2,199.2,199.2,199.1,199,199.1,199,199.1,199.2,199.2,199.2,199.3,199.6,199.6,199.5,199,199,199,199,199.3,199.4,199.4,199.4,159.3,119.6,99.7,139.7,0,0,0,19.9,99.5,199.2,199.1,199.1,199.1,199.1,199.1,199,199.1,199.1,199.3,199.6,179.9,180,159.8,179.5,139.4,199.1,199.1,159.2,179.2,179.1,199,199,199,199.3,199.8,200,200,200,200,200,200,199.9,199.1,199,199,199,199,199,199,179.1,199,199,199,199,199,199,199,199,199,199,199,199,179.1,99.5,159.2,119.4,199,199.1,199.1,199.1,199.3,199.4,199.1,199.5,199.8,200,200,200,200,200,200,200,200,200,200,200,200,200,200,200,200,200,200,200,200,200,200,200,200,200,200.1,200.2,200.2,200.3,200.2,200.1,200,200,200,199.7,199,199,199,199,199,199,199,198.9,198.7,198.9,199,199,199,199,199,199,199,199.1,199.4,199.4,199,199,199,199,39.8,159.2,199,199,199,199,199,199,199,199,199,199,199,199,199,199.2,0,19.9,19.9,0,140.1,200.8,200.9,200.9,201.1,201.1,201.2,201.2,201.2,40.2,0,0,120.1,140,200,200,199.9,199.8,199.7,199.5,199.6,200,200,199.6,199,199,199,199,199,199,199,199,199,199,199,199,199,199,199,199,99.5,0,0,0,39.8,199,199,199,199,159.2,179.1,199,199,199,199,199,199,199.1,199,199,199,199,0,0,0,0,0,0,79.6,199.7,200,200,200,200,200,200,200,200,200,199.7,159.9,159.7,139.6,199.4,199.3,199.1,199.1,199,199,179.1,0,0,0,199.1,199.1,199.1,199.1,179.2,179.3,139.4,139.3,199.2,199,199,199,199,199,199,199,199,199,199,199,199,199,199,199.1,199,199.1,199.2,199.2,199.4,199.4,199.2,199.1,179.1,199,199,199,199,199,199,199,199,199,199,199,199,199,199.3,199.4,199.4,199.4,199.3,199,199,199
0,0,0,0,0,0,0,0,0,0,0,0,0,0,0,0,0,0,0,0,0,0,0,0,0,0,0,0,0,0,0,0,0,0,0,0,0,0,0,0,0,0,0,0,0,0,0,0,0,0,0,0,0,0,0,0,0,0,0,0,0,0,0,0,0,0,0,0,0,0,0,0,0,0,0,0,0,0,0,0,0,0,0,0,0,0,0,0,0,0,0,0,0,0,0,0,0,0,0,0,39.4,197,197,197.2,197.1,197.2,197.1,197.1,197,197,197,197,197,197,197.2,197.2,197.2,177.7,177.9,197.8,198,198,19.8,19.8,158.4,178.2,178.2,178.2,178.2,198,178.2,158.4,158.4,178.2,198,198,198,198,198,198,198,178.2,158.4,198.1,198.1,198.1,198,198,198,198,198,198,198,198,198,198,198,198,198,198,198,198,198,198,198,198,198,198,198,198,198,198,198,198,198,198,198,198,198,198,158.4,198,198,198,198,198,198,198,198,198,198,198,198,198,178.2,198,198,198,198,198,198,198,198,198,198,198,198,198,198,198,198,198,198,198,198,198,198,198,198,198,198,198,198,198,198,198,198,198,198,198,198,198,198,198,198,198,198,198,198,198,198,198,198,198,198,198,198,198,198,198,198,198,198,198,198,198,198,198,198,198,198,198,198,198,198.4,198.8,198.9,199,198.9,198.9,198.7,198.5,198.3,198,198,198,198,198,198.1,178.2,178.3,178.3,198.1,198.2,198,198,198,198,198,198,198,198,198,198,198,198,198.1,198.1,138.6,79.2,0,19.8,198.4,198.5,198.5,198.5,198.6,198.8,198.8,198.8,178.8,198.7,198.6,198.8,198.9,199,199,199,199,199,199,199,199,199,199,199,199,199,199,199,119.4,59.7,139.3,199,198.9,59.7,0,0,0,199,199,199,199,199,198.9,198.9,199,199,198.9,179.1,199,179.1,139.3,39.8,19.9,19.9,178.7,158.9,158.8,139,158.6,198.3,198.1,198.8,199,199,199,199.3,199.5,199.5,199.5,199,199,199,199,199,198.8,198.6,198.9,119.4,179.1,199,199,199,199,199,199,199,199,199,199,199,199,199,199,199,199,199,199,199,199,199,199,199,199,199,199,199,199,199.3,199.5,199.4,199.7,199.7,199.9,199.9,199.8,199.6,199.6,199.6,199.4,199.3,199.3,199.1,199,199,199,199,199,199.2,199.7,159.7,159.8,159.9,199.9,199.9,199.8,199.5,199,199,199,199,199,199,198.4,198,198,198,198,138.6,198,198,198,198.2,198.5,198.9,198.9,199,199,199,199,199,199,198.9,198.6,198.5,198.2,198,198,198,198,198,198,198,198.3,198,198,198,198.1,198.4,198.6,198.8,79.5,19.9,39.8,79.6,200,200.3,200.3,200.3,180.5,180.5,200.6,200.4,100.2,0,0,0,79.6,99.5,199.1,199.1,199,199,199,199,199,199,199,199,199,199,199,199,199,198.9,198.7,198.5,198.2,198.5,198.8,198.7,198.3,198.1,198.1,198.2,0,0,0,0,198.4,198.4,198.3,198.2,198.3,198.3,198.4,198.7,198.7,198.8,198.8,198.8,198.8,198.8,198.7,198.4,198.2,198.1,0,0,99,118.8,198,198.7,179.1,199,199,199.1,199.1,199.4,199.4,199.2,199,199,199,139.3,19.9,19.9,179.1,199,199,199,199,198.7,198.9,198.9,139.2,198.7,198.5,198.4,198.4,198.4,198.8,178.9,139.1,198.8,198.9,198.9,198.8,198.9,198.8,198.6,198.3,198.3,198.4,198.4,198.6,198.7,199,199,199,199,199,199,199,199,199,199,198.9,199,199,198.8,198.5,198.3,198.3,198.3,198.1,198.1,198,198,198,198.4,198.4,198.5,198.6,198.8,198.8,198.8,198.9,198.8,198.7,199
0,0,0,0,0,0,0,0,0,0,0,0,0,0,0,0,0,0,0,0,0,0,0,0,0,0,0,0,0,0,0,0,0,0,0,0,0,0,0,0,0,0,0,0,0,0,0,0,0,0,0,0,0,0,0,0,0,0,0,0,0,0,0,0,0,0,0,0,0,0,0,0,0,0,0,0,0,0,0,0,0,0,0,0,0,0,0,0,0,0,0,0,0,0,0,0,0,0,39.4,78.8,197,197,197,197,197,197,197,197,197,197,197,197,196.9,196.6,196.5,196.5,196.6,196.7,196.9,197,197.2,197.2,0,0,0,0,19.7,137.9,197,197,197,197,197,197,197,197.1,197.1,197.3,197.2,197.2,197.3,197.5,197.9,198,198,198,197.9,198,197.8,197.5,197.3,197.2,177.3,177.3,197,197,197,197,197.2,197.2,197.5,197.5,197.8,197.7,198,197.9,197.9,197.7,197.7,197.7,197.6,197.6,197.7,197.7,197.7,197.4,197.4,197.4,197.3,197.2,197.2,197.1,197.1,197,197,197,197,197,197.2,197,197.1,197.1,197.1,177.4,197,197.1,197,197,197,197,157.6,197,197,197,197,197,197,197,197,197,197,197.1,197.3,197.2,197.1,197.5,197.6,197.6,197.6,197.6,197.6,197.3,197.3,197.4,197.3,197.3,197.3,197.3,197.2,197.3,197.3,197.3,197.3,197.3,197.3,197.3,197.6,197.8,198,198,198,198,198,198,198,197.9,198,197.9,197.9,197.8,197.9,198,197.8,197.2,197.2,197,197,197,197,197,197,197,19.7,0,138.6,198,198,198,198,198,198,198,198,198,198,198,197.9,197.9,198,178.2,178.2,178.2,197.9,197.9,198,197.7,197.2,197.5,197.5,197.7,197.8,197.8,197.8,197.9,197.9,198,198,158.2,59.2,39.4,59.2,19.8,197.9,197.9,197.9,198,178.2,79.2,59.4,79.2,0,19.8,198,198,198,198,198,178.2,19.8,0,119.1,179.1,119.3,198.5,198.1,198,198.1,198.4,198.6,198.4,19.8,0,59.5,178.4,99.1,0,0,0,39.6,138.6,198.1,178.2,79.2,99,198,198,198,198,178.2,99,19.8,0,0,0,0,39.6,79,177.9,197.7,177.9,158.2,197.7,178.2,198,198.1,79.5,159,179.1,59.7,19.9,59.7,179.1,199,198.8,198.1,198,198,198,198,158.4,158.4,198,198,198,198,198,198,198,198,198,198,198,198.1,198.1,198.1,198.1,198.1,198,198.1,198,198,198.1,198.1,198,198.3,198.8,179.1,199,19.9,0,0,0,199,199,119.4,99.5,199.1,199.1,199,199,199,199,199,199,199,198.9,199,199,179.1,199,179.1,39.8,59.7,119.4,119.3,198.9,179,179,198.8,198.7,198.3,198,198,198,198,198,198,198,178.2,99,59.4,99,158.4,178.2,198,198,198,198,198,198,198,198,198,198,198,198,198,198,198,198,198,198,198,198,198,198,198,198,198,198,198,198,198,39.6,19.8,119.2,199.4,199.5,200.2,200.3,200.3,200.3,180.2,200.2,200,179.9,0,0,0,19.9,199,199,199,199,199,199,199,198.9,199,178.4,158.4,198,198,198,198,198,198,198,198,198,198,198,198,198,198,198,0,0,0,0,99,198,198,198,198,198,198,198,198,198,198,198,198,198,197.9,197.8,197.8,197.8,197.7,197.6,197.5,197.7,197.8,198,198.1,198.6,198.7,198.8,198.8,198.9,198.9,198.9,198.7,198.3,198.2,138.9,19.9,59.5,198.3,198.3,198.1,198.1,198,198,198,198,198,198,198,198,198,198,198,198,198,198,198,198,198,198,198,198,198,198,198,198,198,158.4,178.2,198,198,198,198,198,198,198,198,198,198,198,198,198,198,198,198,198,198,198,198,198,198,198,198,198,158.4,198,99,138.6,198,198,198,198
0,0,0,0,0,0,0,0,0,0,0,0,0,0,0,0,0,0,0,0,0,0,0,0,0,0,0,0,0,0,0,0,0,0,0,0,0,0,0,0,0,0,0,0,0,0,0,0,0,0,0,0,0,0,0,0,0,0,0,0,0,0,0,0,0,0,0,0,0,0,0,0,0,0,0,0,0,0,0,0,0,0,0,0,0,0,0,0,0,0,0,0,0,0,0,0,0,0,0,157.1,196.2,196.1,196.1,196.4,196.5,196.9,196.8,196.9,196.8,196.6,196.4,196.2,196.1,196.1,196.1,196.1,196.3,196.3,196.3,196.3,196.5,196.6,118.1,0,0,0,78.6,176.6,196.1,196.1,196.1,196.3,196.4,196.4,196.5,196.9,197,197,197,197,197,197,197,177.3,157.6,177.3,197,197,197,197,197,197,177.3,177.2,118.2,118.2,196.9,196.9,197,197,197,197,197,197,197,197,197,197,197,197,197,197,197,197,197,197,197,197,197,197,197,197,197,197,197,197,196.9,196.9,196.9,196.9,196.9,196.9,157.6,19.7,197,197,196.9,196.9,196.9,196.8,176.9,196.6,196.6,196.8,197,197,196.8,197,197,197,197,197,197,197,197,197,197,197,197,197,197,197,197,197,197,197,197,196.9,196.9,197,197,197,197,197,197,197,197,197,197,197,197,197,197,197,197,197,197,197,197,197,197,197,197,197,197,197,196.6,196.5,196.6,196.7,196.9,197,197,157.6,78.8,197,197,197,197,197,177.3,197,197,197,197,197,197,197,197,157.6,39.4,118.2,0,137.9,197,197,197,197,197,197,197,197,197,197,197,197,197,98.5,0,19.7,197,197,197,197,197,197,197,98.5,39.4,39.4,0,137.9,197,197,197,197,197,98.5,39.4,0,39.6,178.2,198,198,198,197.9,197.9,197.9,197.9,178.2,39.6,39.6,39.5,98.9,98.9,0,0,39.5,78.9,177.9,177.6,197.3,118.4,197.2,197.4,197,197.2,197.1,197,98.5,78.8,0,0,0,0,19.7,118.1,98.5,157.6,197,177.3,197,197,197.2,197.5,197.9,198,19.8,0,0,0,118.8,198,198,198,197.9,197.5,197.3,197.4,0,0,157.9,157.9,138.3,197.9,197.9,197.9,197.8,197.7,197.2,197.2,197.1,197.1,197.2,197.2,197.2,197.2,197.2,197.2,197.4,138.3,158.3,118.8,39.6,178.2,198,198,198,0,0,0,0,0,79.2,19.8,158.4,138.7,0,0,0,198.8,198.3,198.2,178.2,118.8,198,198,198,198,198,178.2,19.8,0,0,59.4,79.1,118.8,99,197.9,197.8,197.8,197.7,197.7,197.2,197,197,197,197,197,197,19.7,137.9,197,197,197,197.6,197.9,197.9,197.9,198,198,197.9,197.5,197.1,197,197,197,197,197,197,197,197,197,197,197,197,197,197,197,197,197,197,197.1,59.3,59.4,178.3,198.6,199,179.4,199.8,199.9,199.8,159.9,199.4,199.1,199.1,198.8,198.6,198.2,198.1,198,198,198,198.1,198,198,198,198,198,198,39.6,118.8,198,198,198,198,118.8,198,197.9,197.8,197.9,197.8,197.5,197,197,197,19.7,0,0,39.4,197,197,197,197.1,197.1,197.2,197.2,197.4,197.2,197.1,197.2,197.3,197.4,197.2,197,197,197,197,197.1,197,197,197,197.1,197.5,197.7,197.9,158.4,0,59.4,19.8,178.2,198,197.9,197.8,197.7,197.9,197.9,197.9,197.9,197.9,198,198,198,197.7,197.7,197.8,197.7,197.4,197.2,197.1,197.1,197.1,197.4,197.3,197.2,197.2,197.3,197.2,197.4,197.2,197.4,197.3,197.3,197.1,197.4,197.6,197.7,177.8,197.7,197.7,197.7,197.8,197.6,197,197,197,197,197,197,197,197,197,197,197,197,197,197,197,197,197,197,197,197.2,197.4,157.9,158,59.2,197.5,177.5,197.3,197.3,197.8
0,0,0,0,0,0,0,0,0,0,0,0,0,0,0,0,0,0,0,0,0,0,0,0,0,0,0,0,0,0,0,0,0,0,0,0,0,0,0,0,0,0,0,0,0,0,0,0,0,0,0,0,0,0,0,0,0,0,0,0,0,0,0,0,0,0,0,0,0,0,0,0,0,0,0,0,0,0,0,0,0,0,0,0,0,0,0,0,0,0,0,0,0,0,0,0,0,0,0,58.8,196,196,196,196,196,196,196,196,196,196,196,196,196,196,195.7,195.7,195.7,195.7,195.7,195.7,196,196,196,196,196,196,196,196,196,196,196,196,196,196,196,196,196,196,196,196,196,196,176.5,176.5,176.6,196.3,196.2,196.4,196.4,196.3,196.2,196.1,196,196,196,176.4,176.4,196,196,196,196.1,196,196.1,196.1,196.1,196.1,196.2,196.5,196.5,196.6,196.6,196.6,196.7,196.7,196.7,196.6,196.5,196.4,196.3,196.2,196.2,196.2,196,196,196,196,196,196,196,196,196,196,196,196,196,196,196,196,196,196,196,196,196,196,196,196,196,196,196,196,196,196,196,196,196,196,196,196,196,196,196,196,196,196,196,196.1,196.1,196.1,196.1,196.1,196.1,196.1,196.1,196.1,196.1,196.1,196.1,196.1,196.1,196.1,196,196,196.1,196.1,196.2,196.4,196.4,196.5,196.4,196.6,196.6,196.7,196.6,196.3,196.1,196,196,196,196,196,196,196,196,196,196,196.2,196.1,196.1,196.1,196.1,196.1,196.1,196.2,196.4,196.2,196.3,196.7,196.8,196.6,196.7,196.6,177,177,196.2,196.2,98,196,196,196,196,196,196,196,196,196,196.1,196,196,19.6,58.8,196,196,196,196,196,196,196.1,196.1,196,196,196,196,196,196,196,196,196,39.2,19.6,0,98.5,197,197,197,197,197,197,197,197,177.3,0,0,98.5,157.5,177.3,19.7,59.1,137.9,177.3,177.3,177.3,177.3,196.9,78.8,157.6,196.8,196.5,196,196,196.2,196,98.2,117.7,176.4,156.8,78.4,117.6,98.1,137.3,176.6,196.2,196.2,196.3,196.6,197,197,197,0,0,0,0,0,197.5,197.6,197.3,197,197,197,197,197,177.3,177.3,197,137.9,157.6,197,197,197,197,197,196.9,196.8,196.6,196.6,196.6,196.6,196.7,196.8,196.9,197,197,98.5,197,197,197,197,197,197,0,0,0,0,0,19.7,197,177.3,0,0,0,0,0,197.8,178,178.1,197.6,138.1,197.4,197.1,197,197,197,39.4,19.7,19.7,0,78.7,157.4,157.5,196.9,197,197,197,197,197,196.9,196.8,196.4,196.3,196.4,196.5,196.5,196.5,196.6,197,197,197,197,197,197,197,197,197,197,197,197,197,197,197,197,197,197,197,197,197,197,197,197,197,197,197,197,196.9,197,197,197,197.3,197.6,198.1,198.4,198.9,199.1,199.1,199,198.8,198.4,198.3,198.2,198,178.2,177.9,197.3,197.4,198,198,197.9,197.6,197.2,197,197,197,0,197,197,197,197,197,197,197,197,197,197,197,197,196.9,196.9,196.4,196.4,0,176.9,196.7,196.6,196.9,197,197,197,197,197,197,197,197,197,197,197,197,196.9,196.8,196.8,196.9,196.9,196.9,196.9,196.9,196.9,197,197,177.3,98.5,39.4,0,19.7,197,197,197,197,196.9,197,197,197,197,197,197,197,197,197,197,197,197,197,197,197,197,197,197,197,197,197,197,197,197,197,197,197,197,197,197,197,197,197,197,197,197,197,197,197,197,197,197,197,197,197,197,197,197,197,197,197,197,197,197,197,197,197,197,197,197,197,197,197,197,197,197,197
0,0,0,0,0,0,0,0,0,0,0,0,0,0,0,0,0,0,0,0,0,0,0,0,0,0,0,0,0,0,0,0,0,0,0,0,0,0,0,0,0,0,0,0,0,0,0,0,0,0,0,0,0,0,0,0,0,0,0,0,0,0,0,0,0,0,0,0,0,0,0,0,0,0,0,0,0,0,0,0,0,0,0,0,0,0,0,0,0,0,0,0,0,0,0,0,0,0,0,0,176.4,196,196,196,196,196,196,196,196,196,196,195.5,195.2,195.1,195,195.1,195.1,195.2,195.2,195.3,195.3,195.3,195.3,195.3,195.2,195.2,195.3,195.2,195.3,195.3,195.3,195.3,195.2,195.2,195.2,195.2,195.3,195.6,195.6,195.7,195.7,195.9,195.9,195.9,196,196,195.9,195.9,195.9,195.9,195.9,195.9,195.8,195.8,195.8,195.8,195.6,195.7,195.5,195.7,195.8,195.9,195.9,196,196,196,196,196,196,196,196,196,196,196,196,196,196,196,196,196,196,195.9,195.8,195.5,195.5,195.5,195.4,195.5,195.3,195.2,195.2,195.1,195.1,195.1,195.2,195.3,195.2,195.1,195.1,195.4,195.5,195.7,195.7,195.8,195.9,196,196,196,196,196,196,195.9,195.9,195.8,195.8,195.6,195.6,195.5,195.4,195.6,195.6,195.6,195.5,195.6,195.6,195.6,195.5,195.5,195.5,195.5,195.7,195.7,195.7,195.8,195.9,195.9,195.9,195.9,195.9,195.9,195.9,195.9,196,195.9,196,196,196,196,196,196,196,196,196,196,196,195.9,195.9,195.7,195.5,195.1,195.1,195.1,195.6,195.8,196,196,196,196,195.9,196,196,196,196,196,196,176.4,196,196,196,196,196,195.9,195.9,195.9,195.8,195.6,195.3,195.5,195.7,195.9,195.9,196,137.2,196,196,196,195.5,195.1,195,195.1,195,195.2,195.9,196,196,196,196,195.8,195.7,195.4,195.3,195.1,195.2,195.3,195.2,195.3,195.4,78.3,19.6,0,156.8,196,196,156.8,39.3,19.6,157,196.2,196.6,196.4,98,0,98,176.5,137.4,157.2,0,0,58.9,176.5,176.4,196,196,176.4,196,196,195.9,195.9,195.9,195.7,195.6,195.5,195.5,156.3,195.1,117.1,156.1,97.6,175.9,195.6,195.8,195.6,195.8,195.9,196,196,156.8,117.5,0,19.6,0,0,196.5,196.7,196.8,196.7,196.4,196.2,196.1,196,137.2,156.8,39.2,0,19.6,98.1,196.2,196.1,156.8,156.8,176.4,176.4,176.4,176.4,196,196,196,196,196,196,176.4,39.2,196,196,196.1,196.1,196.1,196,58.8,0,0,39.2,78.2,195.4,156.4,58.8,0,0,0,0,0,157.6,197,197,197,196.9,197,196.8,196.4,196.1,196.2,156.8,98,78.4,78.3,176.2,176.3,196,196,196,196,196,196,196,196,196,196,196,196,196,196,196,196,196,196,196.1,196.1,196.2,196.3,196.4,196.5,196.3,196.2,196,196,196,196,176.4,176.4,137.2,137.2,196,196,196,196,196,196,196,196,196,196,196,196,196.1,196.4,196.5,196.7,197.3,197.6,198,198.4,198.4,198.4,198,197.8,197.6,197.5,197.4,19.7,0,0,0,0,177.3,197,197,196.8,196.3,196.2,196.2,196.6,196.6,196.7,196.7,196.9,197,197,197,196.9,196.7,196.2,196.1,196,196,196,196,196,196,196,196,196,196,196.1,196.1,196.3,196.1,196.3,196.1,196,196,196,196.1,196,196,196,196,196.1,196.4,196.5,196.5,196.5,196.6,196.7,196.8,196.7,196.7,176.6,39.2,0,19.6,196.5,196.4,196.4,196.2,196.4,196.4,196.2,196.4,196.3,196.3,196.3,196.3,196.6,196.3,196.3,196.7,196.7,196.4,196.4,196.3,196.4,196.6,196.7,196.6,196.7,196.3,196.1,196,196.1,196.4,196.4,196.3,196,196,196,196,196,196,196,196,196,196,196,196,196,196,196,196,196,196,196,196,196,196,196,196,196,196,196,196,196,196.1,196.4,196.8,197,197,197,197,197,197,197,197
0,0,0,0,0,0,0,0,0,0,0,0,0,0,0,0,0,0,0,0,0,0,0,0,0,0,0,0,0,0,0,0,0,0,0,0,0,0,0,0,0,0,0,0,0,0,0,0,0,0,0,0,0,0,0,0,0,0,0,0,0,0,0,0,0,0,0,0,0,0,0,0,0,0,0,0,0,0,0,0,0,0,0,0,0,0,0,0,0,0,0,0,0,0,0,0,0,0,0,0,39.2,196,196,196,196,196,196,195.7,195.3,195.1,195,195,195,195,195,195,195,195,194.9,195,195,195,195,195,195,195,195,195,195,195,195,195,195,195,195,195,195,195,195,195,195,195,195,195,195,195,195,195,195,195,195,195,195,195,195,195,195,195,195,195,195,195,195,195,195.1,195.1,195.1,195.1,195.3,195.6,195.8,195.8,195.8,195.8,195.9,195.8,195.8,195.7,195.4,195.2,195,195,195,195,195,195,195,195,195,195,195,195,195,195,195,195,195,195,195,195,195,195,195,195,195,195,195,195,195,195,195,195,195,195,195,195,195,195,195,195,195,195,195,195,195,195,195,195.1,195.1,195,195.1,195.1,195,195,195,195,195,195,195,195,195,195,195,195,195,195,195,195.2,195.2,195.3,195.3,195.4,195.2,195.2,195.1,195,195,195,195,195,195,195,195,195,195,195,195,195,195,195,195,195,195,195,175.5,19.5,19.5,195,195,195,195,195,195,195,195,195,195,195,195,195,195,195,195,175.5,195,195,195,195,195,195,195,195,195,195,195,195,195,195,195,195,195,195,195,195,195,195,195,195,0,0,195,195,195.1,176,0,0,0,97.9,196,195.7,136.8,0,117.1,195.2,175.6,0,0,0,0,195.1,195.1,195.1,58.6,136.5,195,195,195,195,195,195,195,195,195,194.9,194.9,194.9,194.9,195,195,195,117,195,175.5,39,19.5,195,195,78,0,0,0,0,117.3,195.9,195.9,137.2,39.2,39.2,117.6,195.9,195.5,195.3,175.9,0,117.4,156.6,195.9,195.7,195.4,195.2,195.1,195,195,195,195,195,195,195,195,195,195,39,195.1,195.8,195.8,195.8,175.8,195,195,195,175.5,156,194.9,194.8,39,78,0,0,0,0,0,78.4,196,196.2,196.3,196.3,196.1,196,58.8,97.9,176,195.3,195.2,195.2,195.2,195.1,195.1,195.2,195.2,195.1,195.1,195.1,195.4,195.1,195,195,195,195,195,195,195,195,195.1,195.2,195.3,195.8,196,196,196,196,196,196,195.9,195.8,195.7,195.4,195.1,195,195,175.5,39,117,195.3,195.7,196,196,196,196,196,196,196,195.9,196,195.9,137.2,0,19.6,117.8,19.6,0,197.4,39.6,98.9,79.1,19.7,78.7,196.6,196.5,0,0,0,0,0,0,196,196,196,195.9,196,196,196,196,196,196,196,196,196,196,196,196,196,196,195.9,195.9,195.3,195.2,195.5,195.4,195.8,196,196,196,196,196,196,196,196,196,196,196,196,196,196,195.9,195.9,195.9,195.9,196,196,176.4,156.8,137.2,196,196,196,196,117.6,0,19.5,176.3,195.9,196,196,196,196,196,196,196.1,196.1,196.1,196.1,196.1,196.1,196,196.1,196,196,196,196,196,196,156.8,196,196,196,196,196,196,196,196,196,196,196,195.9,195.9,195.8,195.7,195.8,195.5,195.3,195.1,195.5,195.6,195.6,195.6,195.9,195.5,195.6,195.6,195.6,195.2,195.1,195.1,195.1,195,195,195,195.2,195.6,196,196,196,196,196,196,196,196,196,196.1,196.2,196.5,196.9
0,0,0,0,0,0,0,0,0,0,0,0,0,0,0,0,0,0,0,0,0,0,0,0,0,0,0,0,0,0,0,0,0,0,0,0,0,0,0,0,0,0,0,0,0,0,0,0,0,0,0,0,0,0,0,0,0,0,0,0,0,0,0,0,0,0,0,0,0,0,0,0,0,0,0,0,0,0,0,0,0,0,0,0,0,0,0,0,0,0,0,0,0,0,0,0,0,0,0,0,0,78.4,195.8,195.9,195.9,195.7,195.1,195,195,195,195,195,194.8,194.4,194.2,194.2,194.2,194.3,194.3,194.3,194.2,194.5,194.6,194.8,194.8,194.6,194.5,194.4,194.4,194.4,194.5,194.5,194.6,194.6,194.7,194.7,194.9,195,194.9,194.8,194.6,194.7,194.6,194.7,194.7,194.7,194.6,194.7,194.8,194.8,194.8,194.6,194.6,194.6,194.5,194.4,194.2,194.2,194.2,194.2,194.2,194.2,194.4,194.4,194.6,194.9,195,195,195,195,195,195,195,195.1,195.1,195.1,195.1,195,195,195,194.9,194.8,194.8,194.3,194.3,194.3,194.3,194.3,194.3,194.2,194.2,194.1,194,194,194.1,194,194,194.2,194.2,194.3,194.7,194.7,194.7,194.7,194.7,194.7,194.9,194.8,194.8,194.6,194.6,194.6,194.5,194.3,194.1,194,194,194,194,194,194,194,194,194.1,194.2,194.3,194.2,194.2,194.2,194.2,194.2,194.2,194.2,194.2,194.3,194.1,194.1,194.1,194.1,194.1,194,194,194,194.1,194.2,194.5,194.6,194.7,194.8,194.8,194.8,194.9,194.9,194.9,194.7,194.7,194.7,194.4,194.3,194.3,194.1,194.2,194.4,194.5,194.7,194.7,194.5,194.4,194.3,194.5,194.4,194.3,194.3,194.3,194.4,97.2,155.7,194.8,194.5,194.4,194.2,194.2,194.1,194,194,194,194,194,194,194,194,194,194,194.2,155.2,194,194,194,194,194,194.3,195,195,194.9,195,195,194.9,194.7,194.5,194.3,194.1,194,194,194,194,194,194,194,194,194,194,194.1,194.7,194.9,0,0,0,78,195,195,195,39,0,19.5,0,0,0,155.7,77.8,97.2,194.3,194.5,194.9,175.4,194.9,194.9,194.6,194.3,194.3,194.4,175.2,194.8,194.7,194.5,194.2,58.4,194.6,194.8,194.9,194.8,194.9,194.8,58.5,0,136,194,194,194,194,174.6,194,155.4,194.7,195,58.5,0,78,117,195,195,194.9,175.4,136.5,0,0,58.5,0,175.4,194.8,194.7,194.3,194.2,194.3,194.3,194.3,194.2,194.2,194.2,194.8,194.8,194.8,194.9,195,175.5,195,195,195,195,195,194.7,194.7,194.3,194,194,194,194,0,0,0,0,78,175.7,195.6,195.9,195.9,196,195.9,195.7,58.7,175.7,195.2,195,194.8,194.6,194.7,194.7,194.8,194.8,195,195,195,195,195,195,195,195,195,195,195,195,195,195,195,195,195,195.1,195.2,195.2,195.2,195.2,195.2,195.1,195.1,195,195,195,195,195,195,117,195,195,195,195,195,195,195,195,136.5,195,195,195,195,195,195,0,0,117.2,39.2,19.6,176.6,58.8,98.1,0,19.6,97.9,176.1,195.5,195.2,0,0,0,0,0,195,195,195,195,195,195,195,195,195.1,175.6,175.9,196,196,195.4,195.1,195,195,195,195,195,195,195,195,195,195,195,195,195.1,195.4,195.6,195.6,195.8,195.9,195.9,195.6,195.3,195.2,195,195,195,195,195,195.2,195.4,195.4,39,0,0,137,195.9,195.8,195.7,195.7,19.5,19.5,195.7,195.7,195.7,195.7,195.6,195.7,195.6,195.6,195.6,195.5,195.6,195.8,195.8,195.8,195.6,195.7,195.9,196,196,196,195.9,176.3,58.7,137.2,196,195.9,196,195.8,195.8,195.6,195.6,195.5,195.7,175.7,195,195,195,195,195,195,195,195,195,195,195,195,195,195,195,195,195,195,195,195,195,195,195,195,195,195,195,195,195.7,196,196,196,196,196,196,196,196,196,196
0,0,0,0,0,0,0,0,0,0,0,0,0,0,0,0,0,0,0,0,0,0,0,0,0,0,0,0,0,0,0,0,0,0,0,0,0,0,0,0,0,0,0,0,0,0,0,0,0,0,0,0,0,0,0,0,0,0,0,0,0,0,0,0,0,0,0,0,0,0,0,0,0,0,0,0,0,0,0,0,0,0,0,0,0,0,0,0,0,0,0,0,0,0,0,0,0,0,0,0,0,0,0,0,39,195.4,195,195,195,195,194.5,194.3,194.1,194,194,194,194,194,194.1,194.1,194.1,194.2,194.2,194.2,194.2,194.2,194.1,194,194,194,194,194,194,194,194,194,194,194,194,194,194,194,194,194,194,194,194,193.9,174.6,194,194,194,194,194,194,194,193.9,194,193.9,193.6,193.8,194,194,194,194,194,194,194,194.1,194.4,194.8,194.9,194.9,194.9,194.9,195,195,194.8,194.6,194.2,174.6,194,194,194,194,194,194,194,194,194,194,194,194,194,194,194,194,194,194,194,194,194,194,194,194,194,194,194,194,194,194,194,194,194,194,194,193.9,193.9,194,193.9,193.8,193.8,193.9,193.9,193.9,193.9,193.9,194,194,194,194,194,194,194,194,194,194,194,194,194,194,194,194,194,194,194,194,194,194,194,194,194,194,194,194,194,194,194,194,194,194,194,194,194,194,194,194,194,193.9,193.9,194,193.9,193.8,193.9,194,194,194,194,194,194,194,194,194,194,194,194,194,194,194,194,194,194,194,194,194,194,194,194,194,194,194,194,194,194,194,194,194,194,194,194,194,194,194,193.9,194,193.7,193.8,194,194,194,193.9,193.9,193.8,194,97,19.4,0,194,194,194,116.4,0,0,0,0,0,0,0,0,0,0,193.9,193.9,194,194,194,194,174.6,135.8,194,194,194,194,97,77.6,0,0,194,194,194,194,194,38.8,58.2,194,194,193.9,193.5,193.6,193.6,193.8,193.9,194,194,0,0,38.9,58.4,174.9,194.1,194.1,174.6,174.6,19.4,38.8,0,0,77.6,193.9,193.8,193.8,193.8,193.8,193.8,193.9,193.9,194,194,194,194,194,194,155.3,0,77.8,78,39,116.7,97.1,194.2,116.4,194,194,194,193.7,193.6,193.9,97,174.6,194.8,194.9,194.9,195,195,195.2,195.3,195.1,195,195,194.5,194.4,194.3,194.3,194.1,194.1,194.1,194.1,194.1,194.1,135.8,155.2,194,194.1,194.1,194.1,194.1,194.1,194,194.1,194,194.1,194,194.3,194.6,195,195,195,195,194.9,194.9,194.8,194.5,194.3,194.3,194,194,194,194,194,194,194,194,194.1,194.5,195,195,195,195,195,195,195,195,194.8,194.7,194.6,194.5,19.4,155.8,136.4,175.5,195.1,195.4,136.8,117.1,0,0,97.3,194.3,194,116.4,0,0,0,0,194,194,194,194,194.1,194.5,194.6,194.8,0,0,0,0,0,175.5,195,194.9,194.9,194.7,194.2,194.8,194.9,194.9,194.9,194.4,194.4,194.9,195,195,195,195,195,195,195,195,195,195,195,195,195,195,195,195,195,195,195,58.5,0,0,39,195,195,195,195.1,195.3,195.3,195.3,195.2,195.2,195.1,195.1,195.1,195.1,195.1,195.1,195.1,195.1,195.1,195.1,195.1,195.1,195.1,195.2,195.3,195.4,195.4,195.3,195.3,195.3,195.4,195.4,195.6,195.2,195.1,195,195,195,195,195,58.5,0,0,136.1,194.2,194,194.1,194.2,194.2,194.3,194.3,194.4,194.6,194.7,194.8,194.8,194.7,194.5,174.8,97,0,0,135.8,194,194.1,194.3,194.9,195,195,195,195.1,195.7,156.8,156.8,196,176.4,137.2,137.2,156.8,196
0,0,0,0,0,0,0,0,0,0,0,0,0,0,0,0,0,0,0,0,0,0,0,0,0,0,0,0,0,0,0,0,0,0,0,0,0,0,0,0,0,0,0,0,0,0,0,0,0,0,0,0,0,0,0,0,0,0,0,0,0,0,0,0,0,0,0,0,0,0,0,0,0,0,0,0,0,0,0,0,0,0,0,0,0,0,0,0,0,0,0,0,0,0,0,0,0,0,0,0,0,0,0,0,0,0,0,0,0,116.4,194,194,193.9,193.5,193.3,193.4,193.4,193.4,193.4,193.5,193.6,193.6,193.7,193.7,193.7,193.5,193.6,193.4,193.4,193.4,193.4,193.4,193.4,193.4,193.4,193.3,193.2,193.2,193.1,193.1,193,193,193,193,193,193,193.1,193.2,193.4,193.6,193.8,193.6,193.6,193.4,193.2,193.2,193.2,193.2,193.1,193.1,193.1,193.1,193.1,193.1,193.1,193.1,193.1,193.8,193.9,194,194,194,194,194.1,194.1,194.1,194,194,194,194,174.4,193.6,193.3,193.1,193.1,193.2,193.1,193.1,193.1,193.1,193.1,193.1,193.1,193.1,193,193,193,193,193,193,193.1,193,193.2,193.1,193,193.1,193.1,193,193,193,193,193,193,193,193,193,193,193,193,193,193,193,193,193,193,193,193,193,193,193,193,193,193,193,193,193,193,193,193,193,193,193,193,193,193,193,193,193,193.2,193.3,193.3,193.3,193.4,193.4,193.4,193.4,193.4,193.2,193.1,193.1,193.1,193.1,193.2,193.2,193.2,193.1,193.1,193.1,193.1,193.1,193,193,193,193,193,193,193,193,193,193,193,193,193,193,193,193,193,193,193,193.2,193.2,193.2,193.3,193.2,193.1,154.4,193,193,193,193,193.1,193.2,193.2,193.2,193.4,193.2,193.1,193.1,193,193,193,193,193,193,193,193,193,193,193,193,193,193,193,193,193,154.4,154.4,173.7,193,193,135.1,0,77.2,57.9,77,0,0,0,0,0,0,135.1,193,193.1,193.4,193.4,116,174.2,193.8,193.9,194,194,194,194,77.6,0,0,0,193.6,193.3,173.7,173.8,96.6,173.8,193.1,193,193,193,193,193,193,193,193,193,0,0,0,0,135.6,193.4,193.2,193.1,193,77.2,19.3,0,0,115.8,193,193,193,193.1,193.1,193.1,193.1,193.1,193.1,193.1,154.5,154.7,174.1,193.8,174.6,155.2,19.4,0,0,0,0,97,194,193.9,193.6,193.4,193.2,193,193,193.3,193.9,194,194,194.1,194.3,194.4,194.6,194.5,194.5,194.3,194,194,193.6,193.6,193.6,193.6,193.6,193.7,193.7,193.9,193.9,194,194,194,194,194,194,194,194,194,194,194,194,194,194,194,194,194.2,194.2,194.2,194.2,194.2,194.1,193.9,193.9,193.9,193.8,193.3,193.1,193.1,193.3,193.7,194,194,194,194,194,194,194,194,194,194,194,194,194,194,194,193.9,194,193.8,154.9,174.5,194,194,77.7,155.2,0,0,0,193.1,193,193,96.5,0,0,193,193,193.1,193.2,193.8,194,194,194,194,0,0,0,0,0,77.6,194,194,194,194,194,194,194,194,194,194,194,194,194,194,194.1,194.3,194.9,195,195,195,195,195,195,194.9,194.8,194.6,194.4,194.4,194.2,194.2,77.6,19.4,0,0,0,194.5,194.7,194.8,194.8,194.9,194.9,195.1,195.1,195.1,195,195,195,194.8,194.6,194.5,194.5,194.4,174.9,175.1,175.4,194.8,195,175.5,195,195,175.5,136.4,77.9,38.9,77.9,77.9,155.8,194.8,194.8,194.8,97.4,194.9,194.8,194.6,194,0,0,19.4,194,194,194,194,194,116.4,194,194,194,194,194,194,194,194,194,174.6,19.4,155.2,194,194,194,194,155.2,194,0,0,19.5,195,97.5,19.6,19.6,78.4,78.4,78.4,78.4,98
0,0,0,0,0,0,0,0,0,0,0,0,0,0,0,0,0,0,0,0,0,0,0,0,0,0,0,0,0,0,0,0,0,0,0,0,0,0,0,0,0,0,0,0,0,0,0,0,0,0,0,0,0,0,0,0,0,0,0,0,0,0,0,0,0,0,0,0,0,0,0,0,0,0,0,0,0,0,0,0,0,0,0,0,0,0,0,0,0,0,0,0,0,0,0,0,0,0,0,0,0,0,0,0,0,0,0,0,0,0,193.4,193.2,193.1,193,193,193,192.9,193,192.9,192.9,192.9,192.9,192.9,192.9,192.9,192.9,192.9,192.9,192.9,192.8,192.8,192.9,192.9,192.9,192.9,192.9,192.9,192.9,193,192.9,192.8,192.7,192.7,192.8,192.9,192.9,192.9,192.9,192.9,193,193,193,193,193,193,193,193,193,193,192.9,192.8,192.9,193,192.9,192.9,193,193,193,193,193,193.1,193.5,193.6,193.9,193.9,193.8,193.6,193.2,193,193,193,193,193,193,193,193,193,193,193,193,192.8,192.8,192.8,192.8,192.8,192.8,193,193,193,193,193,193,193,193,193,193,193,193,193,193,193,192.9,192.9,192.9,192.9,192.8,192.8,192.9,192.9,192.8,192.6,192.5,192.5,192.6,192.7,192.8,192.8,192.9,192.8,192.9,192.9,192.9,192.9,192.8,193,192.9,192.7,192.4,192.2,192.4,192.5,192.5,192.5,192.4,192.4,192.6,192.7,192.8,192.9,193,193,193,193,193,193,193,193,193,193,193,193,193,193,193,192.9,192.9,192.9,192.7,192.7,192.7,192.7,192.7,192.6,192.6,192.6,192.6,192.4,192.4,192.4,192.4,192.3,192.4,192.6,192.7,192.8,192.9,193,193,193,193,193,193,193,193,193,193,193,193,193,193,193,193,193,193,193,193,193,192.9,192.9,192.9,192.7,192.6,192.8,193,193,192.9,193,193,193,193,193,192.4,192.1,192,192.2,192.1,192.1,192,192,192,38.4,57.6,19.2,134.4,191.8,115.1,192,76.8,57.6,96,172.8,192,192.9,193,193,154.4,193,135.1,193,193,193,193,193,193,193,0,0,0,192.9,192.7,192.7,192.9,192.9,192.9,192.9,192.8,192.8,192.8,192.7,192.8,192.6,192.5,192.2,192.3,77,96.4,19.3,154.4,193,193,192.9,192.9,193,192.8,192.4,38.4,38.4,192.3,192.6,192.7,192.8,192.8,192.9,192.9,193,193,193,193,193,193,57.9,154.4,154.4,193,193.1,154.4,58,0,0,0,193.1,193,193,193,193,193,193,193,193,193.1,193.6,193.6,193.6,193.8,194,194,193.9,193.5,193.3,193.1,193,193,193,193,193,193,193,193,193,193,193,193,193,193,193,193,193,193,193,193,193,193,193,193.1,193.3,174,174,154.5,96.5,173.9,193.2,193.1,154.4,173.7,193,193,193,193,193,193,193,193,193,193,193,193,193.4,193,193,193,193,193,193,193,193,193,193,193,192.9,192.8,192.5,192.6,192.5,192.7,115.6,57.7,192.5,192.1,192,192,192.3,193,193,193,193,193,193,193,193,193,193,193,0,0,0,0,0,193.2,193.3,193.3,193.2,193.1,193.2,193.2,193.3,193.2,193.2,193,193,193,193.1,193.6,116.4,194,194,194,194.1,194.3,194.3,194.4,194.4,194.2,194.1,194,194,194,194,193.6,0,0,0,0,96.9,193.8,193.9,193.9,194.2,194.6,194.8,194.8,194.8,194.8,194.8,194.6,194.5,194.5,194,194,194,194.1,174.6,97,19.4,77.6,0,0,0,194.1,97,38.7,19.3,0,0,38.8,97,135.8,97,58.2,58.2,194,194,194,135.8,58.2,0,19.4,193.5,193.5,193.9,193.9,194,194,174.6,135.8,135.8,194,194,194,194,194,174.6,135.7,193.2,193,193,193,193.2,193.6,194,194,0,0,0,156,0,0,0,0,0,0,19.6,19.6
0,0,0,0,0,0,0,0,0,0,0,0,0,0,0,0,0,0,0,0,0,0,0,0,0,0,0,0,0,0,0,0,0,0,0,0,0,0,0,0,0,0,0,0,0,0,0,0,0,0,0,0,0,0,0,0,0,0,0,0,0,0,0,0,0,0,0,0,0,0,0,0,0,0,0,0,0,0,0,0,0,0,0,0,0,0,0,0,0,0,0,0,0,0,0,0,0,0,0,0,0,0,0,0,0,0,0,0,0,0,173.6,192.7,192.6,192.6,192.6,192.6,192.5,192.5,192.5,192.5,192.5,192.5,192.5,192.3,192.3,192.2,192.2,192.1,192.1,192,191.9,192,192,192,192,192,192,192,192,192,192,192,192,192,192,192,192,192,192,192.1,192.2,192.3,192.1,192.1,192.1,192.1,192.1,192.1,192,192,192,192,192,192,192,192,192.1,192.3,192.8,192.9,193,193,193,193,193,193,193,173.6,192.8,192.5,192.3,192.1,192.1,192,192,192.1,192.3,192.2,192.1,192.1,192.1,192.1,192.1,192.1,192.1,192,192,192,192,192,192,192,192,192,192,192,192,192,192,192,192,192,192,192,192,192,192,192,192,192,192,192,192,192,192,192,192,192,192,192,192,192,192,192,192,192,192,192,192,192,192,192,192,192,192,192,192,192,192,192,192,192.1,192.1,192.1,192.1,192.1,192.2,192.2,192,192,192,192,192,192.1,192.1,192,192,192,192,192,192,192,192,192,192,192,192,192,192,192,192,192,192,192,192,192.1,192.2,192.4,192.6,192.7,192.7,192.7,192.7,192.6,192.6,192.6,192.4,192.4,192.4,192.3,192.4,192.3,192.4,192.3,192.2,192.2,192.1,192,192,192,192,192,192,192,192,192,192.1,192,192,192,192,192,192,192,192,192,192,192,191.9,191.9,115.2,0,0,0,191,133.7,191,191,172.1,191.3,192,192,192,192,192,192,192,192,192,192,192,192,192,192,76.8,0,0,0,191.9,191.8,192,192,192,192,192,192,192,192,192,192,192,192,192,192,0,19.2,192,192,192.1,192,192,192,172.8,153.6,192,57.6,57.6,192,192,192,192,192,192,192.1,192,192,192,192,192,192.1,96.1,19.2,153.6,192,192.4,154.2,96,0,0,0,134.5,192.7,193,192.8,154,192.4,192.3,192.6,193,193,193,193,193,173.7,193,193,193,154.4,154.3,192.6,192.5,192.5,192.3,192.3,192.3,192.1,192.3,192.2,192.2,192.4,192.7,192.8,192.9,192.9,192.9,192.9,192.9,192.9,192.8,192.9,192.9,192.8,192.9,193,193,77.2,38.6,0,0,0,57.8,192.7,192.3,192.2,192.2,192,172.8,192,192,192,192,19.3,0,0,0,96.5,193,193,193,193,193,192.5,192.4,192.3,192.2,192,192,192,192,192,192,192,192,192,192,38.4,96,192,192,192,192,192,192,192,192,192,192.1,192.3,192.5,192.4,192.1,192,19.2,0,0,0,153.6,192.8,192.9,193,193,193,193,193,193,193,193,193,193,193,193,193,96.5,38.6,193.1,193.9,194,194,194,194,194,194,194,194,193.4,193.2,193.1,193,193,192.9,192.9,192.9,192.9,193,193,193.6,193.8,194,194.2,194.3,194.3,194.3,194.4,194.4,194.2,193.9,193.9,193.7,193.4,193.3,193.3,193.4,135.2,0,0,0,0,193,154.4,135.1,77.1,38.5,38.6,57.9,96.6,58,58,58.1,58.2,193.9,193.6,193.5,193.4,193.1,193.1,193,193.1,193.1,193.1,193.2,193.3,193.5,135.5,96.9,97,58.2,194,194,194,193.6,193.1,193,193,193,193,193,193,193,193,193.8,135.8,0,38.8,194.7,0,0,0,0,0,0,0,0
0,0,0,0,0,0,0,0,0,0,0,0,0,0,0,0,0,0,0,0,0,0,0,0,0,0,0,0,0,0,0,0,0,0,0,0,0,0,0,0,0,0,0,0,0,0,0,0,0,0,0,0,0,0,0,0,0,0,0,0,0,0,0,0,0,0,0,0,0,0,0,0,0,0,0,0,0,0,0,0,0,0,0,0,0,0,0,0,0,0,0,0,0,0,0,0,0,0,0,0,0,0,0,0,0,0,0,0,0,0,19.3,76.8,153.5,172.7,191.9,191.9,191.9,191.9,191.9,191.9,172.7,134.3,115.1,115.1,134.3,191.9,191.9,191.6,191.7,191.7,191.7,191.7,191.7,191.7,191.6,191.6,191.5,191.5,191.5,153,191.2,191,191,191.1,191.2,191.4,191.5,191.7,191.8,191.9,192,192,192,192,192,192,192,191.9,191.9,191.9,191.7,191.7,191.7,191.7,192,192,192,192,192,192,192,192,192,192,172.8,96,172.8,192,192,191.9,192,192,192,192,192,192,192,192,192,192,192,191.9,191.9,191.9,191.9,191.9,192,192,191.9,191.9,191.9,191.9,191.9,191.9,191.9,191.9,191.9,191.8,191.7,191.6,191.2,191.3,191.3,191.1,191.2,191.2,191.1,191.1,191.1,191.1,191.1,191,191,191,191,191,191,191,191,191,191,191,191,191,191,191,191,191,191,191,191,191,191,191,191,191,191,191,191.1,191.3,191.5,191.8,192,192,192,192,192,192,192,192,191.9,191.9,191.9,191.9,191.8,191.7,191.6,191.6,191.6,191.6,191.5,191.5,191.4,191.2,191.2,191,191.2,191.1,191.1,191,191.1,191.1,191.1,191.4,191.7,191.7,191.9,191.9,192.1,192.1,192.3,192.3,192.3,192.3,192.2,192.1,192.1,192,192,192,192,192,192,192,192,192,192,192,192,191.9,191.9,191.9,192,192,192,192,192,192,192,192,191.6,191.3,191.2,191.1,191.2,191.2,191.2,191,191,191,0,0,0,0,19.1,57.3,191,191,191,191,191,191,133.7,0,0,172.5,191.8,38.4,76.7,172.7,191.8,191.5,0,0,0,0,0,0,171.9,191,191,191.1,191.3,191.5,191.5,191.7,191.6,191.7,191.8,191.8,191.2,191.1,191,191,0,19.1,191,172.2,172.4,191.7,191.8,172.5,114.9,134,191.5,191.4,191.2,191.3,191.7,191.8,172.8,192,192,192,192,192,191.9,192,192,192,96,96,172.7,191.5,191.2,0,19.1,0,0,0,57.4,172.3,115.2,115.2,38.4,96,19.2,0,153.6,192,192.3,192.4,192.3,173.1,115.4,38.4,192.3,192,192,192,192,192,192,192,192,192,192,192,192,192,192,192,192,192,192,192,134.4,134.4,134.4,192,192,192,192,153.6,153.6,0,115.2,76.8,0,0,192,192,192,192,192,192,192,192,192,192,192,192,19.2,0,0,0,192,192,192,192,172.8,172.8,96,192,192,192,192,192,191.9,191.7,191.7,191.4,191.1,191,191,172,76.4,171.9,191,191.1,191.3,192,192,192,192,192,192,134.4,192,192,192,191.8,191.5,76.7,57.6,172.6,191.6,192,192,192,192,192,38.4,19.2,192.1,192.1,192,192,192,192,192,192.1,192.6,193,173.7,193,193,193,193.4,193.7,194,194,174.4,193.3,193.2,193,193,192.8,192.3,172.8,192,192,192,192.6,173.6,192.9,193.2,193.8,193.8,194,194.1,194.1,194,194,194,193.6,193.5,193.2,193.1,193.2,193.1,154.4,0,0,0,0,0,173,76.8,134.4,96,19.2,38.4,96,57.6,0,0,0,38.6,193,193,193,193,193,193,193,193,193,193,193,193.1,193,193.2,77.3,77.3,174.3,193.4,193.3,193.2,193,193,193,193,193,192.9,193,193,193,193,193,193,193.6,174.6,155.2,0,0,0,0,0,0,0,0
0,0,0,0,0,0,0,0,0,0,0,0,0,0,0,0,0,0,0,0,0,0,0,0,0,0,0,0,0,0,0,0,0,0,0,0,0,0,0,0,0,0,0,0,0,0,0,0,0,0,0,0,0,0,0,0,0,0,0,0,0,0,0,0,0,0,0,0,0,0,0,0,0,0,0,0,0,0,0,0,0,0,0,0,0,0,0,0,0,0,0,0,0,0,0,0,0,0,0,0,0,0,0,0,0,0,0,0,0,0,0,172,191.1,191.1,191.2,191.1,191.1,191.1,191.1,191,191,191,171.9,152.8,171.9,191,191,191,191,191,191,191,191,191,191,191,191,191,191,191,191,191,191,191,191,191,191,191,191,191,191,191,191,191,191,191,191,191,191,191,191,191,191,191,191,191,191.1,191.1,191.1,191.1,191.2,191.2,191.3,191.2,191.2,191,191,191,191,191,191,191,191,191,191.1,191.2,191.6,191.6,191.7,191.5,191.3,191.3,191.1,191.1,191.1,191,191,191,191,191,191,191,191,191,191,191,191,191,191,191,191,191,191,191,191,191,191,191,191,191,191,191,191,191,191,191,191,191,191,191,191,191,191,191,191,191,191,191,191,191,191,191,191,191,191,191,191,191,191,191,191,191,191,191,191,191,191,191,191,191,191,191,191,191,191,191,191,191,191,191,191,191,191,191,191,191,191,191,191,191,191,191,191,191,191,191.1,191.4,191.5,191.7,191.7,191.8,191.8,191.7,191.7,191.7,191.6,191.5,191.5,191.5,191.5,191.4,191.5,191.5,191.5,191.5,191.4,191.2,191.1,191.1,191.1,191.1,191.1,191.4,191.5,191.4,191.5,191.3,191.2,191.1,191.1,191,191,191,191,191,191,191,191,191,191,191,190.8,0,0,190.4,190.5,190.5,191,191,191,191,191,191,152.8,19.1,0,133.7,171.9,191,191,191,191,95.5,0,0,0,0,190,190,190.3,190.8,190.9,191,191,191,191,191,191,191,191,191,191,191,191,152.8,19.1,191,191,191,191,191,191,191,191,191,191,191,191,191,191,191,152.8,191,191,191,191,191,191,191,114.6,114.6,76.4,171.9,171.8,190.9,19.1,0,19.1,0,38.2,152.5,133.7,19.1,133.7,171.9,95.5,19.1,191,191,191.3,191.6,191.8,191.9,172.5,191.7,191.8,191.8,191.6,191.1,191,191,191,191,191,191,191,191,191,191,191,191.1,191.2,191.4,191.4,191.4,191.2,191.2,191.1,191,191,191,191,191,152.8,152.8,0,191,19.1,0,191,191,191,191,191,191,191,191,191,191,191,191,191,191,38.2,76.4,0,191,191,191,191,191,191,191,191,191,191,191,191,191,191,191,191,191,191,191,191,191,191,191,191,191,191,191,191,191,191,191.2,191.4,191.4,191.1,191.2,191,191,191,191,191,191,191,191,191.1,191.1,0,114.6,19.2,191.8,191.9,191.9,191.9,191.8,191.8,191.8,192,192,192,192,172.8,38.5,0,0,38.6,173.7,193.1,135.1,193,192.9,192.4,192.3,134.5,115.2,172.8,172.8,192,192,192,192.2,192.8,135,173.9,193.6,193.7,193.8,193.8,174.4,135.5,38.6,57.9,77.1,96.5,173.5,192.8,192.7,173.3,19.2,0,0,0,0,172.4,95.5,38.2,19.1,57.3,171.6,171.7,38.3,0,0,0,115.3,192.4,192.4,192.4,192.7,193,193,193,193,193,193,193,193,193,193,193,193.1,193.2,193.2,193,193,193,193,193,193,192.9,192.9,192.9,192.7,192.7,193,193,193,173.7,77.2,0,0,0,0,0,0,0,0,0
