0,0,0,0,0,0,0,0,0,0,0,4025,4025,4095.33,4030.71,4002.38,3964.67,3929.33,3906.67,3872.89,3850.78,3821.56,3764.2,3744,3712.7,3681.6,3658.3,3632.8,3601.6,3576.8,3558.7,3550.7,3528.5,3532.8,3524.8,3527.8,3530.9,3546.5,3555.7,3561.3,3566.6,3572.2,3567.6,3569.3,3563.2,3546.8,3522.4,3494.5,3465.4,3434.6,3408,3384.4,3365.5,3356.6,3342.3,3335.3,3331.9,3327.1,3333.2,3339.1,3341.2,3356.4,3363.5,3373.2,3384.9,3398.2,3414.1,3431.4,3440.2,3448.6,3456.7,3465.1,3475.4,3477,3488.8,3501.2,3507.5,3516.8,3573.44,3588.67,3552,3560.3,3578.3,3593.2,3609.9,3625,3639.7,3645.7,3717.56,3662.3,3728.33,3664.2,3658.9,3728.67,3676,3746.67,3691.3,3687.5,3688,3692.9,3689.6,3686.8,3669.7,3731.78,3711.33,3696.56,3681.33,3661.56,3649.56,3635.22,3628.33,3621,3604.33,3584,3587,3581,3581.29,3587.43,3590.43,3599.86,3609,3612.57,3622,3631.14,3640.43,3644,3660.14,3663.57,3669.71,3679.14,3682.71,3688.86,3691.43,3691,3693.57,3699.86,3705.86,3711.86,3721.57,3731.71,3742,3742.43,3755.71,3762.57,3765.86,3772.71,3775.29,4548.12,4550.62,4544.75,4536.25,4532.75,4532.38,4526.12,3734,3724.14,3714.57,3705.29,3702.43,3690.14,3684.57,3685.43,3680.57,3677.29,3677.29,3686.86,3696,3686,3695.14,3698.14,3694.29,3696.43,3689.86,3679.86,3670.14,3663.43,3654,3638.71,3629.71,3621,3602.71,3594.43,3600,3588.29,3582.43,3570.57,3556,3550.14,3541.14,3526.57,4322.62,4307.62,4299.88,4289.88,4280.25,4272.75,4905.11,4899,4886.33,4884.56,4883,4879.33,4882.22,4880.11,4885.44,4890.56,4255,4267.62,4273.62,4278.38,4288.88,4302.75,4308.75,4321.25,4334.88,4347.25,3555.57,4375,5011.67,5512.6,5521.9,5520.7,5525.7,5526.4,4408.25,3607.29,3589.86,3579.43,3562.57,3531.71,3507.86,3481.57,3458.43,3442.14,3415.14,3398.29,3379.71,3357.86,3339.57,3318.71,3305.29,3284.86,3266.14,3241.14,3216.29,3203.71,3183.71,3164.43,3148,3129.57,3120.71,3971,3965.12,3971.12,3965.38,3969.5,3971.88,4639.89,3972.25,5174.9,3968.5,4636.89,5171.8,4626.44,4616.33,4609.11,4602,4589.78,4584.67,4582.78,4577.78,4572.78,5121.5,3903.75,3045.71,3056.86,3072.43,3081.14,3088.29,3099.43,3112.57,3119.71,3124,3128.43,3121.57,3121.43,3123.29,3127.86,3120.86,3120.71,3120.71,3121.14,3119.57,3121.71,3122.57,3116,3116.29,3117,3115,3114.71,3105.86,3101.14,3102.57,3958.75,3956.25,3955.88,3953.38,4630.22,3966.62,5179.3,4650.89,4656,3998,4671.67,4673.44,4673.56,4671.78,5201.4,5198.1,5191.7,3975.62,3969.75,3954.25,3075.29,3062.14,3046.86,3029.71,3017,3006.43,2991.71,2981.71,2967.29,2957.43,2945.43,2939.57,2927.71,2924.14,2912.43,2904.86,2900.86,2897.14,2895.43,2895.57,2889.71,2889.71,2893.43,2893.43,2889.57,2891.43,2891.43,2889.43,2889,2887.29,2885.14,2883.14,2877.14,2877.14,2875.43,2867.57,2865.29,2859.71,2852,2846.29,3730.62,3717.62,3706.12,3694.88,3683.75,3668.38,3662.12,3648.25,3639.12,2720,2709.57,2702.86,2696,2685.86,2682.57,2675.71,2672.43,2669.29,2664.29,2659.29,2654.43,2646.29,2643,2636.57,2631.71,2623.57,2617.14,3534.62,4250.44,4244.33,4244.33,4239.56,4238.44,4232.44,4229,4225.56,4222,4217.22,4214.78,4210.11,4208.78,4204.11,4197.33,4192.67,4190.22,4184.44,4179.78,4176.22,4172.89,4170.67,4164.89,4163.78,4159.33,4155.89,4152.56,4148.22,4146,4139.33,2459.57,2452.71,2444.57,2437.57,2429.43,2421.71,2414.71,2409.43,2402.71,2398.57,2395.86,2393.14,2390.43,2390.29,2387.71,4077.11,4074.89,4071.78,4070.67,4067.56,4062.67,4057.33,4053.33,4048.33,4046.22,4041.33,4037.44,4032.67,4031.78,4028.78,4027.78,4026.78,4023.89,4022.11,4021.11,4020.11,4019.11,4018.22,4014.33,4011.33,4009.56,4006.78,4004,4001.11,3997.22,3994.44,3990.78,3985.22,3985.11,3977.89,3971.44,3969.56,3963.22,3957.67,2224.57,2219.86,2215.29,2206.29,2201.71,2198.43,2189.43,2186,2179.43,2174.86,2171.71,2168.57,2164.14,2162,2161,2160,2158.86,2156.43,2152.14,2149.14,2142.57,2140.57,2135,2129.86,2122.29,2116.29,2109.14,2104.14,2100.14,2093.43,2088.43,2082.29,2081.29,2077.29,2075.29,2075.43,2071.43,2069.43,2069.57,2065.43,2063.43,2057.71,2053.71,2049.86,2045.29,2047.17,2040.33,2034.83,2035.2,2031.2,2034,2037,2032.33,2025.67,2021,2023.33,2016.67,2017,2017,2019,2025.5,2019,2019,2019,2012.67,2010.33,2012.5,2019,2012,2006,2006,0,0,0,0,0,0,0,0,0,0,0,0,0,0,0,0,0,0,0,0,0,0,0,0,0,0,0,0,0,0,0,0,0,0,0,0,0,0,0,0,0,0,0,0,0,0,0,0,0,0,0,0,0,0,0,0,0,0,0,0,0,0,0,0,0,0,0,0,0,0,0,0,0,0,0,0,0,0,0,0,0,0,0,0,0,0,0,0,0,0,0,0,0,0
0,0,0,0,0,0,0,0,0,0,0,4051,4036.67,4106.83,4059.5,4025.22,4014,3974.89,3945.67,3928.22,3899.78,3867.11,3820.2,3791.8,3763.9,3732.3,3704,3673.7,3645.8,3622.7,3608.1,3591.7,3582.8,3567.9,3563.3,3563,3568.6,3574.1,3590.3,3598.1,3596.1,3601.8,3599.4,3586.9,3580.4,3557.5,3535.4,3501.3,3469.9,3443.3,3413.3,3389,3370.4,3354.1,3346.8,3332.4,3326.8,3331.1,3335.1,3335.2,3344.9,3353,3357.2,3366.3,3378,3391.7,3407.1,3423.1,3438,3446,3460.2,3467,3481,3484.4,3496,3507.1,3512,3512.4,3526,3537.9,3553,3567.8,3580.6,3590.7,3605.9,3622.6,3632.9,3715.11,3655.2,3730.33,3671.9,3743.22,3743.67,3748.89,3756.56,3763.89,3771.78,3774.78,3711.7,3707.9,3700.3,3696.2,3767.78,3752.33,3729.33,3724.33,3704.33,3684.11,3669.22,3657.22,3652.78,3643,3620.88,3623.78,3589.86,3607.88,3590.14,3599.29,3605.43,3609,3618.71,3624.71,3634.57,3637.86,3644.43,3645.29,3663.86,3664,3679.71,3683,3689.43,3689.43,3698.71,3704.43,3704,3710,3718.71,3721.43,3731,3741,3744.43,3757.71,3761,3778,4558.25,4561.12,4566.88,4561.25,4566.75,4563.88,4560.88,4551.88,4554.38,4539.62,4531.38,3740.43,3730.43,3727.71,4503.88,3719.57,3714.29,3708.86,3706.43,3700.14,3703.57,3703.71,3706.71,3703,3705.71,3708.43,3707.14,3700.29,3696.43,3689.14,3685.57,3675.86,3667,3663.86,3645.57,3639.71,3627.71,3615.57,3618.86,3610.14,3604.14,3598,3589,3574,3573.57,3556.29,4348.5,4332.88,4320,4309.88,4297.5,4290,4282.75,4911.44,4903.33,4897,4891,4889.33,4889.78,4888,4886.67,4891.33,4896.56,4263.75,4273.88,4284.25,4292.25,4302.88,4313.88,4326.88,4342.5,4978.33,4992.78,4382.38,5519.3,5521.1,5534.6,5536.1,5043.33,3630.71,3629,3627.86,3620.14,3605.86,3597.29,3584.43,3560.29,3536.14,3518.57,3501.29,3481,3467.29,3448,3426.14,3403.86,3391,3374.29,3353,3331,3305,3281.43,3249,3228.57,3206.57,3184.86,3163.86,4668.89,4656.33,4649.33,4646,4646.33,4642.89,4643.11,4643.33,5177.5,4640.33,4638.56,5176.2,4634.78,4628,4614.11,4612.33,4601.67,4592.89,4584.33,4582.56,4579.22,4577.67,5121.4,4589.33,3056.43,3067.71,3081.14,3088,3101.14,3108.14,3121.57,3128.71,3140,3137.57,3139.86,3139.57,3146.14,3146.29,3148.43,3141.57,3141.71,3144.43,3149.14,3147.43,3145.71,3148.43,3146.43,3146.71,3144.29,3144.43,3139.29,3134.57,3124.86,4652.44,4646.22,4644.44,4639.11,5181.1,4647.22,5185.5,4652.33,4657.44,4664.67,4668.22,4666.33,4662.78,4657.44,4655.67,5183.9,5176,5168.1,4624.33,4612.44,3927.5,3049.14,3038.29,3025.43,3014.86,3002.29,2993.86,2979.57,2967.14,2961.14,2949.43,2943.57,2937.57,2927.86,2922.14,2910.29,2906.29,2900.57,2896.71,2894.71,2891.14,2892.86,2893,2891.14,2891.14,2893,2888.86,2892.71,2890.86,2886.71,2887,2883,2881,2881.29,2877.43,2873.57,2869.43,2863.43,2853.57,2846.29,3727.38,3716,3699.75,3688.62,3677.5,3662.12,3651.38,3639.25,2723.57,2714.86,2704.57,2699.43,2691,2687.43,2679.14,2674.14,2675.71,2672.57,2669.14,2667.43,2659.43,2652.86,2648,2641.29,2631.71,2627,3542.88,3537.25,3533.38,4248.11,4244.56,4238.33,4234.89,4230.11,4225.44,4219.67,4216.11,4212.56,4208,4205.56,4200.78,4198.33,4195,4189.11,4188,4183.22,4179.78,4175.11,4174,4169.44,4167.22,4163.67,4160.33,4161.44,4155.89,4151.44,4146,3408,3403.12,3396.12,2445.86,2437.71,2428.14,2420.14,2413.43,2405.43,2400,2395.86,2391.86,2389.14,2386.43,3335.75,3336.75,3332.12,4071,4069.89,4069.78,4066.67,4061.44,4057.44,4052.33,4046.44,4042.44,4039.33,4038.33,4033.44,4031.67,4029.78,4027.78,4026.78,4024.89,4023,4022,4021,4019,4018,4014.22,4012.44,4011.56,4005.67,4003.89,4000.11,3995.56,3991.89,3988,3982.44,3978.78,3974.22,3968.67,3964.11,3958.78,3955.11,3193.62,3190.5,3184.62,3180.75,3176.62,2192.86,2190.57,2186,2181.71,2176.29,2171.71,2170.86,2167.57,2166.29,2162,2162.14,2157.71,2157.71,2154.43,2151.14,2145.86,2142.57,2137.14,2130.71,2123.57,2118.29,2111.29,2106,2100,2093.43,2087.29,2082.43,2079.43,2076.29,2074.43,2071.43,2068.43,2067.29,2064.43,2061.43,2059.43,2055.71,2050.86,2046,2041.29,2041.29,2040.33,2036,2038,2032.4,2028.6,2027.5,2032.33,2025.33,2023.33,2021,2016.67,2018.67,2014.67,2012.67,2019,2015.5,2012.5,2012.67,2012.5,2015.5,2012,2009,2006,2006,0,0,0,0,0,0,0,0,0,0,0,0,0,0,0,0,0,0,0,0,0,0,0,0,0,0,0,0,0,0,0,0,0,0,0,0,0,0,0,0,0,0,0,0,0,0,0,0,0,0,0,0,0,0,0,0,0,0,0,0,0,0,0,0,0,0,0,0,0,0,0,0,0,0,0,0,0,0,0,0,0,0,0,0,0,0,0,0,0,0,0,0,0,0,0
0,0,0,0,0,0,0,0,0,0,0,4105,4154.4,4111.38,4101.62,4060.56,4042.78,4009.44,3985.67,3956.56,3920.7,3892.7,3883.22,3834.7,3808.3,3775.8,3746.7,3723.1,3687.6,3668.3,3650.9,3637.1,3621.8,3612.4,3603.9,3601.2,3603.1,3611.5,3615.7,3620.3,3613.9,3611.5,3600.4,3593.8,3577.5,3560.7,3534.3,3500.7,3469.1,3438.6,3412.5,3392.2,3373.7,3362.7,3349.9,3347.9,3338.8,3337.3,3345.2,3347.2,3345.9,3359,3361,3368.9,3382.8,3390.9,3407,3420.7,3433.1,3449.6,3458.6,3467.8,3482.6,3488.4,3501.3,3510.8,3514.1,3517.8,3530.4,3540.1,3550.9,3567.6,3649.22,3586,3675.78,3617.3,3632.7,3649.1,3724.89,3669.5,3745.44,3748.44,3753.67,3756.11,3774,3774,3784.44,3785,3793.22,3796.44,3788.89,3788.67,3783.44,3762.89,3752.33,3734.89,3721.89,3704.44,3692.22,3672.11,3667.44,3662.89,3650.44,3645.78,3649,3655.5,3602.14,3602.14,3605.43,3611.86,3624.71,3628.14,3628.14,3640.86,3641,3651.14,3661.43,3668,3674.29,3680.71,3683.71,3689.57,3702.14,3704.86,3714,3716.57,3722.14,3734.71,3744.43,3757.14,3760.71,3764.29,3777.71,3784.29,3797.29,4575.38,4578.12,4581.12,4577.75,4571.5,4565.62,4565.62,4562.5,4559.88,4545.5,3750.43,3750.86,3738,3735.71,4522.5,4518.12,4513,4505.75,4505.75,3724.43,3733.57,3726.71,3722.71,4510.38,3718,3717.29,3723,3719.14,3709.14,3692.43,3689,3685.71,3683,3664,3652,3640.29,3631.29,3637.43,3637.86,3628.86,3625.14,3610.43,3598.29,3595,3583,4376.75,4358.62,4350.75,4337.5,4327.25,4314.88,4307.5,4292.62,4918.22,4909.67,4903.56,4895.33,4893.11,4895.89,4898.44,4899,4899.22,4906.11,4281.88,4285.25,4293.5,4305.75,4309.12,4324.62,4971.33,4978.78,4993.11,5006.89,5019.56,5524.8,5531.7,4422.5,4432,4447.75,3644.29,3645.43,3643,3638.86,3631,3614.14,3605,3589.57,3574.29,3554,3548,3530.43,3513.29,3499.14,3479.43,3457.14,3437.29,3420.71,3396.14,3361.29,3339.57,3305.71,3275,3242.57,3220.71,4706.44,4690.11,4675.78,4665.22,4656.56,4654.78,4651.44,4651.67,5180.4,4643.22,5179.2,5179.2,5172.9,5172.8,5167.9,5158.6,5150.7,5142.8,5136.6,5130.4,5128.9,5127.3,5127.3,5131.9,5137.8,3934,3080.71,3092,3101.14,3112.43,3126.43,3140.29,3144.71,3153.86,3160.71,3160.43,3162.71,3171.86,3169.43,3167.29,3169.57,3169.86,3172.29,3172.71,3175.43,3173.71,3171.71,3171.57,3174.43,3167.57,3164.71,3164.14,4010.12,3151.71,4666,4665.56,4659.78,4656,5190.4,4653.89,5188.6,4653.89,4650.33,4655.67,4657.44,5191.7,5185.4,5180.8,5177.7,5174.5,5166.6,5161.9,5149.6,4605.67,4597.11,3042.57,3036.14,3023.29,3014.86,3006.57,2996,2987.86,2975.57,2965.14,2959.29,2951.43,2941.43,2935.43,2927.86,2917.57,2911.86,2904,2901.86,2898.29,2898.29,2896.29,2898.29,2892.43,2892.43,2896.57,2892.57,2892.71,2890.71,2892.57,2890.57,2886.86,2885,2883.14,2877.43,2873.57,2869.43,2863.43,2853.86,2842.43,2827.71,3711,3698.25,3684,3668.38,3659.12,3645.5,2728.86,2718.43,2711.57,2703,2697.86,2692.71,2692.71,2687.57,2679.14,2679.14,2680.86,2679.14,2674.29,2667.57,2661,2657.71,2649.57,2643.14,3553,4262.78,4255.56,4250.67,4248.22,4816.7,4813.5,4807.2,4804.1,4798.8,4796.6,4791.2,4785.9,4784.9,4781.8,4775.6,4771.3,4770.2,4768.2,4766,4763,4759.9,4757.8,4756.7,4754.4,4752.4,4749.4,4747.3,4743.3,4739.3,4153.67,4148.33,4140.56,4136.11,3397.25,3390.25,3380.62,2425.43,2418.57,2410.57,2406.71,2400,2391.86,2389,2389,2385,3335.62,4073,4072,4070.89,4069.78,4658.3,4655.4,4654.4,4647.3,4645.3,4642.6,4639.1,4636.4,4633.6,4631,4629.2,4628.4,4626.7,4625.8,4624.1,4623.2,4620.7,4619.8,4618,4616.3,4614.4,4610.2,4607.7,4605.1,4601,4600.2,4595.1,4590.9,4586.7,4582.5,4578.4,4573.5,4569.4,4565.3,4561.3,4557.3,3948.11,3943.78,3940.22,3934.89,3932.11,3929.56,3163.88,3162.88,2181.57,2176.29,2171.86,2169.57,2168.43,2166.29,2164.29,2163.14,2161,2160,2156.71,2153.43,2147.86,2143.57,2138.29,2132.86,2126.43,2118.14,2111.14,2104,2097.71,2091.43,2085.29,2082.29,2077.29,2074.29,2073.43,2069.29,2066.29,2065.29,2060.43,2060.43,2055.57,2051.86,2049.86,2046,2043,2039.29,2042.5,2035.83,2031.67,2034,2027.2,2029.25,2032.33,2030,2021.33,2019,2016.67,2016.67,2014.67,2016,2012.5,2019,2019,2012.5,2012.5,2015.5,2012,2009,2006,2006,0,0,0,0,0,0,0,0,0,0,0,0,0,0,0,0,0,0,0,0,0,0,0,0,0,0,0,0,0,0,0,0,0,0,0,0,0,0,0,0,0,0,0,0,0,0,0,0,0,0,0,0,0,0,0,0,0,0,0,0,0,0,0,0,0,0,0,0,0,0,0,0,0,0,0,0,0,0,0,0,0,0,0,0,0,0,0,0,0,0,0,0,0,0,0
0,0,0,0,0,0,0,0,0,0,0,4068.5,4196.71,4176.14,4108.44,4093.33,4078.56,4044.22,4026.44,3999.33,3952,3926.3,3896.1,3874.4,3852.3,3816.9,3792.4,3757.5,3731,3708.8,3693,3676.4,3664.8,3648.8,3641.9,3639.5,3626.7,3633.5,3636.4,3630.2,3626.7,3617.8,3598.2,3591.5,3570.5,3547.4,3517.2,3481.7,3454.9,3426.6,3406.9,3384.9,3375.3,3362.7,3351.5,3346.4,3342.7,3346.1,3344.9,3344.4,3356.2,3358.2,3362.6,3368.8,3378.6,3390.2,3400.9,3414.6,3424.7,3440.4,3456.6,3465.7,3479.4,3489.1,3507.2,3512.3,3514.5,3521.6,3527.6,3537.2,3554.1,3558.2,3570.9,3581.8,3598.4,3618,3625.4,3640.2,3727.67,3735.44,3743.11,3753.22,3763.78,3768.78,3779.22,3789.44,3795,3797.78,3800.89,3809.33,3804.78,3801.78,3794.67,3781.56,3768.44,3755.44,3743,3727.56,3707.11,3697.11,3690.11,3679.89,3665,3657.89,3661.11,3651,3608,3602.14,3611.71,3621.14,3624.71,3634,3631.57,3631.71,3641.57,3648.14,3661.86,3668.43,3675,3678.14,3687.86,3693.57,3702.71,4502.88,3713.71,4504.62,4506.88,3734.43,3741.29,3760.57,3763.86,3773.86,3783.43,3789.86,5180.11,5185.44,5190.44,5190.44,5187.33,5187.44,4582.88,4574,4573.88,4568.38,4554.25,3770.43,3764.57,3765.14,3756.71,3755,4536.38,4535,4524.25,4524.88,3742.86,3745.86,3745.14,3737.57,4522,4521.62,3741.71,3730.86,3727,3722.86,3712.57,3705.57,3699,3689,3680.29,3670.86,3658.71,3655.71,3655.71,3656.71,3647.57,3649.86,3637.86,3632,3619.71,3610.43,4403.62,4387.62,4379.5,4363.5,4350.62,4973.44,4960.11,4948.67,4940.11,5438.4,5428.4,5424.6,5418.9,5417.2,5411.9,5414.1,5416.5,5422.5,5428.6,4922.89,4934.33,4941.78,4951.11,4955.78,4967.56,4981.56,4991.56,5005.78,5020.22,5021.22,4413,3623.57,3639.43,3648.71,3653.57,3654.71,3656.43,3654.43,3650.57,3640.29,3639.43,3626.86,3624.14,3617.29,3608.57,3596.43,3581.43,3566.57,3549.29,3529.57,3515,3489.29,3460.86,3427.14,3397.14,3357.14,3323.14,3287.29,5280.1,4731,4710,4697.22,4681.22,4672.22,4665.44,4662,5192.8,4655.33,5189.9,5182,5182.1,5177.3,5178.5,5169.4,5162.8,5155,5148.6,5140.9,5137.7,5137.7,5136.2,5136.3,5139.3,5150.1,5156.5,3091.86,3105.57,3119.14,3135.29,3146.86,3162.86,3165.43,3179.86,3186.57,3186.43,3193.43,3195.86,3198.14,3200.14,3200.43,3198.14,3201,3194.14,3201.43,3197,3197.43,3194.86,3192.57,3195.14,4039.25,3182.71,4028,3169.86,4016.75,4008.12,4666.56,4661.11,4659.33,4655.67,5190,4652.22,4654,4650.56,4650.56,5180.8,5174.6,5168.4,5165.3,5160.6,5156,5151.3,5143.5,5135.9,4592,4587,3034,3025.43,3014.71,3008.57,2998.14,2989.86,2983.43,2975.57,2965.14,2959.29,2951.29,2943.43,2935.57,2929.43,2921.29,2917.57,2907.71,2905.57,2902,2894,2898.14,2894.29,2896.14,2896.29,2892.29,2890.57,2892.71,2892.86,2890.86,2888.86,2887,2885,2875.43,2873.43,2867.57,2857.86,2846.29,2838.86,2827.71,2809.14,2794.43,2774.71,2762,2748,2739.43,2727.14,2718.57,2711.86,2708.29,2699.86,2699.71,2696.43,2692.86,2691.14,2692.71,2687.71,2686,2679.29,2674.29,2665.86,2661.14,2654.86,2644.57,2635,3547.25,4258.11,4250.78,4821.4,4817,4811.5,4805.2,4802,4794.4,4791.2,4787,4784,4779.6,4776.5,4774.5,4769.2,4767.2,4766.2,4763,4762,4758.9,4756.8,4755.7,4754.7,4753.6,4749.5,4747.4,4745.3,4741.4,4736.4,4148.11,4140.56,4136.11,3395.88,2444.29,2437.57,2426.71,2418.43,2411.71,2405,2398.57,2393,2387.57,2386.43,2383.43,2380.86,3333.38,4070,4069,4067.89,4658.2,4656.3,4652.8,4649.3,4644.5,4642.7,4640.9,4637.4,4634.7,4632,4631.9,4629.2,4628.3,4625,4625,4623.2,4621.4,4621.4,4618.8,4617.1,4614.4,4611,4607.8,4605.1,4600.1,4598.4,4594.2,4590,4585.8,4581.8,4576.9,4574.3,4568.6,4566.3,4559,4555.7,4551.7,4547.7,3937.56,3934,3931.22,3929.56,3165.88,3161.88,2182.86,2177.29,2176.29,2174,2170.57,2166.14,2167.14,2165.29,2160.86,2159.86,2155.57,2151.14,2147.86,2144.71,2140.43,2133.86,2127.71,2121.14,2114,2107,2099.86,2094.57,2089.43,2083.29,2079.29,2076.29,2074.43,2071.29,2067.43,2064.29,2062.29,2057.57,2055.71,2052.86,2048.86,2044.86,2043.86,2040.14,2036.29,2033.57,2030.71,2029.33,2027.2,2026,2034.67,2028,2025.67,2019,2025.5,2022,2019,2026,2026,2019,2012.5,2012.5,2012,2015.5,2012,2009,2012,2006,0,0,0,0,0,0,0,0,0,0,0,0,0,0,0,0,0,0,0,0,0,0,0,0,0,0,0,0,0,0,0,0,0,0,0,0,0,0,0,0,0,0,0,0,0,0,0,0,0,0,0,0,0,0,0,0,0,0,0,0,0,0,0,0,0,0,0,0,0,0,0,0,0,0,0,0,0,0,0,0,0,0,0,0,10000,10000,10000,10000,10000,10000,10000,10000,10000,0,0
0,0,0,0,0,0,0,0,0,0,0,4108,4186.17,4196.57,4129.89,4117.44,4095.89,4067.89,4040.89,4025.67,4006,3958.2,3928.5,3905.9,3884,3858.2,3827.9,3802.7,3777,3749.8,3730.8,3716,3704.3,3692.2,3676,3667.1,3669.8,3620.33,3611.11,3652.9,3637.3,3625.1,3599.1,3545.89,3561.3,3532.2,3500.5,3467.6,3443.4,3423,3401.6,3384.8,3372.1,3361.2,3355.5,3348.7,3353.4,3349.7,3354.8,3358.6,3359.1,3364.2,3366.9,3374.8,3382.9,3389.4,3403.5,3412.9,3427.6,3435.6,3450.3,3468.4,3476.8,3490.5,3506.1,3513.2,3515.2,3516.9,3533,3535,3543.2,3553.7,3566.5,3576.3,3591.5,3602.7,3690.33,3705.22,3720.11,3730.44,3740.67,3753.33,3768.89,3769,3781.89,3795.11,3797.56,3805.78,3814.22,3820.33,3815.89,3818.11,3810.22,3802.78,3789.56,3776.44,3761.11,3743,3724.56,3711.78,3704.56,3689.67,3679.78,3675.33,3675.89,3685.44,3620,3623.43,3623.71,3627.14,3630.71,3637,3637.57,4431,4431.12,3642.86,3661.86,3665.71,3665.86,3678.29,3681.57,3696.43,4492.75,4500.38,5111,4507.25,5122.22,4520.25,4529,4543,4546,5157.11,5167.44,5180.33,5185.44,5190.33,5187.56,5190,5189.89,5187,4582.62,4576.5,4573.75,4568.38,4560.12,4555.12,4550.12,3766,3761.14,3758.71,4540.25,4538.62,4537.25,4532,4532.38,3757.57,4539.88,4533,4535,4533.75,3745.57,3754.43,3750,3745.29,3728.86,3721.43,3718.14,3711.71,3701.86,3683.14,3677.43,3671.86,3675.29,3678.43,3675.86,3669.14,3663.14,3657.14,3647.86,3641.57,3629,4417.25,4409.12,4395.38,4385,4992.44,4982.78,4976,4962.33,4949,5444.1,5438.3,5432.5,5432.6,5426.8,5424.9,5421.3,5429.4,5429.8,5432,4935.89,4938.22,4947.67,4959.11,4968.22,4983,4992.44,4999.89,5014.67,5522.3,4413.88,4422.75,4432.75,3649.71,3657.57,3658.86,3670,3665.71,3674.43,3670.29,3669.71,3666.29,3662.86,3659.86,3656.43,3643.71,3634.86,3619.57,3595.43,3586.43,3568.57,3539.57,3505.57,3474.29,3437.86,3396.86,3359.29,5331.4,5306.4,5283.6,4738.56,5244.1,5231,5221.4,5216.5,5208.5,5202.2,5200.8,5194.4,5191.3,5186.7,5181.6,5181.6,5176.6,5168.8,5163.9,5159.2,5152.9,5148.2,5151.3,5152.8,5156,5159.3,5165.6,5173.6,3118.86,3137.14,3144.29,3160.71,3169.71,3186.43,3200.86,3205.43,3214.86,3217.29,3219.57,3231.71,3232.14,3231.86,3234.43,3227.29,3227.43,3227.71,3227.57,3222.57,3218.14,3213.14,3215.71,3208.14,3200.86,3196,4039.75,3183.29,4024.5,4682.89,5206.2,5203,4661.11,4659.33,5190.1,5183.8,5183.9,4645.33,5179.2,5173,5168.5,5162.2,5159.1,5154.5,5148.2,5145.1,5137.5,5132.9,5128.4,4580.33,4580.33,3027.57,3017,3012.71,3002.29,2996.14,2991.86,2983.57,2977.43,2967.29,2959.29,2951.29,2945,2939.14,2929,2925.14,2921,2909.14,2903.57,2901.43,2895.86,2896,2896.29,2894.14,2890.57,2890.71,2888.86,2890.86,2888.86,2887,2887,2881.29,2879.43,2869.43,2863.71,2855.71,2844.43,2831.71,2822.14,2803.43,2789.29,2774.71,2758.43,2746.14,2734.43,2727.29,2718.71,2713.43,2706.57,2708.29,2704.86,2703.14,2704.86,2699.71,2698,2696.29,2694.57,2689.43,2682.86,2672.71,2667.86,2659.43,2649.86,2641.57,3551.5,3541.75,4251.89,4820.3,4817.1,4809.3,4806.3,4798.7,4792.3,4787,4785,4779.8,4776.5,4773.5,4768.4,4766.2,4764.1,4762.1,4760.1,4759.1,4759,4759,4756.9,4754.8,4752.6,4748.6,4748.6,4745.4,4741.4,4740.4,4149.33,4141.56,3403.25,3398.38,2445.57,2437.29,2429.29,2419.71,2411.57,2403.43,2399.57,2394,2387.29,2386.14,2382.14,2380.86,2377,3328.62,3322.88,4065.78,4657.4,4654.7,4651.2,4647.4,4644.7,4643.7,4640.9,4639.1,4634.7,4631.1,4630.2,4630.2,4628.4,4628.4,4626.6,4624.2,4623.2,4621.5,4618.9,4618,4613.7,4608.6,4607.7,4603.6,4599.1,4595.8,4591.8,4587.5,4584.2,4579.3,4576.9,4571.1,4567.1,4563.1,4559.8,4555.8,4550.2,4548.6,3938.44,3934.89,3930.44,3928.67,3166.88,3163.88,3160.88,2181.57,2177.43,2175,2171.71,2169.57,2164.14,2165.29,2162.14,2158.86,2157.71,2152.43,2148,2144.71,2140.43,2136.29,2128.71,2121.29,2113,2109,2103.86,2099.71,2091.71,2088.57,2083.14,2078,2075.29,2069.43,2066.43,2064.43,2062.29,2057.71,2053.86,2052.71,2049.86,2047.86,2042.86,2041,2038.29,2035.43,2030.57,2029.57,2024,2023.67,2022,2024.25,2035.5,2032.5,2025.5,2022,2019,2026,2019,2019,2009,2009,2012,2009,2009,2009,2012,2006,0,0,0,0,0,0,0,0,0,0,0,0,0,0,0,0,0,0,0,0,0,0,0,0,0,0,0,0,0,0,0,0,0,0,0,0,0,0,0,0,0,0,0,0,0,0,0,0,0,0,0,0,0,0,0,0,0,0,0,0,0,0,0,0,0,0,0,0,0,0,0,0,0,0,0,0,0,0,0,0,0,0,0,0,10000,10000,10000,10000,10000,10000,10000,10000,10000,0,0
0,0,0,0,0,0,0,0,0,0,0,4136,4254.86,4186.25,4154.56,4138.89,4117.56,4086.78,4062.11,4041.67,3990.3,3975.8,3951,3930.6,3904.3,3880.5,3854.6,3833.9,3808.4,3785.1,3770.8,3756,3738.2,3727.5,3716.8,3709.3,3701.5,3693.6,3678,3670.7,3654.7,3633.5,3604.6,3579.4,3552.5,3523.5,3491.8,3452.8,3428.8,3407.2,3393.1,3384.8,3377.1,3368,3364.5,3357.4,3358.5,3365.9,3369.3,3376.7,3382.3,3383.9,3389.1,3392.9,3397,3405.3,3413.9,3424,3429.7,3440.2,3454.3,3470.1,3480.8,3491.1,3502.6,3508.4,3511.8,3515.8,3528,3529.8,3537.5,3546.4,3550.3,3562,3573,3586.1,3598.4,3613,3702.78,3645.7,3728.22,3743.56,3692.4,3763.89,3779.33,3787,3797.89,3803,3817.11,3828.22,3822.89,3823.11,3820.89,3813.44,3807.78,3792.22,3786.56,3773.67,3752.56,3731.89,3724.56,3712.11,3702.11,3690.11,3687.89,3715.22,3727,3632.43,4119.88,3633,3636.57,3643.14,3640.57,3641.43,4438.88,4431.62,5060.67,3659.57,3662.71,3674.86,3687.86,5097.56,5101.89,5113.89,5115.78,5117.44,5119.56,5129.11,5136.89,5630.1,5636.7,5644.1,5648.5,5655.4,5666.9,5671.5,5673.7,5670.9,5673,5675.4,5184.22,5179,5179.11,5169.22,5164.44,5154.78,5152.89,5151.44,5152.44,4539.38,4540.88,4543.12,4540.62,4542,4535.88,4544.62,4546.62,4543,4544.5,4546.75,4534.38,3762,3757.43,3755.86,3745.57,3738.71,3738.14,3724.86,3718.57,3711.57,3702.71,3699.86,3706.71,3703.86,3704.14,3701.14,3698,3688.71,3679.29,3669.86,4453,4439.38,4430.75,4420,5030.11,5520.5,5510,5497.4,5486.7,5474.3,5466.2,4953.22,4942.33,4940.22,4935.89,4929.44,4925.11,4925.33,4929.89,4937,4939.44,5449.6,5457.9,5464.2,5472.7,5481.6,5494.8,5503.7,5512,5023.22,5030.89,4423.75,5050.44,5064.33,4446.38,3664.57,3675.29,3684,3692.57,3697.86,3694.29,3703.43,3709.29,3702.86,3702.86,3696.14,3680.29,3664.86,3643,3625.14,3607,3574.14,3541.86,3507.71,3476.71,3431.86,5377.6,5355,5331.3,5309.8,5287.1,5266.2,5254.3,5239.4,5232.8,5223.2,4685.22,5208.6,4673,5199.1,4656.89,4655,4651.22,4645.89,4640.44,4638.67,4631.56,4629.78,4626.11,4626.22,4629.67,4636.56,5174.8,5186,4660,3146.14,3155.57,3171.86,3185.86,3195.71,3210,3229.14,3234,3246.86,3251.14,3258.71,3261.14,3263.57,3266,3258.43,3256.29,3251.29,3251.57,3248.71,3239,3236.57,3229.29,3224.14,3219.43,3219.43,4058.5,4707.22,3189.71,4693.78,5217.7,5209.4,5206.1,4666.33,5191.8,5186.9,5187.1,5180.9,5179.4,5173,5173,4628.22,4621.44,4614.56,4612.78,4607.56,4600.67,4597.22,5131.4,4585.44,4582.11,4580.33,4575.44,3021.29,3014.86,3006.43,3000.29,2998.14,2989.86,2981.29,2981.43,2971.29,2963.43,2957.29,2946.86,2938.86,2932.86,2927,2916.86,2913,2905.29,2897.43,2895.57,2888,2890.43,2888.57,2886.71,2885.14,2885.14,2888.86,2885.14,2881.14,2875.29,2869.57,2863.71,2857.86,2846.57,2840.86,2826,2814.57,2798.14,2785.57,2769.43,2758.71,2746.29,2736,2729.14,2720.43,2718.71,2715.29,2713.43,2711.71,2713.57,2708.29,2706.57,2704.86,2704.86,2701.43,2693,2687.86,2681.14,2671.29,2661.14,2651.43,2645,3551.5,3541.75,4253.22,4244.78,4238.67,4232.78,4224.44,4219.56,4211.33,4206.67,4203.22,4198.67,4195.11,4192.78,4185.89,4184.67,4182.56,4181.33,4179.11,4178,4177.89,4175.67,4174.33,4173.22,4170.89,4168.56,4166.33,4162.67,4158.33,4154,4149.33,3411.75,3404.5,2455.14,2446.86,2438.71,2431.71,2421.14,2412.86,2406,2400.57,2395.43,2387.14,2385.86,2384.57,2379.43,2376.86,2374,3321.62,3322.75,4062.78,4059.67,4057.67,4052.78,4051.78,4048.67,4044.56,4043.56,4037.56,4036.56,4034.56,4033.56,4032.56,4030.67,4030.67,4028.67,4023.89,4023.89,4022.89,4017.22,4014.33,4008.56,4004,4000.11,3996.44,3991.78,3987,3982.44,3978.78,3974.33,3971.67,3966.33,3961.78,3957.11,3955.33,3950.89,3946.33,3943,3940.22,3935.78,3934,3932.22,3927.78,3167.75,3164.88,2186.29,2183,2178.43,2178.43,2174,2169.57,2165.29,2163.14,2159,2156.71,2153.43,2151.14,2146.86,2141.29,2136.29,2132,2125.71,2117.29,2111.14,2107,2100.57,2095.57,2091.57,2085.43,2081.14,2076.14,2072.14,2070.14,2066.43,2063.57,2058.86,2055.86,2051.86,2050.71,2046.86,2045,2042.14,2040.29,2035.43,2034.43,2030.57,2025.71,2022.14,2025.8,2021.8,2030,2023.67,2021.33,2019,2019,2026,2019,2019,2009,2009,2006,2009,2009,2006,2006,0,0,0,0,0,0,0,0,0,0,0,0,0,0,0,0,0,0,0,0,0,0,0,0,0,0,0,0,0,0,0,0,0,0,0,0,0,0,0,0,0,0,0,0,0,0,0,0,0,0,0,0,0,0,0,0,0,0,0,0,0,0,0,0,0,0,0,0,0,0,0,0,0,0,0,0,0,0,0,0,0,0,0,0,0,0,10000,10000,10000,10000,10000,10000,10000,10000,0,0
0,0,0,0,0,0,0,0,0,4495,4399,4183,4281.57,4204.88,4174.33,4167.89,4133.89,4102.44,4078.11,4054.33,3997.7,3977.6,3957.4,3942.4,3920.9,3900.2,3874.9,3856.7,3840,3816.9,3805.6,3794.5,3778.1,3765.1,3749.2,3743.7,3732.5,3719.6,3706.4,3698.6,3675.8,3642.7,3612.1,3584.7,3520.44,3518,3482.1,3443.7,3425.9,3408.2,3395.8,3378.2,3375,3373.7,3374.6,3372.8,3375,3378.3,3388.8,3392.5,3396.6,3402.2,3412.4,3416.9,3417.2,3427.2,3436.2,3437.7,3448.1,3458.8,3469.1,3481,3482.3,3488.7,3500.3,3504.5,3507.9,3509.1,3517.9,3523.2,3528.7,3538.9,3542.2,3549.4,3559.4,3571.3,3581.1,3671.11,3613.8,3628.7,3718,3662.7,3738.56,3751.33,3763.78,3776.67,3784.78,3800.44,3819.11,3822.22,3820,3823,3823,3817.89,3812.67,3807.67,3799.56,3781.11,3770.11,3752.22,3747.11,3737.67,3729.89,3715.22,3718,3730.33,3739.25,3647.71,4007.38,4171.75,4442.5,5062.78,3652.57,4438.38,4441.25,5059.67,5067.78,5068.22,5073,4464.88,4470.12,5097.11,5106.33,5600.2,5604.2,5605.8,5612.3,5618.7,5623.1,5627.7,5634.7,5639.4,5650.8,5652.9,5664.9,5666.7,5671.4,5666.5,5670.8,5665.9,5186.89,5184.33,5176.56,5174.33,4554.25,4558,5150.44,5151.33,5147.78,5148.67,5150.78,5151.56,5147.78,5146.11,4548.38,4548.38,4556.38,4552.75,4556.62,3778.71,3780.71,3776.14,3777.86,3773,4545.12,4475.75,3754.43,3741,3737.43,3734.43,3728,3728,3728.86,3735.57,3736,3732.29,3729.57,3719.57,3707.29,3694.71,3689.14,4460.88,4455.62,4444.5,5047,5533.8,5527.3,5514.4,5505.6,5495,5484.4,5474.4,4964.44,4960.11,4953.44,4947,4942.56,4942.67,4944.89,4945.22,4949.56,4951.89,5461.3,5465.6,5474,5480.8,5493.6,5500.4,5510,5018.78,5032.78,5040.44,5052.33,5063.56,5072.67,3670.29,3684.86,3696.29,3712,3720.29,3722.86,3738.71,3745,3745.29,3744.86,3728,3718,3702.43,3674,3661.43,3627.86,3600.57,3570.57,3538.71,3509.86,5423.3,5398.3,5375.5,5356.8,5335,5311.6,5294,5276.6,5263,5251.2,4712.56,5228.3,4689.11,5215.5,4676.67,4667.56,4662.22,4658.56,4654.67,4649.44,4651,4649.11,4648.89,4647.11,4652.44,4657.67,4663.33,5203.5,5210.2,4685.22,3176.57,3195.43,3207.43,3212.14,3229,3241.14,3253.71,3263,3278.43,3283.14,3283,3290.57,3288.29,3285.57,3283,3273.29,3270.71,3268.14,3265.71,3260.57,3253.43,3245.71,3238.29,3233.29,4070.62,4064.12,4718,3196.71,5230.7,5219.4,5214.2,5206.2,5201.3,5196.4,5191.9,5188.6,5182.4,5180.9,5176.3,5170.2,4628.22,4621.44,4616.22,4609.44,4602.44,4599,4594.11,4583.89,5124,5122.5,5121,4573.78,4570.44,3014.86,3006.43,3004.43,3000.29,2994,2991.86,2987.71,2977.43,2973.29,2963.29,2957,2948.86,2942.86,2930.71,2924.86,2915,2909,2899.43,2895.71,2892.14,2890.29,2888.43,2884.71,2883.14,2881.14,2883,2879,2875.29,2871.29,2863.86,2856,2850.14,2840.86,2833.57,2820.29,2805.57,2792.86,2780.14,2769.57,2753.43,2741,2739.29,2732.57,2724,2722.14,2722.14,2718.86,2720.57,2717.14,2718.71,2715.14,2710,2708.29,2705,2694.71,2691.43,2683.14,2671.43,2661.43,2654.71,2643.43,3552.88,3543.25,4252,4244.67,4238.67,4231.33,4224.22,4217.11,4210,4206.44,4202,4196.11,4193.89,4190.44,4186,4184.78,4183.67,4180.22,4179.11,4179,4177.78,4176.67,4175.56,4173.22,4172.11,4168.67,4167.44,4162.78,4159.56,4156.22,4151.56,3414.25,3406.75,2456.57,2449.57,2441.14,2434.57,2423.43,2416.71,2407.43,2400.71,2392.57,2392.57,2385.71,2384.71,2379.57,2376.86,2374.29,2371.57,2367.71,3318.38,4058.78,4053.78,4051.89,4049.78,4044.89,4043.67,4039.67,4037.67,4033.78,4032.78,4031.89,4030.89,4029.89,4028.89,4027.89,4025,4022,4020,4015.33,4012.56,4007.89,4003.11,4000.22,3995.44,3990,3987.22,3983.56,3979.89,3974.44,3970,3966.33,3963.67,3959,3954.44,3950,3949.11,3944.67,3942.11,3939.33,3934,3933.89,3931.33,3929.56,3168.75,3166.88,2186.14,2184,2181.71,2176.29,2171.86,2170.86,2166.43,2164.43,2162.14,2157.86,2154.43,2150.29,2147.14,2141.86,2137.57,2130,2122.86,2117.43,2112.29,2103.86,2099.71,2093.57,2088.43,2084.29,2080.29,2075.29,2071.29,2068.29,2064.57,2060.86,2056.86,2054.86,2051.86,2046,2045,2042,2041,2038.29,2035.29,2031.57,2027.71,2026.71,2022.14,2024.6,2024.25,2028,2021,2016.67,2019,2026,2019,2019,2009,2006,2006,2006,2006,2006,0,0,0,0,0,0,0,0,0,0,0,0,0,0,0,0,0,0,0,0,0,0,0,0,0,0,0,0,0,0,0,0,0,0,0,0,0,0,0,0,0,0,0,0,0,0,0,0,0,0,0,0,0,0,0,0,0,0,0,0,0,0,0,0,0,0,0,0,0,0,0,0,0,0,0,0,0,0,0,0,0,0,0,0,0,0,0,10000,10000,10000,10000,10000,10000,10000,10000,0,0
0,0,0,0,0,0,0,0,4665,4528,4462,4352.2,4270,4232.89,4200.67,4183.11,4150,4118.56,4093.11,4075.56,4063.67,3992.4,3972.2,3952.6,3940.5,3921.8,3897.9,3878.2,3861.9,3846,3837.2,3821.9,3808.9,3795.7,3790.5,3779.8,3768.3,3754.4,3743.1,3720.6,3699.4,3667.9,3637.9,3559.44,3523.22,3497.44,3476.5,3446.5,3422.7,3402.9,3392.7,3380.8,3381.6,3379.6,3379.5,3381.6,3388,3395.7,3406.9,3414.5,3423.6,3427.5,3437.8,3440,3448.3,3456.5,3462.7,3459,3469.8,3470.6,3476.9,3484,3491,3496.8,3500,3495.3,3505,3506.6,3505.9,3507.4,3515,3522.3,3525.1,3537,3542.4,3552,3566,3582.4,3668.56,3675.89,3695.78,3708.33,3728.44,3733.67,3746.11,3761.44,3771.67,3790,3811.44,3811.89,3817.33,3817.22,3817.56,3817.78,3820.11,3815.11,3812,3801.22,3782.78,3782.67,3770.33,3757.67,3755.22,3740.22,3738.44,3751.56,3753.88,3672.57,3669.43,3663.29,3663.14,4849.22,4960,5065.56,5066,5071.44,5071.67,5076.67,5082,5084.44,5584.5,5588.9,5593.6,5600,5601.3,5605.4,5614.4,5618.7,5623.2,5634.5,5639.1,5641.5,5646.2,5655.8,5660.2,5667,5671.5,5666.5,5671,5670.7,5184.44,5176.44,5174.22,5169.33,4551.38,4549.38,4544.5,4542.88,5147.56,5144.33,5148.56,5151.67,5150.78,5153.89,5151.67,4551,4559.12,4555,4559.5,3781.86,3780.57,3780.29,3782.14,3776.57,3779.43,3771.29,3774,3767.14,3766.43,3763.29,3766.57,3764,3760.57,3761,3768,3764.43,3764.43,3758.14,3745.71,3736.29,3723.86,3701.43,3692.14,3678.86,5074,5553.4,5547,5538.1,5525.1,5520.4,5505.6,5495,5489,4980.67,4973.78,4969.22,4965,4964.89,4962.56,4965.11,4965,4965.11,5472.9,5475.2,5479.6,5484.1,5491.4,5500.2,5513.1,5515.9,5030.56,5045,5057,5068.22,4470.88,4472.38,4485.38,3725.86,3734.29,3746.86,3752.71,3774.86,3778.29,3774.57,3777.57,3767,3753.57,3733.86,3715,3676.57,3648.86,3624.86,3591.29,3561.71,5462,5444.7,5421.2,5398,5381.1,5358.6,5336.8,5322.3,5303,5287.4,4744.78,5255.1,4718.78,5236.8,4696.78,4684,4673.11,4669.67,4667.67,4662.11,4663.78,4667,4663.44,4665.33,4674.22,4681.44,4685,4694.33,5233.2,5236.7,5245.2,3219.57,3234.14,3245.86,3251.14,3263.29,3272.86,3280.29,3285.14,3295.14,3302.71,3305.43,3308,3303,3303,3297.71,3290,3287.43,3282.29,3279.71,3269.71,3267.14,3257.14,3249.71,3242.57,4742.33,4729,4721.33,3201.29,5234.1,5225.8,5219.3,5210.9,4677.11,5199.6,5194.9,5193.4,5187.2,5184,5176.3,5171.7,4626.56,4618.11,4614.56,4606,4600.78,4595.67,4590.67,4582.22,4580.56,5121.1,5118.1,5115,5108.1,4447.78,3010.71,3008.57,3004.43,3000.14,2998.14,2991.86,2989.71,2979.29,2971,2961.14,2957,2947,2937,2929,2918.86,2908.86,2901.29,2897.57,2891.71,2888,2882.43,2878.86,2877,2877.29,2877.14,2871.29,2871.43,2863.43,2859.71,2850.14,2842.57,2837,2827.71,2816.43,2805.57,2789,2780,2769.29,2756.86,2746.43,2741.29,2739.43,2732.57,2729.14,2729.14,2725.57,2725.57,2727.29,2725.57,2720.29,2716.86,2713.71,2705.29,2698.43,2694.86,2684.86,2671.43,2664.71,2654.71,2645,2633.71,3543.12,4253.22,4245.78,4237.33,4230.22,4226.44,4219.33,4209.89,4205.11,4202.89,4197.11,4192.67,4191.67,4185.78,4186.89,4183.67,4182.56,4179,4180.11,4177.67,4177.78,4177.67,4176.56,4173.22,4170.89,4167.44,4162.89,4160.67,4156.11,4151.56,3413,2464.86,2459.29,2451,2444,2434.43,2424.86,2414.14,2408.71,2403.14,2394.86,2392.43,2387.14,2384.86,2382.14,2378.14,2374.14,2373,2369.29,3320.88,3316.38,4055,4050.89,4048,4045,4042,4037.89,4034.89,4032.89,4031,4031.89,4032.89,4028.89,4029.11,4028.11,4025.11,4024.11,4021.22,4016.56,4012.67,4009,4004.33,3998.56,3994.78,3992.89,3987.33,3983.78,3980.11,3976.56,3970.11,3969.22,3963.56,3960,3958.11,3954.44,3948.22,3946.33,3944.56,3940.11,3938.33,3935.67,3933.89,3933.78,3930.33,3169.75,3167.75,2188.29,2186.14,2179.57,2177.57,2174.14,2167.57,2165.43,2162,2158.86,2156.71,2153.71,2147.29,2142.86,2139.71,2132.43,2126,2120.86,2115.43,2109.29,2103,2100,2094.71,2088.29,2082.43,2077.43,2074.43,2069.29,2066.43,2061.57,2058.71,2055.86,2052.86,2048,2046,2042,2041,2037.29,2033.43,2032.43,2030.57,2028.57,2026.83,2028.2,2023.2,2020.6,2019,2014,2012.67,2026,2019,2012,2009,2006,2006,2006,0,0,0,0,0,0,0,0,0,0,0,0,0,0,0,0,0,0,0,0,0,0,0,0,0,0,0,0,0,0,0,0,0,0,0,0,0,0,0,0,0,0,0,0,0,0,0,0,0,0,0,0,0,0,0,0,0,0,0,0,0,0,0,0,0,0,0,0,0,0,0,0,0,0,0,0,0,0,0,0,0,0,0,0,0,0,0,0,0,10000,10000,10000,10000,10000,10000,10000,10000,10000,0
0,0,0,0,0,0,0,0,0,4596,4495,4364.2,4284.75,4246.89,4212.89,4193.67,4162.89,4127.56,4103.11,4087.11,4072.44,4001.7,3986.3,3969.1,3951.4,3932.2,3913.1,3900.4,3890.4,3877.6,3866,3851.5,3841.1,3833.6,3828.7,3816.2,3805.9,3789.1,3773.9,3745.9,3728.1,3697.8,3657.6,3578.67,3546.56,3535,3496.8,3456.3,3431.7,3406.3,3392.2,3385.6,3385.6,3384.6,3384.6,3391.7,3397.7,3412.8,3426.5,3439.4,3447.4,3459.8,3466.5,3473.2,3477,3484.9,3487.7,3480.7,3485.8,3483.9,3485.2,3496.2,3495,3492.3,3491.1,3493,3497.1,3493.8,3495.9,3496,3501.1,3505.1,3512.2,3523.7,3531,3538.4,3552.6,3566.8,3579,3661.33,3671,3693.44,3706.11,3713.33,3725.67,3750.89,3761.33,3774.44,3790.22,3795.67,3803.89,3811.78,3817.11,3820,3819.78,3822.33,3819.11,3810.89,3803.33,3795.56,3787.44,3780.67,3773.22,3760.78,3758.56,3772.22,3777,3691.57,3691.57,4020.88,4439.11,4735.44,4805,4908.22,5042.78,5085.22,5087.78,5093,5093,5098.11,5592.4,5601.3,5603.7,5605.5,5607.4,5612,5618.5,5620.8,5632.1,5634.3,5641.4,5641.5,5650.8,5657.8,5667,5667,5676.3,5671.4,5668.8,5666.3,5184.44,5176.78,5171.89,4554.25,4546.38,4535.38,4541.62,4534.25,4533.38,4531.5,5143,4546,4546.38,4549.5,4550.38,5158.22,4563.62,4559.88,4564.75,4563.62,3786.71,3792.57,3791.57,3793.14,3795.43,3794.71,3790.29,3793.57,3789.86,3789.57,3799.57,3790.14,3796.86,3800.14,3803.86,3803.86,3800.57,3794.43,3781.14,3771.86,3755,3732.86,3717.14,3701,3691.71,4469.25,5564.5,5553.3,5544.4,5537.8,5524.8,5516.1,5507.8,5501.5,5001.67,4990,4985.33,4985.33,4985.33,4980.67,4978.44,5482.8,5480.9,5481.1,5483.4,5488,5495,5500,5012.22,5022.78,5034.67,5047.33,5059.56,4455.62,4473.75,4490.62,4505.62,4519,4529.5,3770,3785.71,3799,3805,3804.29,3800.43,3790,3779.86,3756.57,3733.29,3704.86,3676.14,3645.29,3615.14,5317.6,5353.8,5381.3,5402.6,5422.9,5397.9,5380.9,5362.2,5340.3,5324.4,4787.22,5291,4750.67,5260.5,4720.78,4709.67,4696.89,4684.11,4680.44,4677,4674.89,4676.22,4680,4683.33,4688.89,4701.89,4709.22,4720.89,4732.44,5226.5,5165.6,5131.8,3264.14,3271.14,3278.43,3285.43,3292.86,3297.29,3310,3312.57,3320,3315.14,3320.29,3317.57,3315,3315,3307.29,3304.57,3296.86,3291.86,3289.14,3279.14,3274.14,3261.71,3261.86,3249.57,4745.89,4738.33,4725.11,3208.57,5239.1,5229.2,5222.6,5215.8,5209.3,5201.2,5198,5194.9,5188.7,5183.9,5179.4,5171.7,4626.56,4619.78,4616.44,4609.44,4602.56,4595.67,4590.78,4584,4582.33,4579,5109.9,5048.1,4980.8,4919.4,4858.5,3008.57,3008.57,3004.43,3002.29,2998.14,2989.86,2983.57,2977.29,2966.86,2962.86,2950.86,2942.86,2928.86,2918.86,2909.14,2899.43,2895.71,2889.86,2884.29,2876.71,2874.86,2871,2870.86,2871,2868.86,2865,2859.29,2853.71,2844,2836.71,2833.14,2823.71,2814.57,2803.43,2788.71,2781.71,2769.29,2760.29,2755,2748.29,2741,2737.71,2734.14,2736.14,2730.86,2732.57,2732.43,2727.29,2725.71,2717.29,2717.29,2710.43,2703.57,2693.43,2685.14,2674.86,2666.43,2653.43,2645.14,3553,3544.38,4254.33,4246.89,4238.56,4234.89,4224.11,4219.22,4213.33,4206.33,4204,4199.33,4196.11,4193.89,4190.33,4185.67,4185.78,4182.33,4180,4180,4180,4176.56,4177.67,4174.33,4172.11,4169.67,4167.22,4163.89,4159.44,4156.22,3420.5,3415.5,2467.86,2459.29,2450.86,2444.14,2435.71,2428.86,2420.86,2410.14,2407.29,2399.14,2398,2394.14,2387.43,2386.14,2383.43,2379.43,2377,2370.57,2366.57,3317.62,3313,4051,4047.22,4044.22,4041,4038.89,4033.78,4032.11,4030.11,4031.89,4031.11,4030.11,4030.22,4028.22,4025.33,4022.56,4020.56,4017.67,4012.89,4008.11,4004.44,4000.56,3996.11,3994.33,3988.67,3985.89,3983.11,3976.56,3971,3968.22,3966.56,3961.78,3958.22,3955.44,3951.78,3949,3948.11,3945.33,3944.44,3940.89,3915,3880.67,3832.56,3786.44,3173.62,3170.75,2190.86,2187.43,2180.71,2177.57,2173.14,2168.71,2165.43,2161.29,2159,2155.86,2149.43,2148.43,2142,2137.57,2131.43,2125.29,2119.86,2114.86,2108.43,2103,2097.86,2093.86,2087.71,2082.43,2076.57,2070.57,2068.43,2065.57,2060.57,2056.71,2053.86,2049.86,2048,2042,2040,2036.43,2032.57,2029.57,2028.57,2029.17,2024.67,2022.33,2023,2019,2015,2018.67,2012.67,2012.5,2009,2009,2006,0,0,0,0,0,0,0,0,0,0,0,0,0,0,0,0,0,0,0,0,0,0,0,0,0,0,0,0,0,0,0,0,0,0,0,0,0,0,0,0,0,0,0,0,0,0,0,0,0,0,0,0,0,0,0,0,0,0,0,0,0,0,0,0,0,0,0,0,0,0,0,0,0,0,0,0,0,0,0,0,0,0,0,0,0,0,0,0,0,0,0,0,10000,10000,10000,10000,10000,10000,10000,10000,10000,0
0,0,0,0,0,0,0,0,0,4630,4562,4306,4293.38,4260,4226.67,4200,4168,4136.44,4118.11,4102.67,4028.1,4012.4,4000.2,3981.8,3965.1,3953.7,3935,3918,3909.6,3902.6,3889.3,3882.9,3872.5,3860.9,3857.2,3851.6,3840.1,3827.2,3804.5,3784.3,3754.5,3721,3683,3642.2,3595.3,3556.9,3520.2,3481.2,3450.2,3429.4,3411,3400.3,3399.1,3397.7,3399.9,3402.1,3417.6,3429,3440.5,3456.7,3472.3,3481.6,3494.3,3496.6,3502.4,3504.6,3508.7,3503.1,3502.9,3496.8,3501.5,3503.8,3496.4,3495.9,3490.2,3494.2,3489.1,3491.9,3489.4,3490.3,3493.8,3495.2,3500.3,3506.1,3519.7,3523,3539.2,3551.7,3559.4,3574.7,3586.9,3599.9,3614.8,3693.44,3708.22,3723.22,3743.44,3753.89,3774.56,3785.11,3790.56,3795.89,3808.78,3819.22,3819.11,3824.11,3824,3818.67,3818.67,3805.78,3803.22,3798.44,3788.33,3778.33,3782,3791.78,3789.5,3710,3710.29,3910.25,4026.75,4254.25,4723.78,4163.5,4912.56,4492.12,5081.56,5106.78,5109.22,5111.56,5119.11,5124.11,5131.78,5623.3,5139.11,5136.44,4533.88,4536.88,4542.62,4554.38,4557.25,4563.25,4578,4583.75,4589.75,4592.5,4592.5,4586.38,4586.25,4583,4576.88,4576.88,4568.62,4557.5,3767.43,3761.29,3755.71,3750.14,4537.88,4530.75,5144.67,5142.78,5143.44,4539.88,4552.25,4552.25,4562.38,4566.25,4568.88,4747.22,4060.75,4041,4000.62,3999.5,3814.71,3814.43,3810.43,3813.57,3819.71,3826.14,3826.14,3823.29,3830.29,3833.71,3847.43,3840.71,3837.14,3834.43,3824,3804.14,3784.57,3761.71,3743,3730.43,3708,3692,3679.43,4463.62,4455.38,5555.6,5546.6,5537.6,5533.6,5527,5522.8,5513.9,5013.22,5010.89,5509.8,5507.7,5505.6,5501.5,5495.4,5497.6,4995.56,4996.11,5003.44,5009,5014.33,5024,5036.67,5051.78,5064,4461,4480.25,4499.12,4517.12,4528,4544.5,4563.12,3802.57,3815.14,3821.71,3821.14,3824,4017.88,4002.88,3776,3752.71,3726.86,3695.14,3663.57,4887.11,4919.22,4956.56,4975.78,4948.89,4929.44,4907.78,4888.56,4861.44,4846.89,4828.78,4810.89,4789.33,4770.22,4749.11,4739.67,4723,4707.89,4697,4694.89,4687.44,4687.56,4691,4692.78,4704,4711.56,4726.56,4738.33,4752,4762.22,4776,4742,4442,3830.88,3791.12,3743.38,3315.86,3320.14,3319.71,3330.14,3332.14,3332.29,3332.43,3327.29,3332.43,3327.29,3322.14,3317,3311.86,3309.14,3301.57,3294.14,3286.43,3281.57,3269.14,3264.14,3259.57,4095.75,4082.88,4070.12,3208.43,4710.33,4702.89,4693.44,4686.11,4678.67,4668,4664.33,4661,4657.56,4650.67,4643.78,4638.78,4630.11,4621.56,4614.78,4609.44,4602.67,4597.33,4590.67,4585.56,4582.22,4577.33,4574,4572.22,4528.67,4446.11,4368.33,4532,3440.88,3406.25,3004.29,3000.14,2992,2983.71,2979.43,2970.86,2962.57,2956.71,2938.86,2929,2917,2905.29,2899.43,2889.86,2884.14,2878.43,2874.57,2872.57,2866.86,2866.86,2861,2859.14,2857.14,2849.43,2845.71,2836.43,2832.71,2825.14,2817.86,2808.71,2799.71,2788.86,2781.71,2772.71,2762.14,2754.86,2751.43,2746.43,2742.86,2737.71,2739.43,2737.86,2734.43,2738,2729.29,2726,2720.86,2717.43,2710.86,2700.57,2693.57,2685.14,2675.14,2666.71,2655.14,2646.86,3554.38,3543,3534.75,3527.75,3520.75,4232.56,4227.56,4221.56,4214.44,4208.56,4206.33,4201.67,4195.89,4192.44,4189.11,4185.67,4185.67,4182.22,4182.33,4181.11,4178.89,4175.44,4176.67,4174.44,4173.11,4169.67,4165,3433.12,3426.88,3423.12,3419.25,3414.25,2466.43,2462.14,2455.14,2447,2440,2431.71,2424.86,2418.14,2412.71,2406,2400.71,2396.57,2392.71,2391.43,2387.43,2381,2377.14,2374.57,2370.86,3318.75,3312,3308.5,3305.25,3300.88,3295.12,3291.62,3286,4032.11,4030.11,4029,4031.11,4029.22,4028.22,4028.33,4024.56,4023.56,4019.67,4018.78,4012.11,4009.33,4003.56,3999.78,3995.22,3993.44,3988.78,3985,3982.33,3977.78,3973.89,3970.11,3965.56,3961.89,3959.11,3958.11,3956.22,3952.67,3951.78,3949,3947.11,3946.22,3944.44,3944.44,3942.78,3941.11,3171.12,3129.38,3089,2193.14,2188.71,2182.14,2176.71,2172.29,2170.14,2165.86,2161.57,2160.43,2154,2149.71,2143.29,2140,2133.71,2128.43,2124.29,2118.14,2113.71,2107.29,2102.14,2098,2090.86,2086.71,2081.43,2075.57,2071.71,2068.57,2063.71,2059.57,2055.71,2051.71,2047,2043.14,2039.29,2034.43,2033.43,2029.71,2030.17,2026.83,2023.5,2020.17,2020.4,2016.2,2015.5,2016.67,2012.33,2012.5,2009,2006,2006,0,0,0,0,0,0,0,0,0,0,0,0,0,0,0,0,0,0,0,0,0,0,0,0,0,0,0,0,0,0,0,0,0,0,0,0,0,0,0,0,0,0,0,0,0,0,0,0,0,0,0,0,0,0,0,0,0,0,0,0,0,0,0,0,0,0,0,0,0,0,0,0,0,0,0,0,0,0,0,0,0,0,0,0,0,0,0,0,0,0,0,0,10000,10000,10000,10000,10000,10000,10000,10000,0,0
0,0,0,0,0,0,0,0,0,4665,4596,4321,4298.75,4263,4232.11,4205.56,4182.89,4076.2,4061.6,4046,4032.1,4024.2,4012,4004.6,3987.2,3970.4,3956.1,3942.4,3930.4,3920.9,3909.6,3906,3901.3,3888.1,3890.4,3880.2,3872.1,3856.6,3836.5,3815.3,3789.6,3755.7,3717.8,3673.7,3633.5,3598.9,3559.1,3529.2,3505.2,3481.9,3460.6,3451.7,3444,3438.3,3437.2,3436.9,3441.7,3453.8,3465.7,3473.2,3494.5,3498.5,3506,3512.5,3520.3,3515.3,3519.3,3516.5,3519.6,3512.7,3508.3,3513.6,3504.5,3498.4,3502.4,3493.5,3492.8,3485.7,3482.9,3482.3,3481.6,3481.1,3484.6,3491.8,3505.8,3511.3,3519.3,3531.6,3538.1,3552.3,3556.6,3573.6,3592.7,3596.9,3611.7,3698.22,3708.33,3731.33,3754.11,3769.44,3782.44,3787.78,3795.67,3810.89,3813.56,3821.22,3823.56,3826.33,3818.44,3818.67,3824,3814.11,3806.89,3801.78,3789.78,3804.44,3811.56,3729.57,3922,3963.11,4055.56,3713.57,3966.12,4022.38,4505.5,4505.88,4516.88,4519.88,5103.78,5141.44,4539.75,5149.22,5148.78,5151.44,5153.89,5151.33,4550.75,5161.56,4559.5,5654.7,5172.11,4577.38,4580.5,3813.29,3823.29,3823.29,3823.29,4595.12,4592.25,4586.12,4583.12,4574.62,4566,4563.12,4552.12,4550.25,4544.38,4538.88,4540.5,4535.38,4539.38,5148.89,5154.78,4546.38,4559.88,5164.89,5172.44,4573.62,4576.5,4587.38,3816.43,3823,3829.57,4034.38,4030.75,3837.29,3844.14,3843.86,3847.14,3857.14,3860.57,3857.43,3871.29,3878.29,3878.29,3877.86,3874.71,3867.57,3858.14,3840.86,3817.43,3794.57,3775.14,3749,3733.14,3721,3704.86,4480.75,5089.33,5081.89,5564.4,5560.1,5555.6,5544.8,5542.4,5540,4425,4424.62,4416.75,5531.3,5525,5524.7,5020.67,5011.44,5012,4388.5,4384,4387.25,4395.88,5028.56,5040.56,5049.11,4443.38,4463.12,4490.75,4501.12,4525.88,4542.12,4561.25,4577.5,4588.88,3832.14,3838.43,4057.62,4045,4048.12,4038.62,4027.75,4014.75,3746.14,3710.71,4979.1,5026,5055,5094.2,4733.56,4746.44,4750.33,4751.33,4729.78,4712.44,4032.88,4677.44,3989.63,4637.33,3940.38,3920.88,3905.88,3888.75,3869.63,3852.88,3848.63,3842,3844.38,3848.38,3854.63,3867.38,3882.75,3898.25,3916.25,3917.75,3893.12,4550.89,4516.11,3815.38,3801.12,3775.88,3734.62,3346.43,3345.86,3342.71,3345.14,3347.57,3342.29,3342.29,3340,3337.43,3329.57,3327.14,3321.86,3316.71,3314,3304,3301.43,3288.86,3284,3276.86,3266.71,3261.86,4097.75,4083,4072.25,3215.71,4712,4702.56,5131.3,4581.22,4557.44,4525.67,4477.89,4476.33,4453.33,4464.22,4455.67,4461.56,3761.5,3753.63,3746,3740.25,3732.38,3724.62,3722.62,3713.38,3711.38,3691.63,3660.5,3618,4295.56,4261,4228.67,4199.67,4175.56,3412.38,3379.62,2996,2987.86,2985.71,2975.14,2968.86,2960.57,2952.57,2937,2922.86,2913,2901.43,2893.43,2881.86,2874.14,2868.43,2861,2861,2857,2853.14,2849.29,2849.29,2843.71,2841.71,2836.14,2828.86,2823.29,2817.71,2812.29,2806.71,2799.43,2788.57,2783.43,2774.43,2767.43,2758.43,2755,2751.57,2744.71,2742.86,2741.29,2739.57,2736.14,2736.14,2731.14,2726.14,2719.43,2714.29,2709.43,2699.14,2694,2685.29,2673.71,2663.43,2655,2645.29,2633.57,2620.71,2614.29,2601.29,3415.5,3394.75,3388,3333.25,3296.88,3291.88,3286.5,3281.25,3277.38,3272.12,3268.38,3265.88,3263.38,3262.12,3258.25,3258.25,3256.88,3253,3249.25,3262.5,3289.12,3334.62,3366.12,3383.38,2486.29,2482.14,2480.57,2473.57,2466.57,2459.43,2451.14,2446.86,2440,2434.43,2427.86,2419.43,2414.14,2406,2404.86,2399.57,2397,2390.29,2387.57,2386.29,2381.29,2374.57,2370.86,2365.71,2360.57,2351.43,2347.43,2343.57,2338.29,3290.5,3286,3256.88,3197.88,3148.38,3115.88,3100.88,3099.88,3085.38,3084.38,3080,3079,3074.88,3069.5,3064.12,3060.88,3054.5,3050.38,3046,3041.88,3038.88,3033.75,3029.5,3024.38,3020,3016.88,3015.75,3011.5,3007.5,3008.25,3005.25,3003.25,3000.13,3000.13,2969,2943.38,2929.5,2901.88,2876.5,2212.29,2207.71,2203.14,2198.71,2194.29,2188.71,2183.43,2178,2174.71,2169.29,2164,2163.86,2158.57,2153.14,2147.71,2142.29,2138,2130.57,2127.43,2121.14,2116,2110.86,2106.43,2100.14,2095,2089.86,2084.86,2080.71,2074.57,2070.71,2064,2060.71,2055,2050.86,2046.14,2041.14,2036.43,2032.57,2029.57,2031.33,2025.5,2022.17,2023,2021.6,2019,2016.2,2012.4,2014.33,2012.33,2008,2009,2006,2006,0,0,0,0,0,0,0,0,0,0,0,0,0,0,0,0,0,0,0,0,0,0,0,0,0,0,0,0,0,0,0,0,0,0,0,0,0,0,0,0,0,0,0,0,0,0,0,0,0,0,0,0,0,0,0,0,0,0,0,0,0,0,0,0,0,0,0,0,0,0,0,0,0,0,0,0,0,0,0,0,0,0,0,0,0,0,0,0,0,0,0,0,0,10000,10000,10000,10000,10000,10000,10000,10000,0
0,0,0,0,0,0,0,0,0,4701,4596,4329.25,4302,4261.67,4227.56,4207.67,4104.6,4081.4,4062.5,4053.8,4042.3,4037.6,4022.6,4021.7,4011.9,3994.1,3986,3969.5,3957.8,3941.9,3941,3932.2,3919.7,3918.3,3906.8,3904.4,3899.3,3883.8,3875,3849.3,3827.3,3797.8,3762.1,3726,3691.3,3656.6,3622.1,3589.8,3561.7,3540.9,3527.1,3512.8,3507.7,3497.7,3485.1,3481,3483.7,3484.4,3491,3495.4,3501.2,3509.9,3510.2,3517.5,3518.5,3522.4,3523.5,3521,3519,3514.6,3510.4,3510.4,3507.7,3497.2,3498,3489.4,3486.5,3485.5,3478.6,3471.6,3473,3472.7,3474.8,3480.5,3488.3,3492.2,3498.2,3510.9,3526.8,3525.5,3531.3,3548.1,3571.1,3572.6,3593.7,3612.2,3693.56,3711.44,3733.78,3746.78,3762.22,3772.67,3790.78,3800.78,3813.44,3821.22,3828.89,3829.11,3826.56,3826.78,3829.67,3821.89,3820,3812.44,3807.78,3803.78,3812.67,3841.67,3880.44,3833.5,3856.5,3871.38,3897.25,3938.5,3743,3749.57,3759.43,4536.5,4542.38,5154,5164,5169.11,5174.44,5174.22,5171.56,5647.7,5176.78,5174.22,5611.4,5596.9,5187.44,4586,4595.25,4595.25,4598.38,4610.12,4601.25,4601.25,4604,4598.25,4592.38,4586.25,3799.86,3793.43,4566.62,4558.38,4552.62,4541.75,3770,3763.86,3764.57,3771,3768.71,4559.25,4565,4573,4578.62,4584,3823.29,3826.43,4598.5,4321.75,4170.12,4034,3858.57,3868.57,3871.57,3874.57,3877.57,3891.57,3902.14,3902.14,3909.43,3916.86,3920.57,3802.12,3799,3786.75,3774.5,3762.5,3738.5,3717,3695.63,3778.86,3759.43,3740.86,3740.71,3718.57,4495.25,5106.78,5584.9,5582.5,5581.9,5573.4,5571.2,5568.6,5566.6,5073.67,5071.33,5064.22,5555.4,5056.56,4425.38,3622.71,3611.14,3608.57,3602.43,4400.12,4408.5,4411.75,4422.75,4439.75,4450.62,4472.88,4497.25,4514.12,3752.57,4558.25,3796.71,3816.14,3839.29,4064.38,4562.89,4060.25,4063.38,4163,4051.25,4163.89,3779.29,3752.86,4848.4,4878.7,4918,4363.44,4380.33,4391.78,4405.56,4410,4399.78,4371.67,4340.11,4325.22,4304.33,4281.89,4263.89,4241.89,4223.89,4208.56,4191.11,4172,4159,4147.89,4147.44,4149.33,4151.33,4161,4171,4184.89,4202.78,4220.56,4227.11,4195.56,4144.67,4104.67,4072.89,4034.89,3998.56,3729.13,3372.14,3363.57,3363.14,3363,3355.29,3352.57,3350.14,3344.86,3345,3337,3334.43,3324.14,3324,3313.71,3308.71,3298.57,3291.14,3288.71,3276.43,3269.14,3264.29,3252,4744.11,4705.78,3215.43,4051,3193.57,4432.67,4334.22,4287.33,4204.67,4121,4084.11,4059.33,4075.67,4073.33,4070,4063.11,4056.33,4051.22,4046.11,4039.11,4035.67,4030.56,4023.89,4020.44,4018.78,3992.11,3950.56,3901.67,3838.89,3797.56,3739.56,3693.67,3646.56,3587.44,3545.78,2985.57,2981.43,2973,2962.86,2958.71,2948.71,2932.86,2922.71,2909.14,2895.29,2883.57,2877.86,2870.29,2860.71,2853.14,2847.57,2847.43,2845.57,2843.71,2838,2836.14,2828.71,2823.14,2819.43,2817.57,2808.43,2806.57,2799.43,2793.86,2786.86,2781.43,2776.29,2767.43,2762,2753.29,2749.57,2747.86,2744.29,2739.43,2737.71,2731.14,2731.14,2729.71,2721.14,2716.14,2709.43,2706.14,2697.29,2688.71,2683.57,2671.71,2660.14,2650.14,2645.29,2633.43,2620.57,3487.38,3425,3869.44,3812,3757.67,3700.56,3654.56,3648.67,3643.89,3639.22,3636.89,3633.44,3630.11,3627.89,3624.44,3622.11,3619.89,3617.67,3614.22,3613,3609.67,3637.33,3676.56,3742.44,3816.22,3898.89,3424.25,2479.14,2477.71,2470.43,2466.57,2459.43,2452.43,2449.71,2444.29,2433.14,2429.29,2421.14,2416.86,2407.43,2404.86,2399.57,2397.29,2394.57,2389,2386.57,2381.14,2378.86,2370.71,2367,2360.43,2352.43,2347.57,2341,3294.88,3289.25,3941.11,3844.33,3710.44,3622.33,3561.67,3529,3494,3483.67,3461.22,3458.33,3455.67,3451.89,3450.89,3445.22,3441.33,3436.56,3432.89,3429.22,3425.44,3421,3418.22,3412.56,3410.44,3406,3405,3400.44,3397.56,3397.33,3394.56,3393.67,3393.67,3390.89,3389.11,3379.33,3368.89,3348.56,3311.11,3289.67,3260.33,2800.62,2777.62,2204.43,2199.86,2193.29,2186.71,2182.29,2176.86,2173.57,2168.29,2164.86,2159.71,2153.14,2148.57,2144.43,2136.86,2133.71,2128.57,2122.43,2119.43,2113.86,2107.86,2102.29,2097.14,2091.86,2085.14,2079.86,2074.71,2071.71,2064.86,2061.14,2053,2049,2045,2040.29,2036.43,2030.71,2027.71,2028,2023.33,2019.86,2020.4,2020.4,2015.83,2013.5,2011,2014.33,2010,2008,2006,2006,2006,2006,0,2006,0,0,0,0,0,0,0,0,0,0,0,0,0,0,0,0,0,0,0,0,0,0,0,0,0,0,0,0,0,0,0,0,0,0,0,0,0,0,0,0,0,0,0,0,0,0,0,0,0,0,0,0,0,0,0,0,0,0,0,0,0,0,0,0,0,0,0,0,0,0,0,0,0,0,0,0,0,0,0,0,0,0,0,0,0,0,0,0,0,0,0,0,0,0,0,10000,10000,10000,0
0,0,0,0,0,0,0,0,0,0,4529,4328,4279.75,4246.78,4222.33,4199.89,4094.7,4078,4067.1,4058.4,4047.1,4045.7,4041.2,4030.3,4026.1,4014.6,4007.8,3998.1,3988.3,3979.9,3963.5,3954.9,3943.6,3937.7,3935.6,3926,3926,3917.7,3904.4,3883.7,3864.9,3844.5,3816.6,3785.8,3753.4,3730.7,3691.6,3663.5,3639.9,3626.7,3611.2,3598.2,3583.8,3571,3553.9,3549.9,3541.3,3535.5,3532,3527.3,3527.7,3521.9,3520.5,3530.6,3524.4,3524.9,3524.2,3527.4,3522.7,3518.2,3516.7,3509.2,3503.6,3498,3497.2,3491.6,3485.3,3479.7,3476.8,3477.6,3471.6,3469.1,3473.1,3477,3479.1,3484.9,3487.4,3495.5,3504.3,3504.3,3512.6,3526,3544.4,3554.6,3568.9,3585.8,3606.1,3631.6,3654.4,3682.5,3747.89,3763.11,3775.44,3788,3798.56,3816.44,3818.89,3829.11,3837.22,3835.11,3838,3835.44,3835.67,3828.89,3821.11,3822.78,3824.33,3838.44,3865.56,3881.89,3894.22,3910.89,3859,3893.25,3933.5,3979,4012.75,4472.88,4155,4858.89,5179.56,5182.11,5187,5192.33,5192.44,5503.1,5500.7,5481.1,4973.89,4972.78,4972.67,4972.78,4603.75,4601.25,4613.25,4616.25,4613.25,4607.25,4613.25,4604,4601.25,4595.25,4592.38,4581.12,4572.5,4566.62,4558.12,4558.75,4559.38,4550.88,4554.75,4563.5,4563.62,3796.43,4572.12,4580.5,4586.88,4595,4597.75,4609.62,3846.14,4618.25,4633.25,3876.29,3875.43,3892.71,3895.43,3906,3909.29,3919.43,3930.86,3871.88,3850.88,3843,3829.38,3833.88,3827.12,3818,3713.22,3697.11,3675.67,3654.56,3722.5,3707.25,3689.25,3771,3757.71,3754.43,4523.88,4512.5,4518,5114.67,5116.44,5111.56,5598.4,5109,5106,5106.11,5103.56,4491.75,4477.5,4469.12,3669.43,3663.43,3654.43,4436.5,4426.12,4426.25,4423.88,4432.38,4435.12,4449,4460.38,4479.62,4499.38,4524.12,4546.75,4569.38,4592.5,4612.5,3852.29,4082.38,4519.78,4085,4172.67,4165,4073.38,3809.86,3789.43,4647.9,4716.7,4772.2,4823.9,4828.4,4824.5,4823,4816.3,4808.8,4779.6,4755.1,4734.1,4719,4701.7,4672.7,4657.7,4608.6,4573.7,4536.8,4522.9,4482.5,4470.3,4447.4,4440.6,4440.7,4445.7,4454.6,4465.5,4478.2,4513.7,4552.3,4553.1,4501.6,4467,4398.4,3965.67,3948,3914.89,3717.25,3387.86,3376.57,3373.71,3370.86,3365.71,3357.71,3357.57,3349.71,3339.43,3336.86,3334.29,3324.14,3318.86,3313.71,3308.71,3306.29,3298.71,3791.88,3276.29,3271.43,3261.43,3256.71,4624.22,4506.11,3210.43,4048.5,4036,4720.3,4655.3,4623.2,4566.4,4515.9,4487.1,4482.5,4470.8,4473.2,4465.5,4438.5,4405.3,4372.4,4349.6,4322.1,4332.8,4339.5,4348,4365.1,4383.3,4408.2,4401.4,4369.1,4320.7,4277.5,4206.2,4151.6,4063.5,3980.9,3536.67,3214.88,2971,2969,2956.86,2950.57,2942.71,2926.71,2912.86,2901.14,2891.29,2879.71,2868.43,2859,2851.29,2845.57,2838.14,2841.86,2836.14,2830.57,2828.71,2825,2821.29,2815.71,2812,2804.57,2806.71,2803,2797.57,2790.29,2785,2779.71,2772.57,2765.57,2760.29,2754.86,2748,2747.86,2744.43,2735.71,2732.43,2729.14,2727.71,2722.57,2723,2714.43,2705.71,2697.43,2692.14,2687,2678.29,2668.29,2659.86,2648.43,2638.29,2628.43,2618.86,2607.71,3213.5,4222.4,4170.6,4099.6,4029.8,3985.7,3983.7,3979.4,3977.3,3972.1,3972,3969,3965.8,3961.7,3958.6,3956.6,3954.5,3950.4,3949.4,3945.3,3973.8,4021.6,4107.1,4151.5,3543.56,3170.25,2474.86,2470.43,2468.86,2464.71,2459.43,2453.86,2448.29,2442.71,2434.57,2426.29,2422.29,2414.29,2406.14,2403.57,2399.71,2397.29,2393.43,2386.29,2383.71,2379.71,2377.43,2368.14,2364.14,2359,2352.43,2345.86,2339.43,2334.57,2326.86,3146,3511.11,3415,3358.89,3982.8,3939.1,3877.9,3843.6,3808.5,3809.4,3806,3802.5,3800.8,3797.5,3793.2,3788.9,3785.5,3782.9,3778.1,3775.6,3772.4,3769,3766.5,3762.3,3759.7,3757.3,3757.2,3754.6,3753,3752.1,3751.3,3748.8,3747.1,3747.9,3740.1,3731.4,3719,3709.7,3694.7,3674.4,3652.9,3337,2995,2194.29,2190,2184.57,2180.14,2174.86,2171.43,2163.86,2161.71,2155.43,2149.71,2143.29,2140.29,2133,2128.71,2123.57,2117.43,2114.14,2109.86,2102.57,2097.29,2090.29,2086.14,2081.14,2074.86,2069.71,2062,2059.14,2054.14,2048,2044.14,2043.5,2039.17,2033.67,2027.83,2029.6,2019.86,2019,2020.4,2014.83,2013.67,2010.33,2009,2010,2008,2006,2006,2006,2006,0,0,0,0,0,0,0,0,0,0,0,0,0,0,0,0,0,0,0,0,0,0,0,0,0,0,0,0,0,0,0,0,0,0,0,0,0,0,0,0,0,0,0,0,0,0,0,0,0,0,0,0,0,0,0,0,0,0,0,0,0,0,0,0,0,0,0,0,0,0,0,0,0,0,0,0,0,0,0,0,0,0,0,0,0,0,0,0,0,0,0,0,0,0,0,0,0,0,0,10000,0,0
0,0,0,0,0,0,0,0,0,0,4479,4274.75,4251.5,4219.11,4195.33,4175.33,4081.6,4068.3,4059.1,4054.4,4051.9,4049.8,4048.4,4050.2,4049.1,4042.4,4037.1,4031.4,4014.8,4001.2,3994.3,3983.5,3973.9,3961.7,3962.4,3957.4,3950.7,3944.4,3925.8,3916.7,3901.3,3890.4,3863.4,3844.1,3820.2,3792.3,3775.6,3756.6,3729.9,3711.3,3694.3,3680.7,3664.6,3645,3633.5,3619.5,3609.2,3597.5,3589.7,3575.9,3573.2,3558,3553.6,3546.8,3542.6,3531.1,3534.5,3522.9,3529,3520.1,3517.3,3516.4,3507.3,3504,3499.5,3494.4,3487.3,3486.1,3477.2,3472.5,3477.8,3473.9,3473.9,3479.6,3477.7,3484,3484.5,3488.6,3492.5,3494.4,3502.7,3511.1,3524.9,3539.3,3551.3,3569.7,3592.4,3615.1,3634,3657.5,3674.8,3692.6,3753.44,3763.33,3780.78,3801.33,3814.33,3824.44,3827.44,3837.67,3834.89,3838,3838.44,3842.33,3831.78,3827.44,3825.11,3833.78,3844.11,3850.33,3853.11,3859.44,3865.89,3893.11,3869.75,3901.25,4008.78,4032.75,3805.14,3822.29,4138,4196.12,4215.12,4878.22,4878.22,5358.6,5313.2,5267.9,5231.8,5184.8,5143,5138.3,4234.62,4240.75,3853.71,3843.57,3854,3850.57,3847,3843.57,3843.57,3840.29,3830.43,3827.43,3821.14,3807.14,3800.43,3794.14,3794.57,3805.14,3795.43,3796,3799.14,3809.71,3812.14,3816.14,3823.14,3833.71,3837,3847.29,3857.57,3860.71,3871.14,3880.43,4366.25,3903.57,4060,3916.86,3963.38,3938,3948.57,3959.57,3888.25,3867.5,3860.5,3854.75,3852.75,3742.67,3730.11,3715,3699.22,3671.33,3650.22,3638.22,3624.78,3698.5,3691.75,3774.86,3765.29,3761.71,4538.25,5142.56,5142.56,5140.11,5142.56,5136.89,5139.56,5139,5139.33,4525.88,3737.29,3724.14,3711.29,3698.71,3689,3675.86,3666.57,3654.14,3657.29,3660.71,3667.29,3670.71,3683.71,3705.57,3734.29,3757.14,3786.86,4586,4606.5,4558.5,4455.12,4517,4470.89,4411.22,4395.4,4336.67,3837.29,3948.75,4518.9,4558.6,4585.8,4612.1,4628.2,4654.1,4661.6,4668.3,4641.6,4591.2,4562.5,4527.3,4509.5,4478.9,4450.8,4422.9,4390.4,4360.3,4343.9,4316.3,4303.6,4276.6,4264.7,4254.4,4249.2,4249.4,4252.8,4260.2,4274.6,4283.9,4311.6,4345,4324.5,4303.4,4271.7,4240.2,4222.7,4194.9,4167.6,4103.6,3683.88,3389.86,3381.57,3373.71,3363.29,3360.29,3355.29,3350,3342.29,3334.29,3326.57,3321.57,3316.43,3311.14,3308.86,3301.14,3296.14,3288.71,3281.14,3268.86,3258.86,3253.86,4356.44,3613.13,3200.57,3191,3177.14,4250.44,4441.2,4419.4,4360.5,4294.9,4272.6,4248.2,4230.1,4214.1,4182.7,4167.6,4151.3,4136.9,4134.9,4128.7,4124,4116.4,4114.8,4119.7,4126.7,4132.4,4142.9,4125.4,4086.6,4065.8,4032,4006.5,3956.4,3901.5,3858.7,3806.5,3200.38,2962.86,2952.71,2942.71,2932.71,2916.71,2903.14,2895.29,2883.71,2874,2862.57,2849.29,2845.57,2838.14,2830.57,2830.57,2823.29,2819.57,2815.86,2812.14,2810.29,2804.71,2804.71,2801.14,2799.29,2795.71,2790.43,2788.57,2781.14,2776,2769,2763.57,2756.57,2749.57,2742.57,2740.71,2739.14,2735.57,2727.14,2723.86,2720.86,2719.14,2715.86,2705.71,2699,2692.14,2683.71,2680.14,2673.43,2665,2653.29,2643.29,2636.57,2626.86,2615.71,2609,3022,3969.1,3906,3852.6,3806.9,3775.1,3771.8,3769.6,3764.6,3763.5,3761.4,3758.2,3755.2,3754.1,3748.9,3744.8,3742.7,3739.7,3737.5,3733.6,3755.2,3781.9,3827.9,3898.4,3705.78,2474.57,2470.29,2467.57,2466.14,2461.71,2456.57,2451.14,2445.43,2440,2431.71,2427.57,2421.29,2415.57,2408.86,2403.57,2401.14,2395.71,2391.86,2389.29,2382.43,2379.71,2374.57,2370.71,2362.71,2356.43,2347.29,2344.43,2338.14,2332,2323.14,2319.29,2767.25,3157.11,3133.44,3779.3,3713.9,3663.8,3633.4,3603.4,3591.5,3589,3583.9,3584,3581.5,3578,3575.4,3570.2,3567.7,3565.3,3561.3,3557.2,3556.3,3551.3,3548,3546.4,3544.6,3542.2,3541.3,3537.9,3537.1,3536.2,3536.2,3533.9,3534.6,3533,3533.9,3533.1,3537.4,3531.6,3513.4,3494.9,3270.22,2203.43,2196.71,2191.14,2184.57,2180.29,2174.71,2170.43,2166.14,2158.57,2153.14,2148.71,2143.29,2137,2130.71,2125.71,2121.57,2116.29,2112.14,2106.86,2100.86,2095.71,2089.43,2085.29,2079.14,2073,2068.14,2061.14,2058.14,2050.29,2047.14,2048.17,2043.5,2036.83,2032.5,2026.83,2028.4,2020,2020.4,2014.83,2015.2,2012.4,2008.4,2008.4,2006,2006,2006,2006,2006,0,0,0,0,0,0,0,0,0,0,0,0,0,0,0,0,0,0,0,0,0,0,0,0,0,0,0,0,0,0,0,0,0,0,0,0,0,0,0,0,0,0,0,0,0,0,0,0,0,0,0,0,0,0,0,0,0,0,0,0,0,0,0,0,0,0,0,0,0,0,0,0,0,0,0,0,0,0,0,0,0,0,0,0,0,0,0,0,0,0,0,0,0,0,0,0,0,0,0,0,0,0,0
0,0,0,0,0,0,0,0,0,0,0,4228,4199.25,4179.22,4156,4137.33,4058.2,4050.9,4050,4042.6,4045.6,4054.6,4056.5,4058.2,4056.9,4058.5,4056,4042.3,4037.4,4031,4021.4,4009.4,3997.4,3988,3987,3980.5,3973.9,3971.4,3955.3,3955.1,3938.3,3928.5,3913.9,3901.5,3878.6,3864.1,3844.2,3830,3808.8,3791.3,3776,3767.7,3751.3,3734.1,3713.6,3691.2,3673.9,3656.9,3642.1,3624.7,3621.2,3599,3579.3,3568.2,3558.6,3551.4,3537,3537.2,3528.4,3521.5,3514.6,3518,3516.6,3513.4,3509.6,3508.7,3501.7,3495,3487.8,3485.2,3482.6,3480.8,3482.6,3484.8,3484.9,3491.7,3487.4,3493.5,3491.5,3491.4,3497.7,3509.8,3522,3532.3,3548.4,3564.8,3585.6,3602.4,3621.3,3636.4,3660,3675.4,3693,3746.89,3759.33,3789.11,3799,3752.6,3822.44,3835.44,3767.9,3763.8,3767.6,3775.3,3834.56,3824.67,3824.56,3829.89,3831.78,3851.22,3839.89,3848.22,3850.33,3869.78,3897,3921.78,3945.44,4031.22,3940.88,4290.89,4267.88,4465.78,5070,4577.22,4586.44,4594.22,4596.11,4562.33,4552.78,4523,4498.56,4478.11,4452.44,4426.22,3860.29,3864.14,3867.57,3864.14,3864,3860.71,3864.43,3854.14,3847.57,3830.71,3834.43,3827.86,3817.71,3824.86,3821.86,3815.14,3812.43,3822.86,3826.14,4600.75,3833.43,3833.86,3844,3844.86,3851.43,3854.86,3872.43,3872.29,3875.43,3885.14,3898,4171.44,4155.78,4003,3988.13,3945,3956,3967,3985.43,3981.86,3782.78,3771,3684.4,3750.33,3742.33,3654.7,3705.89,3684,3659.78,3653,3641.89,3629.44,3703.38,3796.71,3789.43,3786.14,3789.29,3784.86,4564.5,4558.62,4564.38,5173.22,5178.44,5178.56,3797.29,3793.57,3780.29,3766.86,3753.71,3744,3724.14,3710.86,3698.14,3688.43,3688,3688,3691.57,3694.57,3710.86,3726.57,3753,3772,3798.57,4600.25,4493.75,4409.38,4363.38,4459.89,4410.89,4416.3,4399.5,3985.5,3972,4445.4,4476.6,4488.6,4502,4488,4493.2,4485.1,4474,4458.7,4428,4375.3,4352.4,4318.6,4302.4,4277.3,4253.1,4227.1,4193.3,4164.4,4147.7,4127.1,4114.2,4086.4,4070.5,4063.5,4060,4058.6,4062.4,4064.2,4077,4090.4,4120.6,4143.5,4152.1,4143.3,4141,4126.3,4110.8,4104.7,4091.6,4055.6,3807.44,3392.43,3387.14,3373.86,3371,3358,3352.57,3345,3337.29,3334.57,3324.14,3319.14,3316.57,3314,3308.71,3303.57,3296.14,3288.43,3278.43,3268.43,3256.29,3248.71,4324.89,4260.33,3198.14,3186.29,3170,4079.56,4185.7,4164.5,4104.4,4061.7,4039.2,4018.6,4006.1,3992.4,3970.3,3958.9,3938,3927,3921.9,3916.7,3913.7,3907.5,3901.4,3910.4,3913.9,3915.9,3928.1,3930.7,3916.2,3904.9,3900.6,3883.8,3858.1,3831.4,3810.2,3777.1,3747.5,3197.5,2940.86,2932.86,2923,2910.86,2895.29,2883.57,2872,2864.43,2853.14,2843.71,2836.14,2828.71,2823.29,2817.71,2815.86,2810.43,2808.57,2801.29,2799.43,2797.71,2792.14,2790.29,2788.43,2786.43,2779.43,2777.57,2770.43,2767,2761.71,2758,2749.43,2742.43,2735.43,2733.71,2730.29,2725.29,2721.86,2717,2715.29,2708.71,2705.57,2697,2695.43,2687.14,2683.57,2675.14,2668.29,2658.29,2650,2643.14,2631.86,2623.71,2614,2607.43,2904.38,3628,3611.3,3590.7,3579.5,3560.2,3558,3555.7,3552.7,3549.8,3545.4,3543.3,3540.2,3538.2,3536.1,3531.1,3526,3521.7,3518.6,3512.6,3524.7,3528.6,3545.8,3558.7,2796.38,2469,2466.14,2466.14,2462,2459,2454.86,2449.29,2442.71,2435.86,2431.71,2427.86,2421.14,2414.29,2408.86,2405.14,2402.57,2397.14,2390.43,2389.14,2382.43,2378.71,2373.29,2366.86,2362.86,2353.86,2348.71,2343.29,2336.86,2328,2324.29,2316.71,2316.71,2659,3514.1,3472.8,3441.7,3424.1,3407.8,3392.5,3381.4,3372.3,3372.4,3366.6,3365.7,3360.5,3357,3353.8,3351.3,3348.8,3344.8,3341.4,3338,3335.5,3333,3329.1,3328.2,3324.8,3323.2,3321.4,3320.6,3319.7,3317.2,3317.3,3315.6,3315.9,3315.8,3315,3314.2,3312.7,3311.9,3305.4,3290.2,3280.6,2196.71,2191.14,2184.57,2181.29,2175.86,2170.57,2165,2158.57,2150.86,2145.57,2139.14,2135,2128.71,2123.71,2117.29,2114.14,2108,2104,2098.86,2093.71,2088.43,2081.43,2077.29,2071.43,2067.43,2060.29,2057.14,2051.29,2054.33,2048.33,2041.5,2038,2031.5,2031.2,2024.67,2023,2019.2,2014.83,2013.8,2012.4,2010,2006,2006,2006,2006,0,0,0,0,0,0,0,0,0,0,0,0,0,0,0,0,0,0,0,0,0,0,0,0,0,0,0,0,0,0,0,0,0,0,0,0,0,0,0,0,0,0,0,0,0,0,0,0,0,0,0,0,0,0,0,0,0,0,0,0,0,0,0,0,0,0,0,0,0,0,0,0,0,0,0,0,0,0,0,0,0,0,0,0,0,0,0,0,0,0,0,0,0,0,0,0,0,0,0,0,0,0,0,0,0
0,0,0,0,0,0,0,0,0,0,0,0,4168,4133.86,4112.22,4102.67,4078.33,4008.5,4019.2,4020.1,4033.3,4039.7,4044.4,4048.7,4062.9,4061.1,4060.9,4055.9,4054.9,4046,4039.3,4026.9,4018.5,4012,4006.8,3999.5,3995.3,3985.2,3976.8,3975.8,3962,3955,3951.7,3947.9,3937.3,3923,3905.7,3886.8,3879.4,3864.9,3852.2,3841.4,3820.7,3800.7,3781.4,3757.1,3740.7,3720.8,3700.8,3678.5,3666.4,3638.4,3618,3599.3,3582.3,3561.9,3548.3,3535.5,3531.9,3525.2,3518.3,3521.5,3523.3,3521.9,3514.9,3517.6,3506.8,3509.6,3504.8,3502.3,3494.1,3494.2,3496,3498,3500.3,3502.8,3506.7,3508.7,3506.6,3506.7,3508.3,3516.3,3524.6,3537.2,3545.6,3564.8,3577.9,3592.5,3611.2,3628.9,3647.9,3663.7,3675,3692.3,3705.3,3719,3726.8,3741.2,3809.56,3759.7,3759.9,3764.9,3768.3,3777.7,3774.5,3832.33,3830.44,3840.78,3849.22,3862.56,3865.33,3873.56,3878.33,3898.78,3912,3942.89,3953.33,3987.22,4019.44,4130,4191.78,4281.44,4333.22,4387.78,4423,4992.1,4446.44,4443.78,4430.44,4421,4411.78,4402.11,4387.67,4378.89,4365.22,4208.75,3877.57,3881.29,3878.14,3878.14,3881.86,3864.71,3857.86,3857.86,3848.14,3844.86,3841.43,3838.43,3838.43,3835.14,3835.43,3839.29,3839.71,4609.88,3847,3848,3848.57,4617.38,3856,3863.43,3873.14,3876.43,3880.14,3892.43,4098.75,4176.11,4176.78,4143.67,3999.63,3989.62,3955.57,3970.43,3978,3989.57,3986.29,3711.3,3692.3,3685.8,3740.44,3730,3708.56,3688.44,3668.56,3655.11,3635.33,3635.78,3636.33,3637,3635,3814,3813.57,3815.86,3812.43,4588.25,4594.12,4596.25,4602.12,3834.29,3834.29,3834.29,3831.14,3814,3800.86,3790.57,3776.71,3759.57,3739.86,3732.57,3725.86,3725.71,3722.14,3728.57,3738.71,3754.43,3778,3797.57,4506.75,4401.38,4341.38,4304.75,4281.5,4427.44,4389.56,4418.6,4003.88,3993.5,4426.7,4443.4,4442.9,4434.9,4421.4,4414.2,4400.9,4379.7,4363.9,4338.8,4311.8,4287.4,4268.5,4254.1,4239.6,4219.4,4205.6,4189.6,4168.5,4151.5,4136.2,4123.2,4108.4,4095.6,4088.3,4077.8,4074.3,4072.7,4069.3,4078.3,4089.5,4097.2,4110.6,4124.1,4122.8,4118.3,4120.5,4101.6,4084.9,4072.4,4054.6,4032.9,3584.12,3398.14,3390,3376.57,3365.86,3361,3358.29,3350.57,3339.86,3337.29,3334.57,3329.29,3324.29,3321.71,3313.86,3303.57,3298.57,3290.86,3280.86,3268.29,3258.57,3241.43,3959.75,3849,3195.71,3184.14,3170,3920.67,4015.5,3995,3966.6,3941.5,3927.3,3921.6,3914.4,3915.3,3910.7,3912.3,3907.7,3904.6,3903,3914.1,3906.4,3900.3,3894.3,3891,3880.5,3877.5,3870.1,3867.1,3858.2,3845.2,3823.9,3814.1,3803.2,3789.6,3764.2,3751,3735.4,3712.9,3188.75,2920.86,2908.71,2901.14,2887.57,2876,2864.43,2853.14,2839.86,2838,2825.14,2821.43,2817.71,2812.29,2806.86,2799.57,2799.57,2794,2790.43,2786.71,2781.29,2779.43,2777.57,2777.43,2773.86,2768.43,2763.14,2761.43,2756.43,2747.57,2740.57,2735.43,2728.57,2725.14,2721.71,2716.71,2710.14,2708.43,2705.29,2707.14,2698.71,2692.14,2688.71,2683.57,2678.71,2671.86,2664.86,2655,2648.29,2640,2633.29,2622.14,2614,2604.43,2593.57,3609.9,3597.7,3577.7,3560.9,3552.5,3548.3,3545.1,3542,3541,3537.9,3534.7,3531.6,3530.5,3523.4,3521.4,3516.3,3511.1,3507,3502,3505.2,3510.7,3524.2,3536.4,2467.86,2463.57,2460.71,2457.86,2456.43,2453.57,2450.86,2446.57,2444,2437.14,2431.86,2429.14,2421.14,2414.57,2409.43,2402.57,2399.86,2395.86,2390.43,2385.29,2382.71,2373.43,2369.29,2364.14,2357.57,2350.86,2343.43,2340.71,2337,2328,2323,2318,2313.14,2309.29,2309,3467.6,3434.5,3417.1,3396.6,3380.6,3377.2,3361,3360.3,3356,3352.6,3350.8,3346.6,3343.3,3341.7,3337.5,3333.4,3331.9,3328.5,3323.7,3322.8,3318.7,3316.2,3315.3,3312.9,3311.9,3309.3,3307.7,3305.4,3306,3304.4,3305.4,3303.1,3303.9,3303.1,3301.6,3294.5,3284.9,3270.2,3260.6,2990.89,2187.86,2183.29,2177.86,2172.57,2168.29,2162.86,2157.43,2149.86,2143.43,2138.29,2131.71,2127.71,2121.57,2117.29,2112.29,2106.14,2102,2097.71,2093.86,2087.57,2079.57,2076.29,2072.43,2066.14,2059.43,2064.67,2057.67,2053,2049.5,2042.67,2038.17,2033.67,2033.8,2025.83,2024.4,2019.17,2017,2012.5,2011,2010,2006,2006,2006,2006,2006,0,2006,0,0,0,0,0,0,0,0,0,0,0,0,0,0,0,0,0,0,0,0,0,0,0,0,0,0,0,0,0,0,0,0,0,0,0,0,0,0,0,0,0,0,0,0,0,0,0,0,0,0,0,0,0,0,0,0,0,0,0,0,0,0,0,0,0,0,0,0,0,0,0,0,0,0,0,0,0,0,0,0,0,0,0,0,0,0,0,0,0,0,0,0,0,0,0,0,0,0,0,0,0,0
0,0,0,0,0,0,0,0,0,0,0,0,4157,4109.33,4066,4047.89,4033.67,4030.56,4033.78,3983.9,3998.3,4012,4019.3,4029.6,4049.4,4050.9,4053,4058.5,4059.8,4049.7,4051.9,4046.6,4028,4031.4,4021.9,4017.8,4011.6,4010.8,3995.9,3985.4,3986.2,3987.1,3986.2,3975.4,3974.5,3961.9,3965.2,3955.1,3949.8,3939.2,3926.3,3910.1,3894.2,3870.4,3843.8,3827.2,3801,3771.9,3748.4,3734.3,3710.8,3685.6,3663,3634.2,3608.6,3586.5,3571.3,3553.7,3541.1,3531.3,3532.3,3528.5,3531,3531.3,3528.4,3530.7,3529.6,3527.2,3520.6,3513.8,3517.8,3511.7,3516.1,3516,3524.3,3524.2,3526,3523.8,3526,3525.8,3531.6,3531.3,3539.8,3542.2,3551.5,3566.3,3579.8,3594.9,3607.9,3615.8,3628.4,3643.8,3661.2,3668,3680.6,3704.5,3714.1,3721,3790.22,3805.44,3750.4,3817.78,3828,3786.5,3784.8,3797.2,3810.1,3851.33,3875.44,3890.33,3890.89,3893.22,3889.56,3912.11,3904.25,3948.33,3935.25,3991.22,4031.44,4068.11,4103.56,4170.11,4770.6,4766.8,4307.78,4821.6,4811.1,4797.7,4780.6,4731.2,4710.7,4679.8,4368.11,4365.33,4628.1,4345.89,4350.22,3891.86,3891.86,3885.14,3888.86,3871.29,3867.86,3864.57,3868.43,3864.71,3857.43,3854.57,3855.29,3855.29,3858.86,3856.14,3856.71,3860.43,3860.86,3862,3858.71,4635.75,4636.62,3870.43,3873.86,3879.86,3886.86,3889.71,3903.14,4191.44,4175.67,4166.44,4132.89,4014.75,4007.38,4063.25,3978.43,3990.14,3991.14,3984.14,3723,3700.2,3669.6,3728.56,3707.56,3687.89,3674.22,3663.56,3653.67,3648,3643.56,3642.78,3645.67,3647.67,3828,3834.29,3836.86,3843.43,3846.29,3855.71,3862.29,3869.14,3872,3869.14,3865,3861.57,3845,3834,3820,3802.86,3792.29,3778.43,3767.29,3760.71,3763.71,3763.71,3773.57,3783.29,3800,3816.86,3837,4329.12,4299.38,4277.88,4274.13,4258.75,4409.67,4142.13,3890,4444.5,4440.8,4433.2,4422.2,4414.5,4395.7,4391.3,4379.3,4360.7,4349.5,4331.7,4316.4,4298.9,4277.6,4265,4252.4,4236.3,4220.2,4203.9,4188.2,4172.9,4153.6,4140.3,4129,4118.2,4107,4098,4090.9,4092.8,4091.1,4094.8,4102.5,4108.4,4119.8,4124.3,4124.5,4118.2,4114.8,4099.9,4081.4,4067.7,4057.4,4030.6,3798,3398,3390.29,3382.14,3371.43,3366.29,3360.86,3358.29,3347.71,3339.86,3337,3337,3331.71,3324.14,3316.29,3308.57,3296,3288.29,3275.71,3263.43,3251.14,3238.86,4131.11,4076.11,3186.43,3177.14,3163.14,3892.22,3990.7,3976.4,3964.1,3933,3926.1,3920.4,3908.5,3912.6,3905.3,3903.9,3903.8,3905.3,3903.3,3912.7,3908,3903.4,3895.7,3891.1,3883.6,3876.1,3870.1,3862.7,3849.6,3842.3,3825,3808.5,3797.6,3780.9,3766.5,3748,3731.2,3723,3703.8,3195.75,2903.14,2885.71,2876,2864.43,2854.86,2847.43,2836.14,2826.86,2819.57,2815.86,2806.71,2805,2795.86,2792.29,2788.57,2785,2777.71,2774.29,2774.29,2767,2768.71,2766.86,2765.14,2763.14,2757.86,2750.86,2745.57,2742.14,2731.86,2726.71,2721.57,2718.14,2713,2709.86,2706.57,2701.71,2698.43,2696.71,2690.29,2688.57,2683.57,2675.29,2671.86,2664.86,2661.57,2651.57,2645,2636.57,2627,2619,2611,2604.43,2905.5,3593.3,3581,3572.3,3560.5,3550.1,3546.9,3543.7,3539.5,3536.5,3534.5,3530.3,3530.2,3525.2,3520.1,3516,3512,3506.9,3502.8,3495.7,3499.1,3502.7,3506.3,3517,2792.12,2456.86,2454,2452.57,2446.86,2447,2445.71,2440,2437.14,2431.86,2429.29,2424,2420,2413.43,2410.86,2405.14,2399.86,2393.29,2390.57,2385.29,2378.57,2374.71,2368,2361.43,2356.14,2350,2343.29,2338.14,2331.86,2326.71,2320.29,2315.57,2314.29,2306.71,2305.57,2629.88,3429.4,3397.3,3392.8,3371.1,3355.7,3358.2,3350.2,3350.9,3349.3,3346.8,3342.7,3339.3,3337.7,3334.4,3330.3,3327.8,3327.1,3322.4,3318.9,3316.4,3313.1,3310.6,3308.8,3306.4,3306.3,3303.9,3303.1,3300.7,3300,3299.1,3299.1,3298.3,3296.9,3291.6,3290.8,3279.6,3270.1,3267,3256.4,3004,2180,2175.86,2173.57,2167.14,2160.86,2156.43,2149.86,2143.71,2136.14,2130.86,2125.57,2120.43,2115.14,2111.14,2105,2101.86,2095.57,2090.71,2083.57,2078.43,2074.57,2068.29,2066.29,2058.57,2063.67,2057.67,2054.33,2049.67,2046.17,2039.33,2036,2037.8,2028,2028.2,2021.33,2019.17,2014.67,2011.33,2008.4,2006,2006,2006,2006,2006,2006,2006,2006,0,0,0,0,0,0,0,0,0,0,0,0,0,0,0,0,0,0,0,0,0,0,0,0,0,0,0,0,0,0,0,0,0,0,0,0,0,0,0,0,0,0,0,0,0,0,0,0,0,0,0,0,0,0,0,0,0,0,0,0,0,0,0,0,0,0,0,0,0,0,0,0,0,0,0,0,0,0,0,0,0,0,0,0,0,0,0,0,0,0,0,0,0,0,0,0,0,0,0,0,0
0,0,0,0,0,0,0,0,0,0,0,0,4109.5,4073,4030.86,4003.44,3989.56,3980.78,3992.44,3938.1,3954.1,3972.9,3995.4,3999.3,4022.2,4034.5,4049.7,4045.1,4057.7,4052.6,4055,4052.1,4044,4036.3,4040.2,4030.5,4030.9,4023.9,4013,4009.9,4003.1,4008.4,4012.2,4004.3,4006,4004.6,4007.3,4009.4,4006.3,3999.6,3985.7,3980.2,3962.3,3946.7,3920.8,3895.6,3869.1,3838.2,3812.8,3788.5,3770.5,3744.7,3712,3677.5,3652,3630.1,3610.6,3594.8,3569.1,3555.2,3550.6,3542.8,3545.1,3543.6,3544.3,3545.1,3546.1,3539.2,3540.6,3541.8,3541.9,3539.6,3539.5,3541.7,3540.1,3548.3,3554.6,3550,3552.1,3555.8,3553.1,3559.6,3568.1,3568.5,3575.8,3584.8,3590.2,3599,3606.2,3613.5,3624.6,3627.2,3644.7,3658,3666.5,3677.1,3695.4,3702,3721.4,3727.3,3797.33,3810.33,3817.22,3828.11,3787.9,3803.3,3811.8,3863.44,3883,3870.88,3874.62,3920.33,3917.78,3934.33,3912.5,3960.44,3973,3945.5,4010.56,4036.56,4064.78,4418,4150,4481.9,4074.25,4556.8,4579.8,4590.2,4586.6,4590.3,4568.8,4368.89,4565,4552.2,4545.7,4525.7,4530.9,4538.9,3896,3888.57,3888.86,3881.71,3885,3881.57,3878.43,3867.57,3867.86,3875.14,3878.57,3879.29,3876,3876.43,3873,3877.43,3884.86,3879,3883.43,4642.12,4642.38,4654.88,4661,3890.57,3893.57,3899.86,3902.57,4031,4035.25,4173.67,4035.25,4039.62,4029.5,4020.75,3967.86,3969,3977.29,3982,3884.75,3715.7,3678,3649.4,3708,3622.7,3616.8,3672.33,3654.89,3655,3654.22,3655.33,3656.56,3744.25,3750,3856,3858.43,3864.43,3881.29,3883.86,3890.86,3897.29,3903.86,3906.86,3910.57,3899.86,3885.57,3882.43,3870.71,3860,3842,3824.29,3810.43,3806.71,3799.71,3799.29,3803,3819.57,3823,3843.43,3863.86,4221.5,3888.71,3899.29,4246.62,4233.12,4230.13,3904.14,4481.4,4450.5,4447.4,4428.4,4413.4,4401.2,4373.1,4352.2,4336.3,4313.8,4299.4,4281.7,4262.3,4244.8,4234,4216.8,4206.4,4191.8,4175.6,4161.4,4143.6,4129.7,4114.2,4098.7,4087.4,4077.9,4066.8,4059.6,4054.1,4054.2,4048.7,4048.8,4054.7,4058.7,4064.3,4072.1,4076,4085.5,4075,4057.9,4059,4049.9,4028.9,3861.44,3596.38,3398,3390.29,3382.14,3376.86,3374,3363.43,3360.71,3355.43,3352.57,3347.29,3342.14,3336.86,3326.71,3321.43,3306,3301,3285.71,3270.71,3260.86,3243.71,3231.57,3951.44,3943.22,3184.14,3170.29,3156.43,3798.78,3914,3900.7,3897.6,3883.4,3872.1,3862.7,3856.6,3856.1,3852.9,3851.7,3850.1,3850.1,3859.5,3853.5,3847.3,3842.7,3834.9,3827.4,3822.9,3815.4,3804.9,3800.5,3796,3785.9,3777.1,3771.4,3762.9,3753.4,3746.7,3735.7,3724.9,3716.1,3705.7,3701,3193.75,2879.86,2874.14,2860.43,2854.86,2843.71,2828.71,2825,2817.71,2806.71,2801.29,2795.86,2790.43,2786.86,2781.57,2774.29,2772.43,2767,2765.29,2760,2758.14,2758,2754.57,2752.57,2745.71,2744,2740.43,2730.14,2726.71,2719.86,2714.71,2713,2709.71,2699.57,2696.43,2693.14,2688.29,2685.14,2682.14,2677,2671.86,2671.86,2665.14,2660,2654.86,2646.71,2638.29,2628.71,2622.29,2615.86,2606.14,2599.86,2592.14,3506.1,3496.7,3493.5,3490.4,3487.2,3485.2,3481,3478.9,3474.8,3472.9,3468.6,3465.6,3460.5,3456.4,3451.4,3446.3,3440.2,3437.3,3432.1,3433.3,3430.3,3423.3,3420.2,2458.57,2451.43,2448.57,2447.14,2444.14,2444.14,2440,2434.71,2433.29,2430.57,2423.86,2422.71,2416,2410.71,2406.57,2399.71,2395.43,2391.57,2387.57,2381.14,2374.43,2371.71,2364,2358.71,2352.43,2349.71,2342.14,2338.14,2334.43,2328.14,2322.86,2317.71,2310.43,2306.71,2304.14,2300.43,2297,3302.3,3304.7,3301.5,3291.7,3290.4,3290.3,3282.5,3285.2,3281.9,3278.5,3276.8,3275.2,3271.2,3269.6,3264.6,3262.3,3259.9,3256.6,3253.3,3251.5,3249.2,3245.7,3244.9,3242.4,3240,3237.6,3236.7,3235.2,3235.3,3234.5,3233.6,3232.1,3231.4,3229.8,3227.5,3225.1,3223,3215.7,3216.9,2667,2171.43,2167.14,2163.86,2158.57,2155.43,2148,2141.29,2137.14,2131,2125.43,2120.14,2114.14,2111.14,2104,2100.86,2093.43,2087.57,2082.43,2077.57,2072.57,2067.43,2061.43,2058.57,2062.67,2057.83,2053.17,2050.83,2043.67,2041.67,2037,2032.5,2029,2025.83,2023.5,2020.17,2016.83,2012.33,2011.17,2007.2,2007.5,2006,2006,2008,2009,2012,2006,2006,0,0,0,0,0,0,0,0,0,0,0,0,0,0,0,0,0,0,0,0,0,0,0,0,0,0,0,0,0,0,0,0,0,0,0,0,0,0,0,0,0,0,0,0,0,0,0,0,0,0,0,0,0,0,0,0,0,0,0,0,0,0,0,0,0,0,0,0,0,0,0,0,0,0,0,0,0,0,0,0,0,0,0,0,0,0,0,0,0,0,0,0,0,0,0,0,0,0,0,0
0,0,0,0,0,0,0,0,0,0,4192,4196.38,4081.7,4009.5,3961.1,3938.8,3907.5,3903.1,3903.4,3911.6,3920,3933.3,3955.1,3974.4,3992.1,4005.5,4018.1,4028.5,4035.2,4039.8,4043.6,4045.5,4035,4036.3,4037.3,4041.3,4026,4035.6,4020.1,4025.8,4024.4,4029,4030.2,4035.4,4039.2,4036.7,4036.2,4045.7,4043,4035.9,4033.8,4026.9,4008.9,3996.2,3979.4,3955.9,3937.2,3904.8,3878.9,3853.1,3835.5,3811.2,3772.5,3744.3,3716.4,3691.3,3666.5,3648.4,3625.1,3600.3,3588.6,3578.8,3576.5,3566.9,3561.3,3561.5,3558.6,3549.7,3555,3556.3,3556.2,3554.4,3560.7,3560.4,3562.6,3575.2,3576.9,3578.8,3580.7,3578.5,3584.4,3586.4,3589.2,3595.8,3601,3603.5,3611.1,3611.9,3618.9,3615.9,3614.1,3623.2,3626,3637.1,3643.8,3662.7,3674.1,3687.5,3695.6,3714,3722.6,3736.3,3802.33,3828.56,3836,3809.1,3822.4,3865.67,3873,3931.5,3902,3914.25,3913.5,3916.75,3932.38,3945.75,3957.88,4010.56,4035,4060.56,4085.89,4124.67,4356.6,4385,4411.7,4437.2,4463.2,4467.9,4493.2,4503,4507.9,4514.4,4525.3,4519.4,4528,4543.2,4541.3,4555.6,4562.7,3906.86,3899.71,3892.43,3889,3885.29,3885.29,3885.29,3892.29,3888.57,3899.29,3899.57,3896.57,3893.29,3897.57,3905.29,3902.43,3903.57,4662.75,4657.12,4660,4673,4666.25,3907.57,3907.43,3906.57,3909.71,3915.86,4046.88,4183.89,4174,4174.44,4314.7,4121.78,4037.25,3948.43,3949.29,3957.86,3897.25,3874,3715.7,3680,3655.8,3709.22,3637.2,3690.33,3689.44,3683,3682.33,3679.44,3681.67,3687,3780.88,3785.38,3879.71,3886.29,3892.57,3905.86,3912,3918.57,3925.14,3928.29,3927.71,3931,3923.57,3905.86,3901.71,3890.86,3879.86,3865.71,3858.14,3840.86,3836.71,3836.43,3833,3846.57,3853.29,3856.57,3870.57,3891.71,3902.43,3909.71,3917.57,4273.75,3914.14,4252.5,4568.7,4493.8,4461.8,4444,4422.7,4409.1,4384,4355.9,4346.5,4314.7,4300.9,4291.8,4278.4,4267.4,4256.4,4241.3,4230.7,4220.1,4201.6,4185.4,4171,4155,4139.3,4123.7,4116.1,4106.5,4091.3,4083.7,4080,4072.7,4072.8,4069.1,4069.3,4071.2,4075,4080.7,4088.4,4080,4072.8,4060.8,4054.5,4035.4,4030.3,4024,3395.57,3390,3390,3379.14,3376.57,3371.43,3368.57,3363.29,3355.14,3357.71,3349.86,3342,3339.43,3329.14,3318.86,3306,3295.86,3283.29,3265.71,3253.43,3231.57,3222,3636.38,3604.5,3170.14,3163.29,3149.43,3527.38,3908.1,3906.6,3897.2,3879.5,3867.1,3862.1,3860.6,3858.9,3849.8,3851.4,3848.2,3849.8,3857.6,3856.1,3851.6,3846.8,3837.7,3834.7,3830.2,3819.7,3813.7,3803.3,3798.9,3790.2,3780.1,3775.9,3767.3,3757,3742.4,3743,3731.1,3725.3,3713.5,3721.6,3710.3,3429.33,2864.43,2856.71,2847.43,2840,2826.86,2821.29,2812.14,2806.57,2799.29,2794,2785,2777.86,2774.14,2766.86,2765.14,2758.29,2756.57,2749.29,2747.57,2745.71,2744,2742.29,2740.57,2733.57,2728.43,2721.57,2718.14,2714.71,2706.14,2702.71,2701.14,2693,2689.57,2688.14,2683.43,2681.71,2678.71,2670.14,2668.43,2665.14,2660.14,2658.29,2648.43,2641.71,2631.86,2623.86,2619.14,2609.43,2603,2593.71,2584.43,3499.5,3495.2,3492,3487.9,3490.3,3488.2,3481.9,3482,3478,3475.9,3474,3468.8,3464.8,3459.7,3454.7,3450.5,3444.6,3441.6,3435.6,3428.2,3422.2,3419.1,3413.1,2450.43,2448.86,2443.29,2441.86,2436,2437.57,2436.14,2432.29,2428,2423.86,2421.14,2418.43,2414.57,2409.29,2403.71,2398.43,2394.29,2391.71,2386.29,2382.43,2374.71,2369.14,2365.29,2361.57,2355.14,2348.43,2342,2338,2334.57,2327,2320.43,2317.86,2311.71,2304.14,2302.86,2298,2294.43,2752.88,3282.7,3278.1,3286.5,3283.1,3287.6,3287.9,3287.1,3283.6,3285.7,3283.3,3281.7,3278.5,3274.3,3271.9,3269.4,3266.2,3263.1,3261.4,3258.8,3254.7,3252.2,3250.7,3247.4,3245.8,3242.5,3240.9,3238.6,3238.6,3237.8,3236.4,3235.6,3234.8,3233.4,3226,3225.2,3223.3,3227.8,3229.6,3228,2979.33,2164.86,2161.71,2157.29,2152.29,2147,2142.43,2136.29,2130.86,2126.43,2120.14,2114,2109.14,2101.71,2096.71,2091.43,2085.57,2078.43,2074.43,2068.71,2066.57,2061.43,2056.57,2060.17,2056.67,2054.33,2049.67,2047.33,2042.83,2038.17,2034.83,2032.5,2029.17,2025.83,2021.33,2017.83,2015.67,2010.17,2009.8,2010,2010,2010,2008,2008,2008,2009,2006,2006,2006,0,0,0,0,0,0,0,0,0,0,0,0,0,0,0,0,0,0,0,0,0,0,0,0,0,0,0,0,0,0,0,0,0,0,0,0,0,0,0,0,0,0,0,0,0,0,0,0,0,0,0,0,0,0,0,0,0,0,0,0,0,0,0,0,0,0,0,0,0,0,0,0,0,0,0,0,0,0,0,0,0,0,0,0,0,0,0,0,0,0,0,0,0,0,0,0,0,0
0,0,0,0,0,0,0,4857,4595.8,4392.8,4253.25,4184.4,4075.8,4003.7,3945.1,3915.3,3886.2,3874.2,3877.3,3880.3,3891.1,3906.7,3920.6,3949.3,3966.5,3974.5,3989.1,4003,4020.2,4015.6,4022.2,4024.9,4014.2,4017.1,4029.2,4032.1,4030.6,4035.2,4028.1,4031.1,4033,4043.5,4052.7,4050.9,4051.6,4053.5,4058.5,4055.4,4061.6,4049.9,4052.7,4044.9,4031.9,4028.3,4007.1,3997.4,3970.8,3952.9,3928,3912.7,3897.4,3865.5,3828.6,3800.3,3784,3758.8,3731.8,3706.7,3675.8,3647.7,3637.4,3620.4,3606.4,3597.5,3584.2,3578.5,3573.2,3569.8,3572,3573.6,3575.6,3579.5,3590.4,3592.4,3600.5,3604.9,3608.8,3610.9,3606.6,3614.9,3619.2,3623,3625.6,3634.4,3635.5,3639.9,3638.7,3635,3631.4,3630.3,3628.7,3624.9,3629.3,3630.8,3634.4,3645.8,3656.9,3664.8,3680,3694.2,3706.9,3777.89,3789.78,3767.3,3831.22,3808.5,3831,3861.6,3905.2,3910.63,3965.22,3967.78,3976,3990.89,3997.33,4018.11,4030.89,4046.33,4059.56,4074.11,4097.11,4124.89,4350.8,4369,4387.7,4411.7,4422.1,4439.3,4454.5,4468.5,4481,4484.7,4494.2,4509.1,4517,4533.4,4545.6,4561.9,4573.3,4593.1,4188.12,3902.86,3903,3899.57,3899.43,3892.29,3895.57,3899,3909.86,3906.43,3917.57,3917.57,3921.71,3918.71,3923.29,3921.14,3921.57,4681.12,4672.38,4678,4675.25,4675.25,3914,3917.43,3920,3919.71,3919.43,4057.25,4181.33,4339.5,4335.6,4307.4,4014.88,4061.56,3940.14,3951.71,3945.57,3951,3938.43,3714.7,3687.3,3671.2,3728.78,3728.44,3719.11,3713.78,3709.89,3704.44,3710.33,3718.67,3726.22,3812.75,3895,3909,3915.14,3924.29,3934.14,3933.43,3943.43,3946.43,3948.86,3941.71,3941.57,3930.57,3923.14,3911.57,3900.57,3889.71,3882.29,3878.29,3867.43,3867.29,3867.14,3873.86,3874,3877.29,3887.57,3898.57,3913,3916.71,3920.71,3924.43,4341.25,4317.12,4262.12,4577.1,4492.6,4464.6,4440.8,4424.3,4393.7,4370.6,4343.3,4327.4,4305.9,4293,4277.5,4266.5,4257.6,4244.5,4236.1,4225.4,4211.2,4196.6,4180.2,4170,4152.1,4140.4,4132.4,4119,4109.3,4103.4,4097.5,4092,4084.3,4082.4,4078.6,4075,4075,4078.7,4075.1,4077,4059.8,4048.2,4039.6,4029.2,4014,4013.9,3619.75,3604,3379.43,3374,3368.71,3368.71,3368.57,3360.71,3360.43,3357.71,3347.14,3344.57,3334.14,3329.14,3321.43,3306,3293.43,3278.14,3260.86,3253.43,3233.86,3214.57,3630,3600.25,3170,3153.86,3144.71,3746.33,3904.2,3899.4,3893.1,3882.2,3869.3,3853.8,3852.3,3853.7,3849.1,3847.5,3847.5,3845.9,3852.2,3847.6,3843.1,3835.4,3827.8,3823.3,3817.3,3808.3,3805.3,3796.4,3786.2,3778.9,3774.6,3766.2,3756.3,3749.4,3742.5,3729.5,3730,3725.8,3720.3,3724.6,3715.8,3713.7,3436.44,2851.14,2845.57,2834.43,2826.86,2817.57,2815.71,2806.57,2799.29,2788.43,2781.29,2775.86,2768.71,2765.29,2754.71,2754.71,2749.43,2744.14,2742.29,2738.86,2733.57,2730.14,2730.14,2725,2721.57,2713,2709.57,2707.86,2699.29,2697.71,2694.43,2689.57,2686.14,2678.14,2676.57,2677,2671.86,2670.14,2665,2658.43,2651.71,2648.29,2644.86,2636.71,2627,2619,2609.43,2606.29,2600,2592.29,2581.43,3498.1,3486.6,3494.2,3483.8,3482.9,3478.7,3473.5,3470.4,3469.4,3466.5,3464.5,3460.3,3455.3,3452.1,3447.1,3442.2,3437.1,3433.1,3428.3,3425.4,3420.5,3411.8,3413,2446.57,2442.29,2440.71,2440.57,2435,2432.29,2430.86,2426.71,2426.71,2421.43,2417.14,2414.43,2410.57,2409.29,2405,2401,2395.71,2391.71,2387.71,2382.43,2374.71,2371.86,2367.86,2361.57,2357.71,2350.14,2342,2339.43,2333.29,2327,2320.43,2317.71,2312.71,2307.86,2301.71,2299.29,2295.57,2292,2287.14,3266,3267.9,3275.6,3272.5,3281.4,3279,3281.1,3280.3,3277,3272.9,3271.3,3268.1,3265.6,3264,3260.8,3256.6,3254.3,3251.8,3247.7,3246,3242.9,3240.4,3236.5,3235,3233.3,3231.7,3229.3,3228.5,3227,3227,3227,3225.5,3223.3,3227.9,3226.3,3227.9,3233.3,3236.1,3240.3,3241.6,2158.43,2156.43,2151.14,2145.86,2139.43,2135.14,2129.57,2125.43,2118.14,2113,2104.71,2100.57,2095.43,2089.29,2083.29,2076.57,2070.57,2066.57,2061.43,2058.43,2054.43,2050.43,2054.33,2052,2049.67,2046,2041.67,2039.33,2036.17,2033.83,2031.5,2025.83,2023.5,2019,2016.67,2013.5,2012.4,2012,2010,2010,2012,2012,2009,2006,2006,2006,2006,2006,2006,0,0,0,0,0,0,0,0,0,0,0,0,0,0,0,0,0,0,0,0,0,0,0,0,0,0,0,0,0,0,0,0,0,0,0,0,0,0,0,0,0,0,0,0,0,0,0,0,0,0,0,0,0,0,0,0,0,0,0,0,0,0,0,0,0,0,0,0,0,0,0,0,0,0,0,0,0,0,0,0,0,0,0,0,0,0,0,0,0,0,0,0,0,0,0,0
0,0,0,0,0,0,0,4903.6,4679.5,4466.38,4241.17,4187.2,4073.1,3990.6,3934.7,3897.7,3861.3,3849.2,3847.5,3854.9,3863.1,3873.4,3889.5,3907.5,3928.5,3944.5,3960.1,3971.6,3985.3,3988.4,3990.9,3991.6,3991.3,3996.9,4007.2,4013.9,4022.4,4027.3,4030.4,4039.8,4047,4054.2,4054.1,4064.3,4064.9,4059.8,4068.2,4061.1,4065.8,4063.9,4052,4044.4,4032.8,4028.5,4029.3,4017.33,4010.5,4002.89,3973.2,3962.9,3944.5,3929.7,3896.7,3867.1,3837.8,3812.1,3798.1,3768.8,3738.1,3713.3,3697.7,3675.8,3661.3,3644.2,3628,3610.6,3604.9,3595.7,3594.8,3598.9,3598.7,3601.4,3614.2,3618.6,3626.9,3635.8,3639.7,3648.4,3648.6,3655,3658.9,3661.7,3674.6,3672.2,3672.8,3677.5,3673.4,3673.7,3662.9,3657.4,3648.8,3643.6,3635,3635.8,3633.3,3636.4,3645.5,3654,3667,3687.1,3697.3,3716.8,3785.33,3811,3823.22,3838.78,3852,3870.12,3903.22,3937.22,3939.13,3978.22,3992.89,4007.67,4019.67,4041.56,4069,4075.33,4087.89,4105.56,4119.56,4145.33,4168.56,4188.78,4380.9,4390.9,4405.3,4401.7,4247.78,4439.6,4445.3,4463.6,4484.7,4502.6,4502.2,4533.7,4551.6,4559,4589.2,4596.7,4609.1,4381.78,4193.62,3909.43,3905.86,3905.86,3905.86,3912.86,3923.57,3924,3927.86,3931.86,3932.43,3928.86,3937,3937.57,4692.38,4689.38,4683.25,4683.25,4686.12,4686.12,3919.86,3919.86,3919.86,3919.29,3922.86,3926.57,4073,4339.4,4335.6,4339.8,4300.6,4239.2,4108.56,3934.57,3932,3937.71,3931.71,3923,3814.62,3688.9,3671.3,3736.56,3727.11,3723.22,3714.11,3717.89,3724.22,3726.11,3733,3745.11,3914,3927.71,3932.86,3942.57,3945.57,3948.43,3957.71,3953.29,3956.29,3955.71,3947.86,3940.43,3943.71,3936.43,3925.71,3921.29,3917.43,3910.29,3902.29,3902.29,3905.57,3901.86,3898.14,3909,3905.43,3916.14,3919.86,3923.71,3924,3920.86,3913.86,4380.62,4309,4708.5,4560.6,4483.7,4461.6,4438.1,4412.2,4381.8,4367.3,4337.6,4319.1,4296.9,4290.4,4277.1,4272.5,4259.5,4253.2,4242.3,4230.2,4213.2,4200.9,4188.7,4176.6,4164.8,4154.7,4147,4141.1,4131.4,4119.2,4117.1,4109.4,4105.6,4099.7,4092.3,4086.5,4086.5,4082.6,4075.2,4059.5,4048,4034.9,4030.7,4012,4008.2,3602.5,3589.12,3366,3368.71,3366.14,3366,3365.86,3357.86,3357.71,3357.71,3349.86,3342.14,3334.14,3324,3318.86,3300.86,3288.29,3270.71,3255.86,3243.71,3226.57,3214.57,3623.75,3602.75,3167.71,3156,3142.29,3758.67,3906.9,3905.4,3899.2,3876.9,3865.8,3858.1,3852,3850.5,3848.9,3844.2,3842.7,3838,3841,3849,3836.8,3836.8,3827.8,3823.3,3812.8,3808.3,3800.9,3798,3787.8,3779.1,3773.6,3765,3758.1,3751.3,3743,3732.7,3725.7,3720.3,3716.4,3717.2,3710.4,3706.3,3710.1,3155.25,2841.86,2830.57,2825,2819.43,2810.29,2803,2793.71,2784.71,2779.43,2770.57,2767,2758.14,2754.71,2749.57,2742.43,2738.86,2733.71,2730.14,2725,2723.29,2721.57,2718.29,2711.43,2706.29,2702.86,2701.14,2697.71,2692.71,2689.43,2686.14,2682.86,2678,2676.43,2673.43,2668.29,2663.57,2663.43,2656.71,2651.86,2648.14,2638.14,2630.14,2620.71,2612.57,2609.43,2600,2592.43,2584.43,3288.67,3487.7,3488.2,3484.1,3482.1,3481.5,3478.4,3476.4,3471.3,3466.2,3464.1,3464.1,3462.2,3457,3452.1,3449.1,3444.1,3440,3436.3,3431.4,3422.8,3421.8,3415.7,3409.9,3191.78,2441.14,2435.57,2435.43,2431,2429.57,2426.86,2422.71,2418.57,2417.29,2415.86,2414.71,2410.57,2405,2402.29,2402.14,2396.86,2390.14,2387.57,2379.86,2376.14,2370.86,2365.29,2361.57,2356.57,2350.14,2346.14,2340.86,2334.57,2328.14,2321.71,2317.86,2314,2307.71,2301.71,2299.14,2295.57,2290.71,2287,2746.5,3276.6,3273.9,3283.7,3279.6,3288.8,3287,3284.6,3281.3,3279.7,3276.4,3273.9,3271.5,3267.4,3265.8,3264.2,3260.2,3256.9,3253.7,3251.2,3248,3244.1,3240.9,3237.8,3236.1,3235.4,3233.8,3233.1,3231.5,3229.9,3229.2,3228.5,3226.2,3219.9,3229.4,3227,3226.2,3233.8,3231.6,3223.8,3229.6,2153,2150,2145.71,2139.43,2134.14,2130.86,2124.57,2118.43,2111.86,2106.71,2100.43,2092.29,2088.14,2080.43,2075.43,2069.29,2064.29,2060.29,2056.29,2055.29,2051.43,2054.33,2052,2049.67,2047.17,2043.83,2042.67,2036.17,2033.83,2030.33,2027,2024.67,2020.17,2015.67,2013.5,2013.6,2012.25,2016.67,2012.33,2012.33,2012.33,2010,2010,2008,2006,2006,2006,2006,2006,0,0,0,0,0,0,0,0,0,0,0,0,0,0,0,0,0,0,0,0,0,0,0,0,0,0,0,0,0,0,0,0,0,0,0,0,0,0,0,0,0,0,0,0,0,0,0,0,0,0,0,0,0,0,0,0,0,0,0,0,0,0,0,0,0,0,0,0,0,0,0,0,0,0,0,0,0,0,0,0,0,0,0,0,0,0,0,0,0,0,0,0,0,0,0
0,0,0,0,0,0,0,4833.43,4585.11,4447,4226.5,4188,4081.4,3985.8,3921.9,3882.6,3848.8,3830.2,3825.4,3830.6,3840.2,3851,3863.1,3881.2,3896.3,3911.9,3924.5,3945.7,3958.7,3961.5,3966.7,3971.9,3963.7,3975.1,3988,3999,4011.3,4021.5,4030,4039.2,4049.7,4049,4060.2,4058.2,4057.5,4055.5,4058,4057.7,4062.1,4058.5,4050,4038.2,4033.5,4019.22,4037.3,4033.6,4027.4,4012,4009.4,4006.1,3989.4,3974.9,3956.8,3927.1,3904.7,3877.1,3861.4,3833.9,3806.3,3788.3,3764.1,3745.2,3719,3702.1,3688.8,3671.6,3655,3649,3644.7,3631.4,3635.5,3633.4,3644.9,3646.7,3660.6,3668.9,3680.8,3685.2,3696.1,3707.6,3709.2,3713.7,3722.3,3727.3,3727.1,3722.7,3717.8,3710.4,3702.3,3687.1,3678.9,3668.3,3655.7,3649.5,3641.2,3641.7,3643.7,3652.9,3666.5,3681.6,3692.9,3704,3725.1,3795.67,3781.2,3806.4,3836.1,3864.3,3904.22,3936.38,3952.25,3962.25,3977.63,4018.89,4036.89,4058.44,4077.33,4095.67,4104.89,4123.44,4141.44,4165.22,4178.44,4208.22,4223.11,4375.3,4380.1,4387.6,4232,4242.78,4254.56,4432.8,4452.8,4476.8,4489.2,4509.8,4535.2,4549.5,4561.9,4579.7,4597,4613.9,4375.44,4351.67,4172.88,4348.56,3919.71,3926.71,3931.14,3938.43,3946.14,3949.57,3953.57,3953.86,3954.29,3954.71,3944.14,4694.62,4691.38,4691.38,4691.75,4688.5,4688.88,3930.14,3930.43,3923.71,3930.86,3923.29,3912.43,4089.5,4374.2,4350.9,4334.3,4294.6,4161.22,4105.89,3924.43,3929.71,3927.57,3928.14,3921.71,3739.67,3688.1,3676.8,3742.33,3739.67,3732.89,3734.11,3676.2,3739.67,3746.78,3748.67,3701.4,3837,3941.43,3950.43,3953.14,3960,3962,3971.57,3970.71,3966.43,3959,3947.43,3950.43,3950.86,3946.57,3942.71,3935.29,3942.14,3938.29,3934.29,3934,3926.57,3923.14,3916,3923,3923.29,3927,3927.29,3927.57,3920.57,3917.29,3906.86,4406,4313.88,4480.67,4532,4464,4444.9,4418.8,4395,4372.1,4343.4,4330,4309.3,4289.6,4278.4,4269.7,4263.3,4252.4,4248.3,4235.8,4222.9,4214.8,4196.1,4185.8,4177.9,4170.1,4166,4153.9,4144.1,4139.8,4133.7,4125.5,4119.6,4111.8,4100.1,4090.5,4088.7,4081.1,4070.7,4058.9,4037.7,4026.7,4014.5,4001.7,3989.3,3685.38,3360.71,3358.14,3363.29,3360.71,3360.43,3360.43,3352.57,3355.14,3352.43,3347.29,3342,3329.14,3318.86,3308.57,3298.43,3280.86,3265.86,3251,3233.86,3219.29,3205,3626.75,3603.38,3162.86,3148.86,3137.57,3768,3905.4,3900.8,3894.3,3873.8,3861.1,3853.4,3849,3852,3841,3839.5,3838,3833.3,3836.5,3838.3,3827.7,3821.7,3817.2,3814.2,3803.8,3796.4,3792.1,3786.2,3780.4,3773.2,3766.3,3757.8,3750.8,3741,3735.6,3730.1,3718.5,3718,3712.6,3703.7,3697,3693,3685.7,3674.4,3142.75,2830.57,2821.43,2817.71,2808.43,2801,2790,2784.71,2777.57,2767.14,2763.57,2758.14,2751.14,2744.14,2739,2732,2726.86,2723.29,2715,2718.29,2716.71,2713.29,2706.43,2703,2697.86,2696.14,2692.86,2692.71,2682.71,2679.29,2672.86,2674.57,2669.86,2668.14,2661.57,2661.57,2656.71,2650.14,2643.29,2638.29,2635.14,2625.29,2620.57,2612.86,2603.14,2596.86,2592.43,2584.57,2573.71,3486.1,3483.1,3477.8,3472.7,3469.6,3468.1,3466,3460.9,3458.9,3456.7,3452.7,3452.8,3450.8,3444.9,3443,3439,3433.9,3429,3426.3,3418.6,3414.6,3411.5,3405.7,2800.75,2797.12,2435.29,2433.86,2427,2422.71,2421.43,2417.29,2415.86,2414.57,2413.29,2411.86,2407.57,2404.71,2400.57,2400.57,2395.29,2391.43,2386.29,2381.14,2376,2369.43,2368.14,2360.43,2357.86,2352.71,2350,2341,2338.14,2333.14,2324.14,2319,2315.29,2307.86,2305.43,2300.29,2295.43,2291.86,2288.29,2284.57,2659.62,3286.9,3283.6,3280.3,3284.8,3283.1,3280.6,3277.4,3274.1,3272.4,3270.8,3265.1,3264.2,3261.1,3259.5,3257,3253.7,3250.5,3245.7,3244.1,3240,3237,3235.5,3233,3231.4,3229.2,3228.5,3227.7,3226.1,3225.3,3223.9,3222.3,3219.3,3217,3216.2,3214.8,3218.9,3217.4,3213.7,3207.4,3205.1,2543,2143.71,2139.29,2136.14,2129.71,2125.57,2119.57,2112.86,2105.43,2100.43,2092,2087.14,2079.14,2075.29,2069.14,2066,2062.14,2058.14,2053.14,2052.14,2048.29,2045.43,2050.83,2048.33,2045,2041.67,2037.33,2035,2030.33,2026.83,2023.67,2021.33,2017.83,2014.5,2015,2012.25,2012.25,2012.33,2012.33,2012.33,2010,2008,2006,2006,2006,2006,2006,0,0,0,0,0,0,0,0,0,0,0,0,0,0,0,0,0,0,0,0,0,0,0,0,0,0,0,0,0,0,0,0,0,0,0,0,0,0,0,0,0,0,0,0,0,0,0,0,0,0,0,0,0,0,0,0,0,0,0,0,0,0,0,0,0,0,0,0,0,0,0,0,0,0,0,0,0,0,0,0,0,0,0,0,0,0,0,0,0,0,0,0,0,0,0,0
0,0,0,0,0,0,5017.75,4771.38,4573,4417.4,4217.17,4187.9,4079.5,3993.4,3924.7,3877.9,3836.9,3822.8,3808.6,3811.3,3813.9,3821.5,3836.2,3851.3,3868.4,3883.6,3898.5,3920.6,3926.2,3940.9,3951.2,3956.5,3961.4,3974.6,3996,4006.6,4019,4026.7,4027.5,4039.4,4046.9,4051.3,4054.8,4054.1,4048.6,4049.2,4050.6,4048.5,4043.5,4047.8,4036.2,4033.2,4016.44,4033.8,4032.2,4039.8,4041.7,4036.6,4029.8,4030.8,4028.1,4019.7,4004.5,3981.9,3961.8,3943.8,3935.6,3906.3,3884.4,3854.6,3834.6,3810.4,3790.8,3775,3745.2,3731.4,3712.2,3698.2,3690.8,3682,3679.6,3675.8,3678.3,3687.5,3689.9,3699.7,3715,3718.3,3738.6,3743.4,3759,3770.2,3771.6,3785.1,3778.3,3775.9,3765.8,3761.1,3747,3731,3713.1,3698.2,3680.9,3663.5,3659.5,3654.7,3651.3,3649.6,3661.3,3669.7,3689.4,3696.1,3720.4,3755.8,3774.6,3798.8,3828.4,3858.8,3893.4,3936,3958.78,3984.67,3982.38,4022.33,4042.67,4064.44,4082.56,4107,4122.89,4141,4162.78,4185.22,4203.11,4219.67,4223.44,4361.6,4363.1,4362.2,4367.8,4371.2,4232.33,4395.5,4421.4,4449.5,4475.6,4500.2,4524.7,4551.8,4553.7,4573.5,4578.3,4593.1,4595.3,4347,4341.11,4335.11,3937.43,3941,3944.86,3956,3956.43,3953,3960.43,3957.29,3961,3953.71,3953.71,4706.25,4703.5,4697.25,4700,4693.75,4690.88,3926,3918.86,3926.57,3919.71,3920,3912.57,3906.43,4178.33,4373.7,4346.8,4319.8,4287.1,4225.7,4111.44,4052.12,4015.25,3977.25,3936.38,3906.25,3804.33,3708.6,3690.8,3757.11,3751.67,3753.56,3753.89,3694.9,3822.5,3833.38,3957.71,3857.38,3852,3961.14,3968,3966,3979.71,3981.86,3973.57,3976.86,3969.14,3961.29,3953.86,3961.29,3957.57,3961,3953,3949.14,3952.57,3944.86,3955.43,3955.29,3947.86,3933.86,3937.43,3934,3930.71,4689.88,5282.78,5274.56,3920.86,3907.14,3893.14,4406.5,4298.88,4478.89,4509.5,4452.7,4428.4,4402.1,4364.2,4338.9,4316.2,4302.2,4287.1,4273.8,4258.1,4253.7,4247.4,4238.9,4232.3,4220,4205.4,4190.9,4186.7,4174.1,4168.2,4160.4,4150.1,4144.2,4138.1,4127.8,4119.9,4111.7,4101.7,4088.2,4080.4,4069,4057.1,4051.6,4039.4,4010.1,4001.7,3993.6,3983.4,3969.3,3673.75,3350.14,3352.57,3355.14,3352.57,3347.43,3350,3352.57,3352.43,3347.29,3342.14,3334.43,3324.14,3313.71,3303.57,3288.29,3280.71,3263.57,3241.29,3229,3214.43,3202.71,3624.62,3596.5,3573.5,3148.86,3137.57,3915.1,3884.8,3881.7,3875.4,3866.4,3850.6,3836.8,3829.1,3835.1,3830.5,3820,3818.4,3813.9,3816.8,3807.7,3809.4,3803.4,3795.9,3788.5,3784.1,3778.3,3772.5,3766.6,3759.5,3752.4,3745.2,3738.2,3731.3,3724.4,3712.8,3707.3,3699.3,3695.4,3689.9,3684.4,3675.7,3670.4,3663.2,3647.2,3633.2,3123.75,2821.43,2814,2806.57,2797.29,2792,2783,2775.86,2765.43,2758.29,2756.57,2747.86,2744.43,2737.43,2728.71,2720.14,2716.86,2711.86,2715.43,2708.57,2706.71,2703.29,2701.57,2696.43,2691.29,2689.57,2684.43,2682.71,2676,2671.14,2667.71,2663,2664.71,2656.43,2653.29,2651.71,2646.43,2638.57,2633.57,2630.43,2622.14,2615.86,2608.14,2604.86,2593.71,2590.86,2581.43,2572.29,3478.3,3472,3466.7,3460.4,3454.1,3447.9,3443.8,3442.9,3438.7,3437.8,3434.8,3432.8,3431,3427.9,3426,3421.1,3417.2,3413.2,3409.3,3400.2,3396.3,3393.3,3387.6,2441,2433.86,2427,2424.29,2420.14,2420,2414.57,2412,2410.57,2410.43,2411.71,2406.14,2406,2400.57,2397.86,2396.57,2394,2391.43,2388.86,2381,2375.86,2370.57,2366.86,2363,2357.71,2355.14,2348.71,2344.57,2338,2331.71,2327.86,2320,2316.43,2311.43,2305.29,2302.86,2297.86,2294.43,2290.86,2286,2283.57,2278.86,3292.2,3284,3285.8,3285,3276.1,3273.4,3261.8,3258.5,3255.3,3253.7,3251.2,3247.3,3244.9,3243.2,3239.1,3237.5,3231.9,3229.5,3226.3,3223.4,3221,3218.6,3217,3214.8,3214,3213.2,3210.8,3209.3,3207.9,3205.5,3204.7,3203.2,3202.5,3200.1,3198.5,3200,3188.8,3185.8,3173.6,2939.56,2142.43,2138.14,2134,2129.86,2124.57,2118.29,2112.86,2106.57,2101.43,2094.14,2085,2078,2073.71,2069,2064,2060.14,2058.14,2055.14,2052,2048.29,2046.29,2044.29,2050.5,2046,2041.67,2037.17,2033.83,2030.33,2026.83,2023.67,2020.17,2018,2014.8,2015.5,2013.75,2010.5,2010,2010,2010,2008,2008,2006,2006,2006,2006,2006,2006,2006,0,0,0,0,0,0,0,0,0,0,0,0,0,0,0,0,0,0,0,0,0,0,0,0,0,0,0,0,0,0,0,0,0,0,0,0,0,0,0,0,0,0,0,0,0,0,0,0,0,0,0,0,0,0,0,0,0,0,0,0,0,0,0,0,0,0,0,0,0,0,0,0,0,0,0,0,0,0,0,0,0,0,0,0,0,0,0,0,0,0,0,0,0,0
