2478,2478,2483,2483,2488,2483,2483,2478,2478,2473,2463,2463,2463,2458.5,2458.5,2458.5,2458.5,2458.5,2463.5,2463.5,2463.5,2463.5,2468,2468,2468,2468,2468,2468,2463,2463,2458,2453.5,2453.5,2453.5,2448.5,2448.5,2453.5,2453.5,2463.5,2473,2478,2483,2493.5,2493.5,2498.5,2498.5,2493,2498,2493,2493,2493,2493,2488,2493,2493,2498.5,2498.5,2498.5,2503.5,2503.5,2508.5,2513.5,2519,2514,2519,2513.5,2518.5,2518.5,2508.5,2508.5,2503.5,2498.5,2498.5,2493.5,2493.5,2493.5,2493.5,2493.5,2493.5,2498.5,2498.5,2503.5,2503.5,2508.5,2508.5,2508.5,2508.5,2503,2503,2503,2493,2493,2488,2483,2473,2473,2468,2468,2468,2468,2478,2473,2478,2483,2493,2498,2508.5,2514,2524,2524,2534,2545,2545,2555,2555,2555,2550,2550,2550,2545,2545,2534,2534,2534,2534,2534,2529,2529.5,2529.5,2529.5,2524,2524,2524,2524,2524,2524,2524,2524,2519,2519,2524,2519,2519,2524,2518.5,2518.5,2524,2524,2524,2524,2529.5,2529.5,2529.5,2534.5,2534.5,2534.5,2534.5,2534.5,2534.5,2534.5,2534.5,2539.5,2534.5,2534.5,2539.5,2539.5,2539.5,2539.5,2539.5,2539.5,2539.5,2544.5,2534.5,2529,2529,2524,2524,2524.5,2524.5,2514,2519.5,2519.5,2524.5,2524.5,2530,2535,2530,2530,2535,2535,2535.5,2525.5,2531,2526.5,2532,2527,2527,2533,2538,2542.5,2552.5,2552.5,2551.5,2551.5,2546,2551,2551,2546,2540.5,2540.5,2530,2530,2525,2525,2525,2525,2525,2525,2525,2530,2535,2540,2550.5,2555.5,2560.5,2560.5,2560.5,2560.5,2560.5,2566,2566.5,2567,2573,2578.5,2579.5,2585,2586,2581,2588,2588,2577,2577,2566.5,2565,2553.5,2548,2547.5,2535.5,2535,2529,2524,2524,2524,2529,2529,2534.5,2540,2545,2550.5,2556,2561,2566,2571.5,2582,2593,2598.5,2609.5,2620.5,2620,2626,2631.5,2637,2643,2649,2649,2654.5,2648.5,2648.5,2643,2637.5,2626,2626,2614.5,2609,2603.5,2598,2592.5,2598,2598,2603.5,2598,2603.5,2603.5,2615,2615,2620.5,2631.5,2631.5,2637.5,2643,2654.5,2665.5,2665.5,2671.5,2683,2677.5,2683.5,2689.5,2684,2684.5,2684.5,2684.5,2679,2673.5,2673.5,2668,2668,2662,2651,2645,2639,2633,2621.5,2621.5,2620.5,2615,2615,2609.5,2603.5,2609.5,2603.5,2615,2620.5,2626,2626,2626,2637.5,2637.5,2649.5,2655.5,2667,2667,2667,2672.5,2672.5,2683.5,2677.5,2677.5,2677,2677.5,2677.5,2683.5,2683.5,2683.5,2695,2695,2689,2689,2683,2671.5,2666,2665.5,2660,2654.5,2648.5,2637.5,2632,2620.5,2620.5,2615.5,2610,2610,2609.5,2609,2614.5,2614.5,2614.5,2620.5,2620.5,2620.5,2620.5,2620.5,2620.5,2615,2615,2609,2609,2603.5,2598,2598,2598,2603.5,2603.5,2609,2615,2620.5,2626,2632,2637.5,2637.5,2638,2632,2632,2627,2616,2604.5,2599,2594,2588.5,2582.5,2577,2577,2577,2577,2587.5,2587.5,2587.5,2599,2610,2620.5,2632,2643,2643,2654.5,2666.5,2672.5,2678,2678,2678,2678,2678,2678,2678,2666.5,2654.5,2648.5,2643,2637,2626,2620.5,2609,2603.5,2593,2593,2587.5,2587.5,2582,2577,2582.5,2577,2583,2594,2610.5,2610.5,2616,2627.5,2633,2644,2644,2655,2649,2643,2643,2637,2637.5,2632,2626,2626,2620.5,2620.5,2615,2615,2626,2620.5,2620.5,2620,2620,2620,2620.5,2620.5,2626,2615,2615,2620.5,2620.5,2626.5,2632,2632,2637.5,2637.5,2637.5,2643,2648.5,2660,2666,2671.5,2677.5,2689.5,2701.5,2707.5,2713.5,2719,2719,2719,2719,2719,2713,2707,2701,2695,2695,2683.5,2677.5,2672,2672,2666.5,2672,2672,2672
2483,2483,2488,2488,2488,2483,2483,2483,2473,2473,2468,2463,2463,2458.5,2458.5,2453.5,2458.5,2458.5,2458.5,2463.5,2463.5,2463.5,2468,2468,2468,2468,2468,2463,2463,2463,2458,2453.5,2453.5,2448.5,2453.5,2448.5,2448.5,2458.5,2468,2468,2478,2488,2488,2493,2493,2498,2498,2498,2493,2493,2498,2498,2493,2493,2498.5,2503.5,2503.5,2503.5,2513.5,2513.5,2513.5,2518.5,2524,2524,2529,2529,2529,2529,2524,2518.5,2518.5,2508.5,2514,2503.5,2503.5,2503.5,2503.5,2498.5,2503.5,2503.5,2503.5,2503.5,2508.5,2508.5,2514,2514,2514,2508.5,2508.5,2503.5,2498,2498,2493,2488,2478,2478,2473,2468,2468,2468,2468,2473,2473,2473,2483,2488,2498,2508.5,2508.5,2519,2524,2534,2539.5,2545,2545,2545,2545,2545,2545,2534,2529,2524,2524,2524,2524,2529,2524,2529.5,2529.5,2529.5,2524,2519,2524,2524,2524,2524,2519,2519,2524,2524,2519,2524,2524,2524,2524,2524,2519,2524,2524,2529,2529,2529,2529,2534.5,2534.5,2539.5,2534.5,2539.5,2529.5,2529.5,2529.5,2534.5,2534.5,2534.5,2539.5,2539.5,2539.5,2545,2539.5,2539.5,2544.5,2539.5,2534.5,2529,2524,2519,2519,2514,2514,2509,2504,2514.5,2514.5,2514.5,2514.5,2525,2525,2525,2530,2530,2530.5,2525.5,2526.5,2526.5,2532,2532,2532,2527,2542.5,2542.5,2547.5,2557.5,2557.5,2562.5,2556.5,2561.5,2561.5,2556,2556,2545.5,2535,2535,2535,2530,2530,2530,2535,2535,2535,2545,2545,2550.5,2560.5,2560.5,2566,2571,2571,2576.5,2576.5,2577,2582.5,2588.5,2589,2590,2590,2596,2597,2593,2594,2589,2578.5,2578.5,2572.5,2555.5,2550,2544,2542.5,2531,2525,2524.5,2519,2524,2524,2524,2529.5,2529,2540,2545.5,2555.5,2560.5,2571.5,2576.5,2576.5,2587.5,2598.5,2603.5,2615,2620.5,2626,2632,2637.5,2648.5,2648.5,2648.5,2654.5,2660,2654,2654,2654,2648.5,2637.5,2637.5,2626,2626,2614.5,2609,2603.5,2609,2603.5,2609,2615,2615,2620.5,2620.5,2626,2626,2637.5,2637.5,2643,2648.5,2654.5,2660,2671.5,2677,2677,2677.5,2677.5,2689.5,2684,2690,2684.5,2684.5,2684.5,2685,2679.5,2679.5,2673.5,2668,2662,2662,2656,2650,2644,2632,2626.5,2626.5,2632,2626,2626,2626,2620.5,2620.5,2626,2626,2632,2637.5,2643,2643,2655,2655.5,2661,2667,2667,2672.5,2672.5,2677.5,2677.5,2677.5,2677,2683,2677.5,2689.5,2689.5,2689.5,2695.5,2695.5,2689.5,2695,2695,2689,2683,2683,2671.5,2660,2654.5,2648.5,2637.5,2632,2620.5,2615.5,2610,2610,2604.5,2603.5,2609,2614.5,2614.5,2614.5,2620.5,2626,2626,2626,2626,2626,2626,2626,2620.5,2620.5,2614.5,2620,2614.5,2614.5,2620.5,2626,2626,2631.5,2637.5,2632,2632,2637.5,2637.5,2637.5,2626.5,2626.5,2621.5,2610,2604.5,2604.5,2599,2593,2587.5,2587.5,2593,2593,2599,2604.5,2610,2615.5,2626.5,2632,2637.5,2649,2660.5,2672.5,2678,2684,2689.5,2683.5,2678,2689.5,2689.5,2678,2678,2678,2666,2660.5,2649,2637,2637,2626,2615,2603.5,2598.5,2598.5,2593,2587.5,2587.5,2582.5,2583,2583,2588.5,2599.5,2600,2611,2611,2617,2633.5,2633.5,2639,2644,2638,2637.5,2632,2626,2626,2620.5,2614.5,2609,2614.5,2609,2609,2609,2598,2603.5,2603.5,2603.5,2603.5,2603.5,2609,2615,2615,2615,2620.5,2615,2620.5,2626.5,2637.5,2637.5,2637.5,2643,2643,2648.5,2654.5,2660,2671.5,2677,2683,2695,2701,2707,2713,2713,2713,2719,2713,2713,2713,2701,2695,2695,2689,2677.5,2671.5,2666,2666,2660.5,2660.5,2666,2666
2488,2488,2488,2488,2483,2483,2483,2483,2478,2473,2468,2468,2463,2463,2453.5,2453.5,2458.5,2458.5,2458.5,2458.5,2463.5,2463.5,2468,2468,2468,2468,2468,2463,2468,2463,2458,2458,2453,2448.5,2448.5,2453.5,2453.5,2458,2463,2473,2478,2483,2493,2493,2493,2493,2493,2493,2493,2498,2498,2498,2498.5,2498.5,2503.5,2508.5,2508.5,2514,2519,2519,2519,2519,2529,2529.5,2529.5,2534.5,2534.5,2534,2534,2529,2524,2518.5,2519,2514,2508.5,2508.5,2508.5,2503.5,2508.5,2503.5,2508.5,2508.5,2514,2514,2514,2519,2513.5,2513.5,2513.5,2508.5,2503.5,2503.5,2498.5,2493,2483,2483,2473,2473,2463,2468,2463,2463,2468,2473,2473,2483,2483,2493,2503.5,2508.5,2519,2524,2529,2534.5,2534,2534,2534.5,2534,2529,2529,2524,2524,2524,2524,2524,2529,2524,2529.5,2529.5,2529.5,2524,2529,2529,2529,2529,2529,2529,2524,2524,2524,2524,2524,2524,2529,2524,2529,2529,2529,2524,2534.5,2529,2529,2534,2534,2534,2534.5,2534.5,2534.5,2534.5,2534.5,2534.5,2534.5,2534.5,2539.5,2539.5,2544.5,2539.5,2545,2539.5,2544.5,2544.5,2539.5,2534.5,2529,2524,2519,2514,2514,2509,2504,2504,2504,2509,2514.5,2514.5,2525,2525,2525,2530,2535,2535.5,2530.5,2536,2541.5,2536.5,2542.5,2542.5,2542.5,2548,2558,2558,2568,2568,2567.5,2567.5,2573,2567,2567,2561.5,2556,2550.5,2550.5,2540,2540,2540,2540,2540,2540,2545,2550.5,2550.5,2555.5,2560.5,2571.5,2571,2576.5,2582,2587.5,2582,2587.5,2588.5,2594,2595,2600.5,2601.5,2602,2597,2598,2594,2589,2579.5,2573.5,2562.5,2556.5,2545,2539,2533,2532,2525.5,2520,2519,2524,2524,2524,2524,2529.5,2534.5,2545,2550.5,2560.5,2571,2576.5,2582,2593,2603.5,2615,2620.5,2631.5,2631.5,2637.5,2643,2654,2660,2666,2666,2671.5,2666,2671.5,2671.5,2665.5,2660,2654,2648.5,2643,2632,2626,2620.5,2620.5,2620.5,2620.5,2626,2620.5,2626.5,2632,2632,2637.5,2643,2643,2654.5,2654.5,2654.5,2660,2665.5,2677,2683,2677.5,2677.5,2683.5,2684,2690,2690.5,2690.5,2690.5,2690.5,2691.5,2691.5,2691.5,2679.5,2679.5,2679.5,2673.5,2667.5,2655.5,2655.5,2649.5,2643.5,2643.5,2637.5,2637.5,2632,2637.5,2637.5,2631.5,2637,2643,2643,2649,2654.5,2654.5,2666.5,2666.5,2672.5,2672.5,2672.5,2678,2677.5,2677.5,2677,2677,2689,2683.5,2695.5,2695.5,2695.5,2701.5,2701.5,2707,2701,2701,2695,2689,2689,2683,2671.5,2660,2654.5,2648.5,2637.5,2632,2620.5,2615.5,2610,2604.5,2609.5,2615,2614.5,2614.5,2614.5,2626,2626,2631.5,2631.5,2631.5,2626,2631.5,2631.5,2631.5,2632,2632,2632,2632,2631.5,2631.5,2637,2637,2643,2631.5,2637.5,2637.5,2637.5,2637.5,2632,2632,2620.5,2615,2610,2604.5,2598.5,2598.5,2593,2593,2598.5,2598.5,2604.5,2604.5,2615,2620.5,2626.5,2638,2649.5,2655,2666.5,2678,2684,2689.5,2695.5,2695.5,2695.5,2695.5,2695.5,2689.5,2689.5,2683.5,2677.5,2677.5,2666,2654.5,2649,2637,2637,2626,2615,2609.5,2598.5,2593,2593,2593.5,2588.5,2583,2583,2583.5,2594,2600,2605.5,2611.5,2617,2628,2633.5,2639,2638,2638,2632,2626.5,2615,2620.5,2609,2609,2603.5,2598,2592.5,2592.5,2592.5,2592.5,2592.5,2592.5,2592.5,2598,2592.5,2598,2598,2603.5,2615,2615,2615,2615,2626,2632,2637.5,2643,2643,2648.5,2654.5,2654.5,2660,2671.5,2677,2683,2695,2701,2707,2713,2713,2713,2713,2707,2707,2701,2695,2689,2683,2677,2671.5,2665.5,2660,2660,2654.5,2660,2660,2660
2488,2488,2488,2488,2483,2483,2483,2483,2478,2473,2468,2468,2468,2468,2463,2458,2463,2463,2463,2463,2468,2468,2468,2468,2468,2468,2468,2468,2468,2468,2458,2458,2453,2453,2453,2453,2458,2458,2463,2473,2478,2488,2488,2493,2493,2493,2493,2493,2498,2498,2498,2498,2498.5,2503.5,2508.5,2508.5,2514,2519,2519,2519,2529.5,2529.5,2529.5,2534.5,2540,2540,2539.5,2539.5,2539.5,2534,2529,2524,2524,2513.5,2513.5,2508.5,2508.5,2508.5,2513.5,2508.5,2514,2514,2513.5,2513.5,2518.5,2518.5,2518.5,2513.5,2513.5,2513.5,2513.5,2508.5,2508.5,2498.5,2488,2483,2478,2473,2463,2463,2463,2463,2458.5,2463.5,2463.5,2468,2473,2478,2488,2493,2503.5,2508.5,2513.5,2524,2524,2524,2524,2524,2524,2524,2519,2519,2519,2519,2519,2519,2524,2529.5,2524,2524,2524,2524,2524,2529,2529,2524,2524,2524,2524,2518.5,2518.5,2518.5,2519,2529,2529,2524,2529.5,2529.5,2534.5,2534.5,2534.5,2534.5,2534.5,2534.5,2539.5,2539.5,2534,2539.5,2534,2534,2534,2534,2539.5,2539.5,2550,2550,2545,2550,2550,2550,2544.5,2539.5,2534.5,2529,2529.5,2524.5,2519.5,2519.5,2509,2514.5,2504,2504,2514.5,2514.5,2514.5,2525,2525,2535,2540,2545.5,2540.5,2540.5,2546,2551.5,2557.5,2552.5,2552.5,2558,2568.5,2568.5,2573,2578.5,2578.5,2583.5,2583.5,2583,2583,2577,2571.5,2571.5,2566.5,2561,2556,2556,2550.5,2550.5,2550.5,2550.5,2556,2561,2555.5,2560.5,2571.5,2576.5,2582,2582,2587.5,2593,2593,2599,2599,2605.5,2605.5,2611.5,2617.5,2612.5,2608,2604,2599,2589,2579.5,2573.5,2562.5,2552,2546,2534.5,2533.5,2533,2526.5,2520,2514.5,2519,2519,2529.5,2529,2529,2539.5,2550,2550,2561,2571,2582,2582,2593,2603.5,2615,2620.5,2631.5,2643,2643,2654.5,2660,2665.5,2665.5,2671.5,2677.5,2677.5,2677.5,2677.5,2677.5,2671.5,2666,2666,2660,2654.5,2637,2631.5,2631.5,2632,2632,2637.5,2637.5,2637.5,2643.5,2637.5,2643.5,2649,2649,2654.5,2660.5,2666,2671.5,2665.5,2671.5,2683,2677.5,2677.5,2683.5,2684,2690,2696,2690.5,2696.5,2703,2697,2697,2703,2691.5,2691.5,2691.5,2679.5,2673.5,2673,2673,2667,2661,2661,2655,2649,2649,2649,2649,2648.5,2643,2643,2654.5,2648.5,2654.5,2660,2666,2672,2666.5,2666.5,2672,2677.5,2671.5,2677.5,2677,2677.5,2683.5,2689.5,2695.5,2695.5,2701.5,2701.5,2701.5,2701.5,2707,2707,2701,2695,2695,2689,2683,2677.5,2660,2654.5,2643,2637.5,2632,2620.5,2610,2609.5,2609.5,2615,2614.5,2609,2614.5,2620.5,2626,2631.5,2631.5,2631.5,2631.5,2631.5,2643,2637.5,2637.5,2632,2637.5,2637.5,2631.5,2631.5,2631.5,2637,2637,2637,2631.5,2631.5,2631.5,2631.5,2631.5,2626,2620.5,2620.5,2609.5,2603.5,2603.5,2598,2592.5,2603.5,2609,2609,2609,2615,2626,2631.5,2643,2654.5,2660.5,2666.5,2678,2695.5,2695.5,2701.5,2701,2701,2701,2695,2695,2695.5,2695.5,2689.5,2683.5,2677.5,2671.5,2660,2654.5,2649,2643,2637,2631.5,2620.5,2610,2604.5,2604.5,2599,2593.5,2594,2588.5,2594,2594,2605.5,2611,2611.5,2617,2622,2622,2633.5,2633,2627,2621.5,2615.5,2615,2609.5,2603.5,2603.5,2592.5,2587.5,2587,2587,2582,2582,2582,2582,2587,2587,2592.5,2592.5,2598,2598,2609,2615,2615,2620.5,2626,2637.5,2643,2643,2648.5,2654.5,2660.5,2666,2671.5,2677.5,2683,2689,2689,2701,2707,2707,2707,2713,2701,2701,2689,2689,2683,2683,2671.5,2666,2666,2660,2654.5,2654.5,2654.5,2654.5,2660,2665.5
2493,2493,2493,2493,2493,2483,2483,2483,2483,2478,2473,2473,2473,2468,2468,2468,2468,2468,2468,2468,2463,2468,2468,2473,2473,2473,2473,2468,2468,2468,2463,2463,2458,2458,2453,2453,2458,2463,2463,2473,2483,2483,2488,2493,2493,2493,2493,2498,2498,2498,2503.5,2498.5,2503.5,2508.5,2514,2514,2519,2519,2524.5,2530,2530,2530,2535,2535,2540,2545.5,2540,2534.5,2539.5,2539.5,2534,2529,2518.5,2518.5,2518.5,2513.5,2513.5,2508.5,2513.5,2514,2519,2519,2518.5,2518.5,2524,2524,2524,2519,2519,2519,2519,2519,2513.5,2508.5,2498.5,2488,2478,2473,2468,2463,2458.5,2453.5,2453.5,2448.5,2453.5,2458.5,2463.5,2473,2478,2488,2493,2498.5,2503.5,2513.5,2519,2519,2519,2524,2524,2524,2518.5,2518.5,2518.5,2518.5,2518.5,2524,2529.5,2524,2529,2529,2529,2529,2529,2524,2524,2524,2519,2513.5,2513.5,2513.5,2518.5,2524,2524,2524,2524,2529.5,2529.5,2529,2529,2534.5,2540,2540,2539.5,2539.5,2539.5,2539.5,2544.5,2544.5,2539.5,2539.5,2539.5,2539.5,2545,2545,2550,2555,2555,2555,2550,2555.5,2550,2545,2540,2534.5,2529.5,2524.5,2519.5,2519.5,2519.5,2514.5,2509,2519.5,2519.5,2524.5,2524.5,2535,2545,2545,2550.5,2556,2550.5,2556,2561.5,2556.5,2567.5,2567.5,2567.5,2568,2573,2584,2584,2583.5,2588.5,2594,2588.5,2588.5,2593.5,2587.5,2587.5,2582,2577,2577,2571.5,2566,2561,2561,2556,2556,2561,2561,2566,2571.5,2576.5,2587.5,2587.5,2593,2598.5,2604.5,2604.5,2610,2615.5,2616,2621.5,2622,2628,2629,2623.5,2614,2615,2599,2594,2583,2573.5,2556.5,2545,2539,2533.5,2533,2521.5,2515.5,2515,2519.5,2519,2524,2524,2529,2539.5,2544.5,2555.5,2561,2566,2576.5,2587.5,2593,2603.5,2615,2626,2631.5,2643,2649,2660,2660,2671.5,2677.5,2677.5,2689.5,2689.5,2689.5,2695,2689,2689,2677,2677,2677.5,2660,2648.5,2643,2643,2637.5,2643.5,2644,2644,2649.5,2649.5,2649.5,2649.5,2655,2660.5,2660.5,2660.5,2666,2671.5,2677.5,2677,2683,2689,2683.5,2689.5,2695.5,2701.5,2696,2702,2708.5,2709,2709,2709,2703,2703,2709.5,2703,2703,2685,2685,2684.5,2678.5,2684.5,2678.5,2672.5,2660.5,2660.5,2666.5,2660.5,2654.5,2654.5,2654.5,2660,2660,2666,2671.5,2665.5,2671.5,2672,2677.5,2671.5,2671.5,2677.5,2677,2677,2677.5,2683.5,2689.5,2695.5,2701.5,2701.5,2701.5,2707.5,2707.5,2707.5,2713,2707,2701,2701,2701,2689,2683,2665.5,2654.5,2649,2643,2631.5,2615,2615,2609.5,2615,2609,2614.5,2609,2609,2615,2626,2626,2631.5,2631.5,2637,2631.5,2637.5,2637.5,2643,2637.5,2632,2631.5,2631.5,2637,2637,2631.5,2626,2626,2626,2626,2620.5,2620.5,2620.5,2620.5,2620.5,2614.5,2614.5,2603.5,2603.5,2603.5,2603.5,2609,2614.5,2620,2620,2631.5,2643,2643,2660.5,2666.5,2678,2689.5,2695.5,2707,2707,2713,2713,2707,2701,2707,2701,2695,2695,2695,2683.5,2683.5,2671.5,2671.5,2660,2660,2649,2649,2631.5,2626,2615,2610,2610,2604.5,2599,2594,2588.5,2594,2605.5,2605.5,2611,2611,2617,2622,2622,2627.5,2627,2627,2621.5,2615.5,2610,2604.5,2598.5,2598.5,2593,2587.5,2582,2582,2582,2577,2577,2577,2577,2582,2587,2592.5,2592.5,2603.5,2609,2609,2615,2626,2631.5,2637,2643,2648.5,2654.5,2660.5,2666,2671.5,2671.5,2683.5,2683,2683,2695,2695,2695,2701,2701,2701,2695,2695,2683,2683,2677.5,2671.5,2671.5,2660,2660,2654,2654,2648.5,2648.5,2660,2660,2665.5
2493,2493,2493,2493,2493,2493,2488,2488,2488,2483,2483,2478,2478,2473,2473,2473,2473,2473,2473,2473,2473,2473,2473,2473,2473,2473,2473,2468,2468,2468,2468,2463,2463,2458,2463,2463,2463,2463,2468,2473,2483,2483,2483,2488,2488,2493,2493,2498,2498,2503.5,2503.5,2503.5,2503.5,2514,2519,2514,2519.5,2519.5,2525,2525,2525,2530,2535,2530,2535,2540,2540,2540,2539.5,2534.5,2534,2534.5,2529.5,2524,2518.5,2518.5,2518.5,2513.5,2519,2514,2524,2524,2524,2529,2529,2529,2534.5,2529.5,2529.5,2524,2524,2524,2519,2513.5,2503.5,2493,2488,2478,2468,2463,2458.5,2453.5,2448.5,2444,2444,2449,2453.5,2453.5,2463.5,2473,2478,2488,2498,2498,2503,2508.5,2513.5,2518.5,2518.5,2518.5,2518.5,2518.5,2524,2518.5,2524,2524,2524,2524,2524,2529,2529,2529,2529,2524,2524,2524,2519,2518.5,2518.5,2518.5,2513.5,2513.5,2519,2524,2529.5,2529,2529,2534.5,2540,2534.5,2545.5,2545.5,2550.5,2545,2545,2550,2550,2550,2544.5,2544.5,2544.5,2544.5,2550,2550,2550,2555,2555,2555,2560.5,2555.5,2555.5,2550,2540,2540,2540,2535,2530,2530,2524.5,2525,2524.5,2524.5,2524.5,2529.5,2540,2545.5,2555.5,2555.5,2561,2566,2571.5,2566.5,2572,2572,2572,2578,2578,2578,2583.5,2583.5,2594,2594,2599,2599,2604.5,2599,2599,2599,2598.5,2587.5,2593,2582,2582,2577,2571.5,2571.5,2571.5,2561,2566,2566,2571.5,2576.5,2587.5,2593,2598.5,2603.5,2609.5,2609.5,2620.5,2626,2626.5,2632,2633,2639,2639.5,2639.5,2635,2624.5,2619.5,2609,2604,2588,2577,2561.5,2555.5,2545,2538.5,2533,2522,2521,2525,2525,2524.5,2524,2524,2534.5,2539.5,2545,2550,2560.5,2566,2571,2576.5,2593,2603.5,2603.5,2615,2631.5,2643,2654.5,2654.5,2672,2678,2683.5,2689.5,2701.5,2707,2701,2713,2707,2701,2701,2695,2695,2683.5,2666.5,2666.5,2655,2655,2655.5,2655.5,2655.5,2655.5,2655.5,2661,2661,2666.5,2666.5,2666.5,2672,2677.5,2683.5,2683,2689,2689,2695,2695.5,2701.5,2701.5,2707.5,2707.5,2714,2714.5,2714.5,2714.5,2721,2715.5,2715.5,2715.5,2715.5,2709,2703,2697,2696.5,2696,2696,2690,2684,2678,2672.5,2672.5,2672,2672,2666.5,2660.5,2666,2665.5,2665.5,2666,2671.5,2671.5,2665.5,2665.5,2671.5,2665.5,2671.5,2671.5,2671.5,2677.5,2689.5,2683.5,2695.5,2695.5,2701.5,2701.5,2707.5,2713.5,2713.5,2713.5,2719,2713,2707,2707,2701,2683,2671.5,2660,2654.5,2649,2637,2631.5,2626,2620.5,2620.5,2620,2620,2620.5,2615,2620.5,2626,2631.5,2631.5,2631.5,2631.5,2631.5,2631.5,2637.5,2637.5,2632,2632,2626,2626,2620.5,2620.5,2615,2615,2615,2615,2609,2614.5,2614.5,2620,2620,2620,2614.5,2609,2609,2609,2609,2615,2620.5,2626,2631.5,2631.5,2643,2654,2660,2677.5,2683.5,2695.5,2707,2713,2719,2725,2725,2719,2713,2713,2701,2701,2695,2695,2689,2683,2683,2677.5,2665.5,2665.5,2665.5,2660,2649,2649,2631.5,2631.5,2620.5,2620.5,2610,2604.5,2604.5,2604.5,2599.5,2604.5,2610.5,2610.5,2616,2616,2616,2621.5,2627,2626.5,2626.5,2620.5,2610,2610,2604.5,2604.5,2593,2587.5,2587.5,2582,2576.5,2576.5,2571.5,2571.5,2571.5,2577,2582,2587,2592.5,2592.5,2603.5,2603.5,2614.5,2614.5,2620.5,2631.5,2637,2649,2649,2660,2660,2671.5,2671.5,2683.5,2683.5,2689,2689,2701,2695,2695,2701,2701,2695,2689,2689,2677,2677,2671.5,2660,2660,2654.5,2648.5,2648.5,2648.5,2643,2643,2648.5,2654,2654
2503.5,2498,2498,2498,2498,2498,2498,2493,2493,2488,2488,2488,2483,2483,2483,2478,2478,2478,2473,2473,2473,2478,2478,2473,2473,2473,2473,2468,2468,2468,2468,2468,2463,2463,2463,2463,2463,2468,2468,2473,2478,2478,2478,2478,2483,2488,2488,2493,2498,2498,2503.5,2503.5,2508.5,2514,2519,2514,2519.5,2525,2520,2525,2525,2530,2530,2535,2535,2535,2534.5,2534.5,2539.5,2534.5,2534,2529,2529.5,2529.5,2524,2524,2524,2519,2524,2524,2529.5,2529.5,2534.5,2534.5,2534.5,2540,2540,2545,2540,2540,2529.5,2529.5,2524,2519,2513.5,2503.5,2488,2483,2473,2468,2458.5,2453.5,2444.5,2444.5,2444.5,2444.5,2449,2449,2453.5,2463.5,2473,2478,2488,2498,2498,2508.5,2513.5,2513.5,2518.5,2524,2519,2524,2524,2519,2524,2524,2529,2529,2529,2534.5,2529,2524,2529,2524,2529,2524,2524,2524,2513.5,2519,2519,2519,2524,2524,2529.5,2529,2540,2540,2550.5,2550.5,2550.5,2555.5,2555.5,2560.5,2560.5,2560.5,2555.5,2555.5,2550,2550,2550,2555.5,2555.5,2555.5,2566,2560.5,2555,2560.5,2560.5,2566,2561,2555.5,2555.5,2550.5,2545,2545,2540,2540,2540,2540,2535,2535,2540,2545.5,2550.5,2555.5,2561,2566,2571.5,2577,2577,2582.5,2582.5,2582.5,2582.5,2588.5,2588.5,2588.5,2588.5,2588.5,2599,2599,2604.5,2610,2610,2604.5,2609.5,2603.5,2603.5,2603.5,2598.5,2593,2587.5,2587.5,2577,2577,2571.5,2571.5,2571.5,2577,2577,2582,2587.5,2598.5,2603.5,2615,2620.5,2620.5,2631.5,2631.5,2637.5,2637.5,2638,2644,2650,2645,2645.5,2635,2624.5,2619.5,2603,2592,2576,2570,2555,2544,2543.5,2538,2521.5,2525.5,2525,2525,2524.5,2524,2524,2529.5,2534.5,2539.5,2550,2555,2560.5,2566,2576.5,2582,2598.5,2603.5,2615,2631.5,2643,2648.5,2660.5,2672.5,2678,2690,2695.5,2707.5,2707.5,2719,2725,2719,2719,2713,2707,2707,2695.5,2684.5,2678.5,2667,2667,2667,2661.5,2661.5,2667,2667,2667,2672.5,2678.5,2684,2678,2683.5,2689.5,2689,2689,2689,2695,2701,2701,2707.5,2713.5,2713.5,2720,2720,2720,2726.5,2726.5,2726.5,2726.5,2721,2721,2721,2721,2714.5,2708.5,2707.5,2707.5,2701.5,2695.5,2689.5,2683.5,2678,2678,2678,2677.5,2672,2666,2671.5,2665.5,2665.5,2671.5,2671.5,2671.5,2671.5,2671.5,2671.5,2665.5,2666,2666,2671.5,2671.5,2671.5,2683.5,2689.5,2695.5,2701.5,2707.5,2707.5,2714,2720,2720,2713.5,2719,2713,2707,2701,2689,2677,2666,2654,2648.5,2643,2631.5,2626,2632,2626,2631.5,2631.5,2626,2626,2620.5,2632,2637.5,2637.5,2631.5,2631.5,2631.5,2631.5,2637.5,2632,2620,2620,2609,2609,2609,2609,2603.5,2598,2598,2598,2598,2609,2603.5,2609,2609,2615,2615,2609.5,2609.5,2609.5,2615,2615,2620.5,2631.5,2637,2637,2654.5,2665.5,2671.5,2689,2695,2713,2713,2719,2731,2725,2725,2719,2713,2707,2701,2701,2695,2695,2689,2683,2683,2677.5,2677.5,2671.5,2665.5,2665.5,2660,2654.5,2649,2637,2637,2631.5,2626,2620.5,2620.5,2615.5,2610,2615.5,2615.5,2621.5,2621.5,2616,2621.5,2621.5,2626.5,2632,2626.5,2620.5,2620.5,2615,2615,2604.5,2593,2593,2582,2576.5,2576.5,2576.5,2571,2576.5,2576.5,2582,2587.5,2592.5,2592.5,2603.5,2603.5,2614.5,2614.5,2626,2626,2637.5,2637.5,2648.5,2654.5,2660,2665.5,2665.5,2677.5,2677.5,2689,2689,2689,2689,2689,2689,2689,2689,2683,2683,2671.5,2666,2666,2660,2654.5,2654.5,2643,2643,2637,2631.5,2637.5,2637.5,2637.5,2637.5,2643
2498,2498,2498,2498,2498,2498,2498,2498,2493,2493,2493,2493,2488,2488,2488,2483,2483,2483,2478,2478,2478,2478,2478,2478,2478,2473,2473,2473,2468,2473,2473,2468,2473,2468,2468,2468,2463,2468,2468,2468,2468,2473,2473,2478,2483,2488,2488,2493,2493,2498,2503.5,2508.5,2508.5,2514,2519,2514,2519.5,2520,2520,2525,2525,2525,2530,2525,2530,2535,2534.5,2540,2539.5,2534.5,2534,2529,2529.5,2524,2524,2524,2524,2524,2529,2529,2529.5,2534.5,2540,2540,2545,2550.5,2550.5,2550.5,2550.5,2545,2540,2540,2529.5,2524,2513.5,2503.5,2493,2483,2473,2468,2458.5,2449,2449,2444.5,2439.5,2449.5,2444.5,2449,2453.5,2463.5,2468.5,2473,2478,2493,2498,2498,2508.5,2513.5,2513.5,2519,2524,2524,2524,2524,2524,2534.5,2534.5,2534.5,2534.5,2534.5,2534.5,2534.5,2534.5,2534.5,2529,2534.5,2529.5,2529.5,2529,2529,2529,2529,2534.5,2539.5,2540,2545.5,2556,2556,2561.5,2561.5,2566.5,2571.5,2571.5,2571.5,2577,2571.5,2571.5,2560.5,2560.5,2566,2566,2566,2561,2571,2566,2566,2566,2566,2571.5,2571.5,2566,2566,2566,2561,2556,2556,2556,2550.5,2556,2556,2556,2550.5,2550.5,2561,2561,2566,2571.5,2577,2582,2587.5,2593,2593,2599,2599,2599,2599,2599,2599,2604.5,2604.5,2604.5,2604.5,2610,2609.5,2620.5,2615,2615,2615,2609,2609,2603.5,2598.5,2598.5,2587.5,2587.5,2587.5,2582.5,2577,2577,2582,2582,2587.5,2593,2604.5,2609.5,2620.5,2626,2626,2631.5,2637.5,2648.5,2654.5,2649,2655,2649.5,2650,2645,2634,2629,2618.5,2613.5,2597,2586,2569.5,2558.5,2548,2542.5,2536.5,2531,2525.5,2530,2524.5,2529.5,2524,2529,2529.5,2534.5,2539.5,2545,2550,2560.5,2566,2566,2582,2593,2609.5,2609.5,2626,2637.5,2643,2654.5,2672.5,2678.5,2696,2696,2713.5,2719,2725,2731,2737,2731,2731,2725,2719,2713.5,2702,2690.5,2684.5,2679,2679,2673,2673,2673,2678.5,2672.5,2678.5,2684,2684,2689.5,2689.5,2689.5,2695,2695,2701,2707,2707,2707,2713,2719,2725.5,2725.5,2731.5,2726,2732.5,2732.5,2732.5,2732.5,2726.5,2726.5,2726.5,2720,2720,2720,2713.5,2707.5,2707.5,2701.5,2701.5,2695.5,2689.5,2689.5,2683.5,2672,2672,2672,2666,2671.5,2665.5,2665.5,2671.5,2666,2666,2660,2660,2660,2654,2665.5,2665.5,2671.5,2672,2678,2684,2690,2696,2702,2702,2708.5,2714,2720,2720,2713.5,2707.5,2707,2701,2695,2677.5,2665.5,2654,2654,2648.5,2637.5,2631.5,2631.5,2626,2631.5,2637.5,2632,2626.5,2626.5,2632,2632,2626.5,2626.5,2620.5,2620.5,2620.5,2615,2620.5,2603.5,2598,2592.5,2592.5,2587.5,2587.5,2587.5,2587.5,2582,2592.5,2592.5,2598,2603.5,2603.5,2609.5,2609.5,2615,2615,2615,2620.5,2620.5,2626.5,2637.5,2643,2648.5,2648.5,2665.5,2671.5,2683,2701,2713,2719,2725,2731,2731,2737,2731,2731,2719,2713,2707,2701,2701,2701,2695,2689,2689,2683,2683,2683,2671.5,2671.5,2671.5,2665.5,2665.5,2654.5,2648.5,2643,2643,2637,2631.5,2631.5,2626,2626,2626,2626,2620.5,2620.5,2626.5,2632,2632,2632,2632,2626,2626,2626,2626,2620.5,2615,2609.5,2598.5,2593,2593,2587.5,2587.5,2587.5,2587.5,2587.5,2592.5,2592.5,2603.5,2609,2614.5,2620,2620,2632,2637.5,2643,2643,2648.5,2660,2660,2671.5,2671.5,2671.5,2683,2683,2689,2689,2689,2683.5,2683.5,2689,2689,2683,2671.5,2671.5,2666,2660,2654.5,2649,2643,2637,2637,2631.5,2626,2626,2626,2631.5,2637.5,2637.5
2503,2503,2503,2503,2503,2503,2503,2503,2498,2498,2503.5,2498.5,2493,2493,2493,2493,2493,2488,2483,2483,2478,2483,2478,2478,2478,2478,2478,2478,2478,2473,2473,2473,2473,2468,2468,2463,2468,2468,2468,2468,2463,2468,2473,2473,2473,2478,2483,2488,2493,2498,2503.5,2508.5,2513.5,2514,2519,2519.5,2519.5,2520,2520,2525,2525,2525,2525,2530,2530,2535,2534.5,2534.5,2534.5,2534.5,2534,2529,2529.5,2524,2529,2529,2529,2529,2529,2534.5,2539.5,2540,2545.5,2550.5,2556,2550.5,2556,2556,2556,2550.5,2545,2540,2535,2524,2513.5,2503.5,2488,2478,2478,2468,2458.5,2449,2449,2444.5,2439.5,2449.5,2449.5,2454,2453.5,2453.5,2463.5,2468.5,2478,2483,2488,2493,2503.5,2508.5,2514,2514,2519,2519,2524.5,2524.5,2529.5,2534.5,2534.5,2534.5,2534.5,2534.5,2534.5,2534.5,2534.5,2540,2540,2534.5,2539.5,2539.5,2544.5,2544.5,2545,2555.5,2555.5,2555.5,2566,2571.5,2572,2578,2583.5,2588.5,2583,2588.5,2588.5,2588.5,2587.5,2587.5,2582,2577,2577,2571.5,2571.5,2571.5,2571.5,2576.5,2576.5,2571,2576.5,2582,2577,2576.5,2576.5,2576.5,2577,2577,2577,2572,2572,2572,2572,2566.5,2566.5,2566.5,2571.5,2571.5,2577,2577,2582,2582,2593,2598.5,2598.5,2598.5,2598.5,2598.5,2598.5,2598.5,2598.5,2604.5,2604.5,2604.5,2609.5,2609.5,2615,2615,2620.5,2620.5,2620.5,2620.5,2620.5,2609,2609,2609.5,2604.5,2593,2587.5,2587.5,2587.5,2587.5,2587.5,2587.5,2587.5,2587.5,2599,2610,2620.5,2620.5,2626,2637.5,2643,2648.5,2654.5,2654.5,2654.5,2660.5,2655,2655,2650,2639.5,2634,2629,2617.5,2601.5,2590,2579.5,2568.5,2563,2557.5,2541,2535.5,2530,2530,2535,2529.5,2534.5,2529,2534.5,2534.5,2539.5,2539.5,2545,2555.5,2561,2566,2571,2587.5,2598.5,2604.5,2615,2632,2643,2655,2666.5,2678.5,2690.5,2701.5,2713.5,2719,2737.5,2737,2743,2743,2743,2731,2731.5,2720,2714,2703,2690.5,2685,2685,2685,2685,2684.5,2690.5,2690,2690,2701.5,2701.5,2701,2701,2707,2701,2707,2713,2707,2713,2713,2719,2731.5,2731.5,2731.5,2737.5,2737.5,2731.5,2731.5,2738,2738,2731.5,2731.5,2731.5,2731.5,2725.5,2725.5,2719,2713,2713,2707,2701,2701,2695.5,2689.5,2683.5,2683.5,2678,2672,2671.5,2666,2665.5,2665.5,2660,2660,2660,2660,2654,2654,2648.5,2654.5,2660,2666,2660.5,2672.5,2678.5,2684.5,2690.5,2690.5,2696.5,2708.5,2708.5,2714,2714,2707.5,2707.5,2701.5,2695.5,2689.5,2677.5,2666,2654.5,2654.5,2649,2637,2637,2637.5,2643,2637.5,2643.5,2643.5,2632,2627,2627,2627,2627,2621.5,2615.5,2610,2609.5,2609.5,2598,2587.5,2582,2577,2571.5,2571.5,2571.5,2571.5,2571.5,2577,2577,2582,2587.5,2593,2609.5,2604.5,2610,2615.5,2615.5,2620.5,2626.5,2626.5,2637.5,2643.5,2649,2654.5,2660.5,2666,2677.5,2689,2701,2719,2719,2731,2725,2731,2737,2737,2731,2719,2719,2707,2707,2707,2701,2701,2695,2689,2689,2689,2677.5,2683,2683,2677.5,2677.5,2671.5,2660,2660,2654.5,2654.5,2648.5,2643,2643,2637,2637.5,2643,2637,2637,2631.5,2637.5,2643,2643,2649,2649,2643,2643,2643,2643,2637.5,2631.5,2626,2615,2609.5,2603.5,2593,2593,2592.5,2592.5,2598,2603.5,2609,2620,2620,2620,2626,2626,2637.5,2643,2648.5,2648.5,2648.5,2654,2666,2666,2677,2677,2677,2683,2683,2683,2683.5,2683.5,2683.5,2683,2677.5,2671.5,2671.5,2666,2660,2654,2643,2637,2637,2637,2626,2626,2615,2615,2615,2626,2626,2631.5
2508.5,2508.5,2508.5,2508.5,2508.5,2508.5,2508.5,2508.5,2508.5,2503.5,2503.5,2503.5,2498.5,2493,2493,2493,2493,2493,2483,2483,2483,2483,2478,2478,2478,2483,2483,2483,2478,2478,2473,2478,2473,2473,2468,2463,2463,2468,2463,2463,2463,2463.5,2468.5,2468.5,2473,2483,2488,2493,2498,2498,2503.5,2508.5,2513.5,2514,2519,2519.5,2519.5,2520,2520,2525,2525,2525,2525,2530,2530,2529.5,2534.5,2534.5,2534.5,2534.5,2534,2529,2529.5,2524,2529,2529,2529,2534,2539.5,2544.5,2545,2550.5,2555.5,2556,2561.5,2561.5,2561.5,2561.5,2556,2556,2550.5,2545,2535,2534.5,2519,2508.5,2493,2483,2478,2468,2463.5,2458.5,2453.5,2449,2444.5,2454,2454,2454,2453.5,2463.5,2463.5,2468.5,2473,2478,2488,2488,2498,2498.5,2503.5,2508.5,2514,2519,2519,2524.5,2524.5,2529.5,2534.5,2540,2540,2540,2540,2540,2545.5,2545.5,2545,2545,2550,2544.5,2560.5,2566,2576.5,2576.5,2582,2587.5,2588.5,2599.5,2594,2600,2600,2605.5,2605.5,2610.5,2610.5,2610,2604.5,2599,2599,2593.5,2587.5,2587.5,2577,2577,2582,2582,2582,2582,2582,2587.5,2587.5,2582,2587.5,2587.5,2587.5,2582.5,2583,2588.5,2588.5,2588.5,2583,2583,2583,2583,2583,2588.5,2587.5,2587.5,2593,2593,2593,2604.5,2604.5,2598.5,2609.5,2609.5,2609.5,2609.5,2603.5,2609.5,2609.5,2609.5,2615,2615,2620.5,2626,2620.5,2620.5,2620.5,2620.5,2620.5,2614.5,2603.5,2609.5,2604.5,2599,2593,2587.5,2587.5,2587.5,2587.5,2587.5,2587.5,2593.5,2604.5,2615.5,2620.5,2620.5,2632,2632,2643,2648.5,2654.5,2654.5,2660.5,2654.5,2660.5,2655,2643.5,2638,2633,2622,2611,2605.5,2595,2578.5,2567.5,2561.5,2551,2545.5,2545.5,2540,2535,2534.5,2534.5,2534.5,2529,2534.5,2539.5,2544.5,2539.5,2550,2550,2566,2566,2571,2587.5,2593,2599,2610,2626.5,2637.5,2643.5,2661,2678.5,2690.5,2696,2713.5,2731.5,2737.5,2743,2755,2749,2743,2749.5,2750,2731.5,2726,2714.5,2703,2697,2697,2697,2690.5,2690.5,2690.5,2695.5,2695.5,2707,2707,2701,2707,2707,2713,2707,2713,2707,2713,2719,2725,2731,2737.5,2737.5,2743.5,2737.5,2731.5,2737.5,2737.5,2737.5,2731.5,2731.5,2731.5,2725,2725,2719,2719,2713,2713,2701,2701,2695,2689.5,2689.5,2683.5,2677.5,2672,2672,2666,2666,2660,2660,2654.5,2654.5,2654.5,2648.5,2648.5,2648.5,2643,2654.5,2649,2654.5,2654.5,2660.5,2666.5,2672.5,2678.5,2684.5,2684.5,2696.5,2696.5,2702,2702,2696,2701.5,2695.5,2695.5,2678,2672,2660.5,2654.5,2654.5,2648.5,2643,2637.5,2643.5,2649.5,2644,2650,2650,2639,2633.5,2633.5,2627.5,2621.5,2616,2616,2604.5,2604.5,2593,2587.5,2576.5,2571.5,2566,2560.5,2560.5,2560.5,2560.5,2560.5,2566,2577,2582,2593,2598.5,2598.5,2610,2615.5,2615.5,2621.5,2626.5,2632,2632,2638,2643.5,2649,2654.5,2660.5,2666,2677.5,2689,2707,2713,2725,2725,2731,2737,2737,2737,2731,2719,2719,2707,2707,2707,2707,2701,2695,2701,2689.5,2689,2689,2689,2689,2689,2683,2683,2671.5,2671.5,2660,2666,2660,2660,2654,2654,2648.5,2654,2654,2648.5,2648.5,2648.5,2654.5,2654.5,2660,2660,2665.5,2665.5,2665.5,2660,2660,2649,2643,2637,2626,2626,2620.5,2615,2614.5,2614.5,2614.5,2620,2626,2632,2637.5,2637.5,2643,2643,2643,2649,2654.5,2654.5,2654.5,2660,2665.5,2671.5,2671.5,2671.5,2677,2677,2683,2677.5,2677.5,2677.5,2677.5,2677.5,2671.5,2671.5,2666,2660,2654,2654.5,2649,2637,2631.5,2631.5,2626,2620.5,2620.5,2615,2620.5,2620.5,2626,2631.5
2514,2508.5,2508.5,2513.5,2513.5,2513.5,2513.5,2513.5,2508.5,2508.5,2508.5,2508.5,2498.5,2498.5,2493.5,2493.5,2493,2488,2488,2483,2483,2478,2478,2478,2478,2478,2478,2478,2478,2478,2478,2478,2473,2473,2468,2463,2463,2468,2463,2463,2458.5,2458.5,2468.5,2468.5,2473,2478,2483,2488,2498,2503,2503.5,2508.5,2513.5,2519,2519,2514,2519.5,2525,2525,2525,2525,2525,2525,2530,2530,2535,2534.5,2534.5,2539.5,2534.5,2534,2529,2534.5,2534.5,2534.5,2534.5,2539.5,2539.5,2539.5,2550,2555.5,2555.5,2561,2566.5,2567,2573,2567.5,2567.5,2561.5,2561.5,2550.5,2545,2535,2529.5,2519,2503.5,2493,2483,2478,2473,2468,2463.5,2458.5,2453.5,2453.5,2458.5,2458.5,2458.5,2463.5,2463.5,2468.5,2468.5,2473,2478,2483,2493,2493,2503.5,2498.5,2508.5,2514,2519,2519,2524.5,2524.5,2535,2535,2545,2545,2545,2545,2545,2550.5,2555.5,2555.5,2560.5,2561,2566,2577,2582,2593,2604.5,2610,2610.5,2616,2622,2628,2628,2628,2633.5,2633.5,2633,2633,2632,2621.5,2615.5,2615.5,2604.5,2593.5,2593.5,2593.5,2593.5,2587.5,2587.5,2587.5,2593,2587.5,2593,2598,2603.5,2598,2598,2599,2604.5,2599,2599.5,2599.5,2600,2605.5,2599.5,2599.5,2599.5,2599.5,2604.5,2610,2604.5,2610,2604.5,2610,2610,2610,2610,2615,2615,2620.5,2620.5,2615,2615,2620.5,2620.5,2615,2620.5,2615,2620.5,2626,2626,2620.5,2620.5,2614.5,2615,2603.5,2609.5,2604.5,2604.5,2599,2593.5,2593.5,2593.5,2593.5,2593.5,2593.5,2593.5,2604.5,2615.5,2615.5,2626.5,2626.5,2637.5,2643,2654.5,2654.5,2654.5,2648.5,2660.5,2654.5,2643,2643,2632,2627,2616,2610.5,2599.5,2588.5,2578,2572,2561.5,2556,2545,2540,2534.5,2534.5,2529,2529,2534.5,2534.5,2539.5,2539.5,2544.5,2545,2550,2550,2560.5,2566,2571,2576.5,2582,2593,2604.5,2620.5,2626.5,2643.5,2649.5,2672.5,2684.5,2690,2707.5,2725,2731,2743,2755,2755,2755.5,2755.5,2750,2737.5,2738,2726.5,2714.5,2703,2703,2703,2696.5,2702,2701.5,2707.5,2707.5,2713,2719,2719,2719,2713,2713,2713,2713,2713,2713,2713,2713,2719,2725,2725,2725,2725,2725,2725,2731,2731,2725,2725,2725,2719,2719,2719,2707,2707,2707,2695,2695,2695,2689.5,2683.5,2677.5,2666,2666,2666,2660,2660,2660,2654.5,2654.5,2654.5,2654.5,2654.5,2648.5,2643,2643,2649,2643,2643,2648.5,2649,2655,2661,2667,2673,2673,2684.5,2690.5,2690.5,2690.5,2690.5,2690.5,2690,2684,2678,2666.5,2654.5,2648.5,2649,2643,2637.5,2644,2650,2650,2656,2657,2657,2651,2651,2639.5,2639.5,2627.5,2621.5,2610.5,2604.5,2593.5,2587.5,2582,2566,2561,2555,2550,2545,2545,2555,2555,2560.5,2571.5,2576.5,2587.5,2598.5,2604.5,2615,2620.5,2626.5,2626.5,2626.5,2632,2637.5,2643.5,2649,2649,2654.5,2660.5,2666,2677.5,2689,2701,2713,2725,2725,2731,2737,2737,2737,2731,2725,2713,2719,2713,2707,2707,2695,2695,2695,2695,2683.5,2683.5,2683.5,2689,2683.5,2683,2683,2677,2671.5,2671.5,2671.5,2665.5,2665.5,2665.5,2665.5,2660,2665.5,2665.5,2665.5,2660,2671.5,2671.5,2677,2677,2683,2683,2683,2683,2683,2677.5,2671.5,2665.5,2654.5,2649,2643,2637.5,2631.5,2637.5,2626,2632,2643,2643,2648.5,2648.5,2654.5,2649,2649,2660,2654.5,2660,2660,2660,2660,2665.5,2665.5,2671.5,2671.5,2671.5,2666,2671.5,2671.5,2671.5,2671.5,2665.5,2665.5,2665.5,2660,2660,2654,2654.5,2654.5,2637,2637,2631.5,2631.5,2620.5,2620.5,2620.5,2620.5,2620.5,2626,2631.5,2631.5
2519,2519,2519,2513.5,2513.5,2513.5,2518.5,2518.5,2513.5,2513.5,2508.5,2508.5,2503.5,2498.5,2493.5,2493.5,2488,2488,2488,2483,2483,2483,2483,2478,2478,2478,2478,2478,2478,2478,2478,2473,2473,2473,2473,2468,2463,2463,2458,2463,2458.5,2458.5,2463.5,2468.5,2468.5,2478,2483,2493,2498,2503,2508.5,2508.5,2513.5,2519,2514,2519,2519.5,2525,2525,2525,2525,2525,2530,2530,2535,2535,2534.5,2534.5,2539.5,2539.5,2539.5,2534,2534.5,2534.5,2539.5,2539.5,2539.5,2545,2550,2550,2555.5,2566,2561,2572,2573,2578.5,2578.5,2573,2573,2567.5,2561.5,2551,2540,2529.5,2519,2508.5,2493,2488,2483,2478,2473,2473,2468,2463.5,2468.5,2468.5,2468.5,2468.5,2468.5,2473,2473,2473,2473,2478,2483,2488,2493,2498,2498.5,2503.5,2508.5,2519,2519,2524.5,2524.5,2530,2540,2545,2540,2545.5,2550.5,2556,2556,2561,2566,2566,2571.5,2582,2587,2598,2615,2626.5,2632,2639,2645,2656,2657,2651,2656,2661.5,2661.5,2655.5,2649.5,2649.5,2637.5,2637.5,2626.5,2621.5,2610,2610,2599,2599,2599,2599,2604.5,2604.5,2599,2604.5,2609.5,2615,2614.5,2614.5,2609.5,2615.5,2616,2616,2616,2616,2611,2616,2616,2616,2610.5,2616,2616,2621.5,2616,2616,2621.5,2621.5,2621.5,2621.5,2626.5,2626.5,2620.5,2626,2626,2626,2626,2620.5,2620.5,2615,2620.5,2620.5,2620.5,2620.5,2615,2615,2609,2609.5,2604.5,2604.5,2604.5,2599,2593.5,2593.5,2593.5,2599,2599,2599,2599,2599,2599,2616,2621.5,2621.5,2632,2637.5,2649,2654.5,2654.5,2654.5,2654.5,2654.5,2660.5,2648.5,2648.5,2632,2626.5,2615.5,2610,2599,2588.5,2571.5,2566,2555.5,2550.5,2545,2534.5,2534.5,2539.5,2539.5,2539.5,2539.5,2539.5,2544.5,2544.5,2550,2550,2550,2555.5,2561,2561,2566,2571.5,2582,2587.5,2599,2610,2620.5,2632,2643.5,2666.5,2672.5,2678.5,2701.5,2719,2725,2743,2749,2749,2749,2749.5,2749.5,2743.5,2737.5,2731.5,2720,2714,2714,2714,2707.5,2707.5,2707.5,2713,2719,2725,2725,2719,2713,2713,2719,2713,2719,2713,2713,2713,2719,2719,2713,2719,2725,2725,2725,2719,2719,2719,2713,2713,2713,2713,2713,2713,2701,2701,2701,2695,2689,2683.5,2683.5,2677.5,2671.5,2666,2666,2660.5,2660,2660,2660,2660,2654.5,2654.5,2648.5,2648.5,2648.5,2643,2643,2643,2643,2637.5,2643,2643,2643.5,2649.5,2655.5,2661.5,2661.5,2667,2673,2678.5,2678.5,2678.5,2672.5,2678.5,2672.5,2666.5,2654.5,2643,2643,2643.5,2638,2638,2639,2651,2651,2657,2663,2663.5,2657.5,2651.5,2645.5,2645.5,2628,2622,2616,2599.5,2594,2582.5,2571.5,2560.5,2545,2544.5,2544.5,2539.5,2539.5,2545,2550,2560.5,2571.5,2576.5,2593,2598.5,2604.5,2620.5,2626.5,2626.5,2626.5,2632,2637.5,2643.5,2643.5,2655,2654.5,2660.5,2666,2677.5,2683.5,2695,2713,2713,2719,2725,2731,2731,2737,2743,2737,2725,2719,2719,2713,2713,2701,2695,2689,2689,2695,2689.5,2683.5,2683.5,2677.5,2677.5,2677.5,2677,2677,2671.5,2671.5,2665.5,2671.5,2671.5,2671.5,2672,2672,2677.5,2677.5,2677.5,2683.5,2683.5,2689,2689,2695,2695,2707,2707,2707,2707,2707,2701,2689,2677.5,2665.5,2660,2660,2648.5,2654,2648.5,2660,2660,2660,2665.5,2665.5,2671.5,2671.5,2666,2666,2666,2672,2666,2666,2666,2660,2660,2665.5,2665.5,2660,2666,2666,2660,2665.5,2665.5,2665.5,2660,2660,2660,2654,2654,2654.5,2648.5,2643,2637,2631.5,2631.5,2631.5,2620.5,2620.5,2620.5,2631.5,2637.5,2637.5,2643
2519,2519,2519,2519,2518.5,2518.5,2518.5,2518.5,2518.5,2513.5,2513.5,2513.5,2503.5,2503.5,2498.5,2493.5,2493.5,2488,2488,2478,2478,2478,2483,2483,2483,2483,2483,2483,2483,2478,2478,2478,2478,2478,2473,2468,2463,2463,2463,2463,2463,2458.5,2463.5,2468.5,2473,2478,2488,2493,2498,2503,2508.5,2513.5,2513.5,2519,2524,2519,2524.5,2530,2530,2530,2530,2530,2530,2535,2540,2540,2534.5,2540,2539.5,2544.5,2539.5,2545,2539.5,2539.5,2539.5,2539.5,2539.5,2545,2550,2561,2566,2566,2571.5,2572,2573,2578.5,2578.5,2573,2578.5,2561.5,2556,2545.5,2535,2529.5,2519,2508.5,2503.5,2498,2493,2488,2483,2483,2473,2478,2473,2473,2473,2478,2483,2483,2483,2483,2483,2478,2488,2483,2488,2493,2493,2498.5,2503.5,2503.5,2519,2519.5,2524.5,2530,2540,2535,2545.5,2545.5,2556,2561.5,2566.5,2577,2577,2577,2582,2593,2609,2626,2632,2643.5,2655.5,2661.5,2667.5,2679.5,2679.5,2679,2679,2678.5,2678.5,2678.5,2672.5,2666.5,2660.5,2649,2637.5,2632,2621.5,2615.5,2610,2610,2610,2610,2610,2610,2604.5,2610,2615,2615,2620.5,2620,2626,2632,2626.5,2633,2627.5,2627.5,2633.5,2633.5,2627.5,2627.5,2633,2633,2633,2627,2627,2621.5,2627,2627,2627,2627,2627,2627,2626.5,2626.5,2620.5,2620.5,2620.5,2626,2620.5,2620.5,2620.5,2620.5,2620.5,2615,2615,2609,2603.5,2604.5,2598.5,2604.5,2599,2599,2593.5,2599,2599,2599,2599,2599,2594,2594,2604.5,2604.5,2616,2621.5,2627,2637.5,2649,2649,2654.5,2654.5,2660,2666,2666,2660.5,2654.5,2637.5,2626,2620.5,2610,2599,2582,2571.5,2566,2555.5,2550,2544.5,2539.5,2539.5,2539.5,2539.5,2539.5,2545,2550,2550,2550,2555,2555,2555,2560.5,2566,2566,2566,2571.5,2582,2587.5,2599,2610,2610,2620.5,2637.5,2655,2660.5,2672.5,2695.5,2701,2719,2737,2743,2743,2749,2743,2749.5,2743.5,2737.5,2731.5,2719,2719,2719,2713.5,2719,2713,2713,2713,2719,2725,2725,2725,2725,2719,2719,2713,2719,2713,2713,2707,2707,2713,2707,2707,2713,2713,2707,2707,2707,2713,2713,2713,2707,2707,2701,2701,2701,2689,2689,2683,2683,2677.5,2677.5,2671.5,2666,2666,2654.5,2654.5,2654.5,2649,2649,2649,2654.5,2649,2649,2649,2643,2643,2637,2637,2637,2631.5,2637.5,2637.5,2643.5,2643.5,2644,2644,2655.5,2655.5,2661.5,2667,2667,2667,2661,2661,2660.5,2649,2649,2637.5,2632,2632,2633,2639,2639.5,2645.5,2651.5,2657.5,2663.5,2670,2663.5,2657.5,2651.5,2645.5,2634,2617,2611,2599.5,2594,2582.5,2571.5,2555.5,2545,2539.5,2534.5,2539.5,2544.5,2539.5,2550,2560.5,2571,2576.5,2593,2603.5,2609.5,2620.5,2620.5,2626.5,2632,2637.5,2643,2643,2654.5,2654.5,2666,2671.5,2677.5,2683,2695,2701,2713,2719,2725,2731,2737,2731,2737,2743,2737,2737,2731,2725,2725,2719,2713,2701,2695,2695,2695,2689.5,2683.5,2677.5,2683.5,2683.5,2677.5,2677.5,2677,2671.5,2671.5,2677.5,2671.5,2677.5,2677.5,2683.5,2683.5,2683.5,2689.5,2689.5,2683.5,2689.5,2695,2707,2707,2713,2725,2719,2731,2725,2725,2713,2707,2695,2689,2683,2671.5,2671.5,2671.5,2677,2677,2677,2683,2683,2689,2689,2683.5,2677.5,2683.5,2683.5,2678,2672,2672,2666,2660,2660,2660,2654.5,2660,2654,2660,2660,2660,2660,2665.5,2660,2660,2660,2660,2654,2654.5,2654.5,2649,2649,2643,2643,2643,2643,2637,2643,2648.5,2660.5,2660.5,2666
2519,2519,2524,2524,2524,2518.5,2518.5,2518.5,2518.5,2513.5,2513.5,2513.5,2508.5,2503.5,2498.5,2493.5,2493.5,2488,2483,2478,2478,2478,2478,2483,2488,2483,2488,2488,2483,2483,2483,2483,2483,2483,2473,2473,2468,2463,2468,2463,2463,2458.5,2468,2473,2478,2483,2488,2498.5,2503.5,2508.5,2514,2513.5,2518.5,2519,2524,2524,2524.5,2530,2535,2530,2530,2530,2535,2535,2540,2540,2545.5,2540,2545,2544.5,2550,2545,2545,2545,2545,2545,2545,2550,2555.5,2561,2566,2566,2571.5,2572,2578,2578.5,2578.5,2573,2573,2567.5,2556,2550.5,2545,2540,2529.5,2513.5,2508.5,2503,2503,2498,2493,2493,2488,2488,2483,2483,2488,2488,2488,2483,2488,2483,2483,2483,2483,2488,2483,2478,2488,2493,2498.5,2508.5,2514,2514,2519.5,2530,2535,2545.5,2545.5,2556,2561.5,2572,2577,2583,2588.5,2593,2598.5,2609,2626,2643,2654.5,2661,2672.5,2679,2690.5,2697,2703,2703,2702,2702,2696,2690,2684,2684,2666.5,2660.5,2649,2637.5,2632,2621.5,2621.5,2616,2616,2616,2616,2616,2615.5,2621.5,2626.5,2631.5,2637,2637.5,2649,2648.5,2649,2649.5,2655.5,2661.5,2661.5,2650,2655.5,2655.5,2650,2650,2650,2644,2639,2633.5,2639,2639,2633.5,2633,2633,2633,2633,2632,2626.5,2626.5,2626.5,2620.5,2620.5,2620.5,2620.5,2615,2609.5,2609.5,2609.5,2598.5,2598.5,2598.5,2593,2587.5,2593.5,2593.5,2593.5,2599,2599,2599,2599,2599,2588.5,2594,2599,2604.5,2604.5,2616,2621.5,2632,2643.5,2643,2648.5,2654.5,2654.5,2660,2660,2660,2649,2637,2626,2620.5,2609.5,2598.5,2582,2571,2566,2560.5,2550,2545,2545,2545,2545,2550,2550,2550,2555,2555,2555,2566,2566,2560.5,2566,2571,2571,2571,2576.5,2587.5,2582,2593,2599,2615,2615,2626,2648.5,2666.5,2678,2695.5,2701,2713,2731,2737,2743,2743,2743,2743,2743,2737,2731,2725,2719,2719,2713,2719,2713,2719,2725,2725,2731,2731,2725,2719,2719,2713,2707,2707,2707,2701,2701,2701,2701,2701,2701,2707,2701,2701,2701,2701,2695,2695,2695,2695,2689,2689,2689,2677.5,2677.5,2677.5,2677,2671.5,2671.5,2665.5,2665.5,2660,2660,2660,2654.5,2654.5,2649,2649,2649,2649,2649,2649,2649,2649,2643,2637,2637,2631.5,2631.5,2632,2632,2632,2632,2638,2638,2644,2644,2649.5,2649.5,2649.5,2649.5,2649.5,2655,2649,2637.5,2632,2626.5,2626.5,2627,2627,2633.5,2639.5,2645.5,2651.5,2663.5,2663.5,2670,2663.5,2652,2652,2646,2634,2617,2611,2599.5,2588.5,2577,2571.5,2550.5,2540,2539.5,2534.5,2534.5,2534.5,2539.5,2550,2560.5,2576.5,2587.5,2598,2603.5,2609.5,2620.5,2626,2632,2637.5,2637.5,2648.5,2660.5,2666,2666,2671.5,2671.5,2683,2689,2701,2707,2713,2713,2725,2725,2725,2731,2731,2743,2737,2737,2731,2725,2719,2719,2713,2701,2695,2695,2695,2689.5,2683.5,2683.5,2677.5,2683.5,2677.5,2677.5,2671.5,2671.5,2671.5,2671.5,2671.5,2671.5,2677.5,2683.5,2689.5,2689.5,2695.5,2701.5,2701.5,2707.5,2713,2713,2719,2725,2731,2737,2737,2737,2731,2725,2719,2707,2701,2695,2695,2695,2689,2689,2695,2695,2701,2701,2707,2707,2701,2695.5,2695.5,2695.5,2689.5,2683.5,2672,2666,2666,2654.5,2654.5,2654.5,2648.5,2648.5,2648.5,2654.5,2654.5,2654.5,2654.5,2654.5,2654.5,2654.5,2654,2654,2660,2660,2660,2654.5,2654.5,2654.5,2660.5,2660.5,2660,2660,2666,2672,2683.5,2689.5
2524,2524,2519,2519,2513.5,2513.5,2518.5,2518.5,2518.5,2513.5,2513.5,2513.5,2503.5,2503.5,2493.5,2493.5,2488,2488,2483,2478,2478,2483,2483,2483,2483,2483,2488,2488.5,2488.5,2488.5,2488.5,2488.5,2488.5,2483,2483,2478,2473,2468,2473,2468,2468,2473,2468,2478,2483,2488,2498.5,2503.5,2508.5,2514,2519,2519,2518.5,2524,2529,2529.5,2529.5,2535,2540,2535,2540.5,2540.5,2540.5,2540,2540,2545,2545.5,2550.5,2545,2550,2544.5,2550,2550,2550,2550,2550,2550,2550,2555.5,2566,2571.5,2571.5,2571.5,2577,2578,2583.5,2578.5,2578.5,2573,2573,2561.5,2561,2550.5,2545,2539.5,2529,2524,2524,2519,2514,2514,2508.5,2508.5,2508.5,2498,2498,2498,2493,2498.5,2498.5,2493.5,2493.5,2488.5,2488.5,2483,2483,2483,2483,2483,2488,2493.5,2498.5,2503.5,2514,2519.5,2530,2535,2545.5,2556,2561.5,2567,2578,2588.5,2593.5,2599,2609.5,2615,2626,2643,2660.5,2672.5,2684.5,2690.5,2696.5,2703,2715.5,2714.5,2714.5,2720,2714,2713.5,2713.5,2701.5,2695.5,2678,2678,2666.5,2649,2643.5,2632,2627,2627,2621.5,2621.5,2621.5,2627,2627,2632,2637.5,2637.5,2649,2654.5,2660,2666,2672,2672.5,2678.5,2678.5,2684.5,2678.5,2678.5,2673,2673,2673,2661.5,2662,2656,2651,2639.5,2645,2639.5,2639.5,2639.5,2639.5,2639,2639,2633,2633,2632,2632,2626.5,2620.5,2610,2610,2604.5,2604.5,2604.5,2598.5,2587.5,2593,2587.5,2587.5,2587.5,2587.5,2588.5,2588.5,2588.5,2594,2594,2594,2594,2594,2599.5,2604.5,2610.5,2610.5,2621.5,2627,2638,2643.5,2648.5,2654.5,2660,2666,2660,2660,2654.5,2643,2631.5,2626,2615,2603.5,2582,2571.5,2566,2555,2550,2550,2544.5,2544.5,2544.5,2555.5,2555.5,2555.5,2560.5,2566,2571.5,2577,2577,2577,2582,2582,2576.5,2582,2582,2587.5,2587.5,2598.5,2598.5,2609.5,2620.5,2631.5,2643,2660.5,2672,2683.5,2701,2707,2719,2731,2731,2737,2731,2737,2737,2737,2731,2731,2725,2725,2719,2725,2719,2719,2725,2725,2731,2725,2725,2719,2719,2713,2701,2701,2695,2695,2689,2689,2689,2695,2695,2695,2689,2689,2689,2689,2683.5,2683.5,2683.5,2683.5,2683.5,2683.5,2677.5,2671.5,2665.5,2671.5,2671.5,2671.5,2671.5,2665.5,2665.5,2660,2660,2654.5,2654.5,2660,2649,2654.5,2654.5,2654.5,2654.5,2654.5,2654.5,2649,2649,2643,2637,2631.5,2631.5,2632,2632,2626.5,2626.5,2632,2632,2632,2638,2637.5,2632,2637.5,2637.5,2637.5,2637.5,2637.5,2632,2626.5,2620.5,2615.5,2621.5,2627,2627.5,2633.5,2645.5,2651.5,2657.5,2670,2670,2664.5,2658,2657.5,2651.5,2634,2622,2611,2599.5,2594,2577,2566,2555.5,2545,2545,2539.5,2539.5,2544.5,2544.5,2555.5,2566,2582,2592.5,2598,2609,2615,2626,2631.5,2643,2643,2643,2654.5,2660,2660,2665.5,2671.5,2683,2689,2689,2695,2701,2707,2707,2713,2725,2719,2731,2731,2737,2737,2731,2731,2731,2725,2719,2719,2707,2701,2689,2695,2689.5,2683.5,2683.5,2683.5,2683.5,2677.5,2677.5,2677.5,2671.5,2671.5,2677,2671.5,2677.5,2683.5,2683.5,2689.5,2695.5,2695.5,2701.5,2707.5,2707.5,2713,2725,2731,2737,2749.5,2743,2749,2749,2743,2737,2731,2719,2707,2707,2707,2701,2701,2701,2713,2713,2713,2719,2719,2719,2719,2713,2707,2701.5,2695.5,2689.5,2677.5,2666,2666,2660,2654.5,2648.5,2643,2643,2643,2643,2643,2649,2649,2649,2654.5,2654.5,2660,2654,2654,2665.5,2665.5,2671.5,2671.5,2677.5,2677.5,2677.5,2683.5,2689.5,2695.5,2707,2707,2713
2524,2519,2519,2513.5,2513.5,2513.5,2513.5,2513.5,2513.5,2508.5,2508.5,2508.5,2508.5,2498.5,2493.5,2488,2488,2488,2478,2478,2483,2483,2483,2488,2488,2488,2493.5,2493.5,2493.5,2488.5,2488.5,2488.5,2488.5,2488.5,2488.5,2483,2483,2478,2478,2473,2478,2478,2478,2483,2493,2498.5,2503.5,2513.5,2513.5,2519,2524,2529,2524,2529.5,2529,2534.5,2534.5,2540,2545,2540,2545.5,2545.5,2545.5,2545.5,2550.5,2545,2550.5,2550.5,2550.5,2550,2555.5,2555.5,2550,2555,2555,2555,2560.5,2560.5,2566,2566,2571.5,2566,2571.5,2572,2578,2573,2573,2578,2572,2572,2561,2560.5,2555.5,2550,2550,2544.5,2539.5,2544.5,2534.5,2539.5,2529,2529,2524,2524,2519,2508.5,2508.5,2513.5,2508.5,2503.5,2498.5,2498.5,2498.5,2488.5,2488.5,2488.5,2478,2478,2478,2483,2493,2503.5,2508.5,2514,2524.5,2530,2540,2545.5,2556,2567,2578,2583,2599,2604.5,2615,2620.5,2631.5,2637.5,2660,2678,2678.5,2690.5,2696.5,2703,2721,2721,2726.5,2732.5,2732.5,2726,2725.5,2719,2713,2701.5,2689.5,2684,2672,2660.5,2643.5,2638,2633,2633,2633,2633,2639,2633,2633,2638,2643.5,2654.5,2660.5,2671.5,2677,2689,2689.5,2695.5,2695.5,2701.5,2701.5,2713.5,2701.5,2696.5,2690.5,2690.5,2684.5,2685,2673.5,2668,2663,2657,2651.5,2645.5,2645.5,2645.5,2645.5,2639.5,2645,2639,2633,2627,2621.5,2621.5,2615.5,2604.5,2599,2599,2593,2587.5,2587.5,2582,2587.5,2577,2577,2577,2582.5,2588.5,2588.5,2594,2594,2588.5,2588.5,2594,2594,2599.5,2610.5,2610.5,2616,2627.5,2633,2649.5,2649,2654.5,2660.5,2672,2677.5,2671.5,2654.5,2649,2643,2631.5,2620.5,2603.5,2587,2577,2566,2560.5,2555.5,2555.5,2555.5,2555.5,2555.5,2560.5,2560.5,2566,2571.5,2577,2577,2582,2582,2582,2587,2587,2587,2587.5,2587.5,2587.5,2587.5,2598,2598,2609,2620.5,2626,2637,2654.5,2660.5,2672,2689.5,2701,2707,2713,2725,2731,2731,2737,2737,2731,2737,2731,2731,2725,2725,2725,2719,2719,2725,2719,2725,2731,2719,2713,2707,2707,2701,2689,2689,2689,2689,2689,2683.5,2677.5,2677.5,2677.5,2677.5,2671.5,2671.5,2677.5,2677.5,2671.5,2677.5,2672,2666,2671.5,2671.5,2665.5,2665.5,2671.5,2666,2660,2660,2665.5,2665.5,2654.5,2660,2660,2649,2654.5,2654.5,2654.5,2654.5,2654.5,2654.5,2654.5,2654.5,2654.5,2649,2649,2643,2637.5,2631.5,2632,2626,2620.5,2620.5,2620.5,2620.5,2620.5,2632,2620.5,2626,2626,2626,2626,2626,2620.5,2620.5,2615,2615,2610,2615.5,2616,2621.5,2633.5,2639.5,2645.5,2657.5,2663.5,2663.5,2663.5,2652,2651.5,2645.5,2634,2628,2611,2599.5,2594,2588.5,2571.5,2555.5,2550.5,2545,2545,2545,2550,2550,2566,2576.5,2587.5,2598,2603.5,2614.5,2626,2631.5,2643,2643,2648.5,2654.5,2654.5,2665.5,2671.5,2671.5,2677,2683,2689,2695,2695,2701,2707,2713,2719,2719,2725,2731,2737,2737,2737,2737,2731,2731,2731,2725,2719,2719,2713,2695,2695,2695.5,2689.5,2683.5,2683.5,2683.5,2672,2672,2672,2671.5,2665.5,2671.5,2666,2677.5,2677.5,2677.5,2689.5,2695.5,2701.5,2701.5,2707.5,2713.5,2719,2731.5,2737.5,2749.5,2755.5,2761.5,2755.5,2761.5,2755,2749,2743,2731,2719,2713,2707,2713,2713,2713,2719,2719,2725,2731,2731,2725,2725,2725,2719,2713,2707,2695.5,2683.5,2677.5,2666,2654.5,2648.5,2643,2643,2637.5,2637,2637,2637,2643,2643,2643,2649,2649,2654.5,2660,2660,2671.5,2671.5,2677.5,2683.5,2689.5,2695.5,2707,2707,2719,2719,2731.5,2737.5,2737.5
2513.5,2513.5,2508.5,2508.5,2508.5,2508.5,2508.5,2508.5,2508.5,2508.5,2503.5,2503.5,2503.5,2498.5,2493,2488,2488,2483,2483,2478,2483,2488,2488,2488,2488,2488,2493.5,2493.5,2493.5,2493.5,2493.5,2493.5,2488.5,2488.5,2488.5,2488.5,2488.5,2483,2478,2483,2488,2483,2488,2488,2498,2503.5,2503.5,2513.5,2519,2524,2524,2529,2534.5,2529.5,2534.5,2540,2540,2540,2545,2545,2545,2545.5,2545.5,2550.5,2550.5,2545,2550.5,2550.5,2550.5,2555.5,2555.5,2555.5,2555.5,2560.5,2560.5,2560.5,2560.5,2566,2566,2566,2566,2566,2571.5,2572,2572,2578,2573,2572,2566.5,2566.5,2560.5,2561,2566,2560.5,2550,2550,2560.5,2555.5,2550.5,2550,2550,2544.5,2534.5,2534.5,2529.5,2518.5,2518.5,2513.5,2513.5,2508.5,2503.5,2498.5,2493.5,2488.5,2483.5,2478,2478,2478,2478,2488,2493,2503.5,2508.5,2514,2524.5,2535,2550.5,2556,2566.5,2572,2588.5,2599,2610,2615,2631.5,2637,2637.5,2648.5,2660.5,2678.5,2684.5,2696.5,2708.5,2714.5,2721,2733,2733,2732.5,2731.5,2725.5,2719,2719,2707,2701.5,2695.5,2683.5,2666.5,2660.5,2649,2638,2638,2644,2644,2644,2650,2650,2650,2655.5,2661,2666.5,2672.5,2683.5,2689,2707,2707,2713,2719,2725,2719,2719,2713.5,2720,2714,2708.5,2703,2697,2691.5,2686,2674,2669,2663,2657.5,2657.5,2657.5,2646,2651.5,2639.5,2639.5,2633.5,2627.5,2621.5,2616,2604.5,2604.5,2599,2593,2582,2582,2582,2582,2577,2577,2577,2577,2582.5,2582.5,2588.5,2588.5,2588.5,2588.5,2588.5,2588.5,2594,2599.5,2605.5,2616,2622,2633.5,2645,2650,2661,2666.5,2666.5,2672.5,2678,2666,2666,2654.5,2648.5,2643,2626,2614.5,2598,2582,2571.5,2566,2566,2555.5,2555.5,2560.5,2560.5,2560.5,2560.5,2571.5,2571.5,2577,2582,2587.5,2587.5,2592.5,2592.5,2592.5,2592.5,2598,2598,2598,2598,2603.5,2603.5,2609,2620,2626,2643,2649,2660.5,2672,2677.5,2695.5,2701,2713,2713,2719,2725,2719,2725,2725,2725,2725,2719,2719,2719,2719,2719,2719,2719,2719,2719,2713,2713,2707,2701,2695,2689,2689,2683.5,2677.5,2677.5,2677.5,2677.5,2677.5,2671.5,2671.5,2671.5,2671.5,2666,2665.5,2665.5,2671.5,2666,2666,2666,2665.5,2665.5,2660,2660,2660,2666,2666,2666,2660,2660,2660,2660,2654.5,2654.5,2654.5,2654.5,2654.5,2654.5,2660,2660,2660,2660,2660,2660,2654.5,2648.5,2643,2637.5,2631.5,2626,2626,2620.5,2620.5,2615,2620.5,2626,2620.5,2615,2620.5,2620.5,2620.5,2620.5,2615,2615,2609.5,2609.5,2609.5,2610,2615.5,2616,2621.5,2633.5,2639.5,2651.5,2657.5,2657.5,2657.5,2651.5,2651.5,2645.5,2633.5,2622,2616,2599.5,2594,2588.5,2571.5,2566,2555.5,2555.5,2555.5,2561,2561,2566,2576.5,2587.5,2592.5,2609,2620,2626,2632,2643,2643,2654,2654,2660,2666,2666,2677,2677,2683,2689,2695,2701,2701,2707,2713,2713,2719,2725,2725,2737,2737,2737,2737,2737,2737,2731,2725,2725,2719,2713,2713,2707,2701,2695,2689.5,2689.5,2683.5,2683.5,2672,2672,2666,2666,2666,2665.5,2660,2671.5,2677.5,2677.5,2683.5,2689.5,2695.5,2701.5,2707.5,2713.5,2725.5,2731.5,2737.5,2749.5,2755.5,2755.5,2761.5,2761.5,2755,2749,2743,2731,2725,2713,2713,2719,2719,2713,2719,2719,2731,2737,2743,2737,2737,2731,2731,2719,2713,2695.5,2695.5,2677.5,2671.5,2654.5,2648.5,2643,2637.5,2631.5,2626,2626,2626,2631.5,2637.5,2643,2649,2649,2649,2660,2660,2671.5,2683,2689,2701,2701,2713,2731,2731,2737.5,2749.5,2762,2762,2762
2513.5,2513.5,2508.5,2508.5,2508.5,2508.5,2508.5,2508.5,2503,2503,2498,2498,2498,2493,2493,2483,2483,2483,2483,2483,2483,2483,2488,2493,2493,2488,2493,2493,2498.5,2498.5,2498.5,2493.5,2493.5,2493.5,2493.5,2493.5,2493.5,2488.5,2488,2483,2488,2488,2493,2493,2503,2508.5,2508.5,2519,2519,2524,2529,2529,2529,2534.5,2534.5,2540,2540,2545.5,2545.5,2540,2545,2545,2545,2545,2545,2545,2550.5,2550.5,2550.5,2550.5,2555.5,2555.5,2561,2561,2561,2561,2561,2561,2566,2566,2566,2566,2571.5,2566.5,2572,2572,2572,2571.5,2571.5,2566,2561,2560.5,2560.5,2571,2560.5,2566,2566,2566,2566,2566,2560.5,2555.5,2550,2545,2534.5,2534.5,2524,2519,2514,2509,2504,2499,2489,2488.5,2484,2479,2483.5,2478,2478,2483,2493,2508.5,2513.5,2519,2529.5,2540,2561,2577,2593,2599,2610,2620.5,2637,2643,2648.5,2654,2648.5,2654.5,2678,2678.5,2690.5,2696.5,2709,2714.5,2721,2721,2726.5,2732.5,2720,2725.5,2719,2713,2707,2701,2683.5,2683.5,2666,2660.5,2648.5,2643,2643.5,2643.5,2644,2650,2650,2656,2656,2661.5,2667,2678.5,2684,2689.5,2701,2713,2713,2719,2731,2731,2731.5,2737.5,2725.5,2731.5,2726,2726,2714.5,2715.5,2697.5,2692,2686.5,2680.5,2675.5,2670,2663.5,2658,2658,2652,2640,2640,2634,2622,2616,2610.5,2599,2593.5,2587.5,2587.5,2582,2582,2576.5,2576.5,2582,2582,2582,2582,2587.5,2587.5,2588.5,2588.5,2588.5,2588.5,2588.5,2594,2594,2605.5,2616,2616,2628,2639.5,2651,2656,2667.5,2678.5,2684.5,2684.5,2684,2678,2672,2665.5,2660,2648.5,2637.5,2620,2609,2592.5,2582,2576.5,2566,2566,2566,2566,2566,2566,2566,2571.5,2582,2582,2587.5,2593,2593,2598,2598,2598,2598,2598,2598,2603.5,2609,2603.5,2609,2609,2620,2632,2643,2649,2654.5,2666.5,2672,2683.5,2695.5,2701.5,2707.5,2707.5,2713,2713,2713,2719,2713,2713,2713,2719,2713,2719,2719,2713,2719,2719,2713,2713,2713,2707,2695,2689,2683.5,2677.5,2677.5,2677.5,2677.5,2677.5,2671.5,2665.5,2665.5,2660,2660,2660,2665.5,2665.5,2665.5,2665.5,2665.5,2665.5,2665.5,2665.5,2665.5,2665.5,2660,2666,2666,2666,2666,2660,2660,2660,2660,2660,2660,2660,2660,2660,2665.5,2665.5,2665.5,2671.5,2665.5,2665.5,2660,2660,2654.5,2654.5,2643,2643,2637,2637,2626,2626,2626,2626,2632,2620,2614.5,2614.5,2614.5,2609,2609,2609,2609,2609,2603.5,2603.5,2609.5,2615,2621.5,2621.5,2627.5,2633.5,2645,2657,2651.5,2651.5,2651.5,2651,2645,2633.5,2627.5,2610.5,2604.5,2594,2582.5,2577,2571.5,2560.5,2560.5,2566,2566,2571,2576.5,2587.5,2598,2603.5,2614.5,2626,2631.5,2643,2643,2654.5,2654.5,2660,2660,2671.5,2671.5,2677.5,2677.5,2689,2689,2695,2707,2707,2713,2719,2719,2731,2725,2731,2737,2737,2737,2737,2737,2731,2731,2731,2725,2719,2719,2713,2713,2707,2695,2695,2695,2689.5,2689.5,2672,2672,2672,2666,2660,2660,2660,2666,2671.5,2671.5,2677.5,2689.5,2695.5,2701.5,2707.5,2713.5,2725.5,2731.5,2743.5,2743.5,2749.5,2755.5,2755,2755,2749,2743,2737,2725,2719,2713,2713,2713,2713,2719,2719,2725,2731,2731,2737,2743,2743,2737,2731,2719,2713,2701,2689.5,2683.5,2665.5,2648.5,2643,2637.5,2631.5,2626,2620.5,2615,2620.5,2626,2626,2637.5,2637.5,2643,2649,2654.5,2671.5,2677,2689,2707,2713,2719,2737.5,2749.5,2756,2756,2768.5,2781,2787.5,2787.5
2513.5,2513.5,2508.5,2503,2503,2503,2503,2503,2503,2498,2498,2493,2498,2493,2488,2488,2483,2483,2483,2483,2483,2483,2488,2493,2493,2493,2493,2493,2493,2498.5,2498.5,2498.5,2498.5,2498.5,2498.5,2498.5,2498.5,2493.5,2493,2493,2488,2493,2498,2503,2503,2508.5,2519,2519,2524,2524,2524,2534,2534,2534.5,2534.5,2539.5,2540,2540,2540,2545.5,2545.5,2545,2545,2545,2545,2540,2540,2545.5,2545.5,2550.5,2555.5,2555.5,2561,2561,2561,2566,2561,2561,2566,2566,2560.5,2566,2566,2561,2566.5,2566.5,2571.5,2566,2566,2566,2560.5,2560.5,2571,2566,2566,2571.5,2577,2577,2577,2571.5,2571.5,2566,2560.5,2555.5,2545.5,2545.5,2534.5,2524,2519,2514,2509,2499,2494.5,2489,2484,2484,2483.5,2483.5,2483,2493,2498,2508.5,2518.5,2529,2534.5,2550.5,2561,2582,2598.5,2609.5,2626,2637,2648.5,2654,2660,2665.5,2665.5,2660,2672,2678.5,2684.5,2696.5,2703,2703,2714.5,2714.5,2720,2714,2720,2719,2713,2695.5,2695,2683.5,2683.5,2677.5,2665.5,2654.5,2648.5,2643,2649,2655,2661,2661,2667,2667,2672.5,2678.5,2684.5,2695.5,2701.5,2701,2713,2725,2731,2731,2737,2737,2743.5,2743.5,2737.5,2738,2738,2732.5,2733,2727.5,2716,2710.5,2698.5,2693,2681.5,2676,2676,2664.5,2664.5,2658,2646,2646,2629,2623,2616,2610.5,2599,2593.5,2587.5,2582,2582,2576.5,2576.5,2576.5,2576.5,2576.5,2582,2582,2587.5,2587.5,2593.5,2599,2599,2593.5,2599,2599,2604.5,2610.5,2622,2627.5,2639.5,2645.5,2668,2673.5,2679,2690.5,2696.5,2696,2690,2689.5,2683.5,2671.5,2665.5,2660,2648.5,2632,2614.5,2603.5,2592.5,2582,2582,2571.5,2571.5,2571.5,2566,2571.5,2582,2582,2582,2587.5,2593,2593,2593,2598.5,2598.5,2603.5,2603.5,2603.5,2603.5,2609.5,2615,2615,2614.5,2614.5,2620,2632,2643,2649,2660.5,2666.5,2672,2678,2695.5,2695.5,2695.5,2695.5,2701.5,2707.5,2707.5,2707.5,2707.5,2707.5,2707.5,2713,2707,2707,2707,2707,2707,2707,2707,2713,2707,2701,2683,2683,2677.5,2677.5,2671.5,2671.5,2671.5,2665.5,2665.5,2665.5,2660,2660,2660,2660,2660,2660,2660,2660,2665.5,2671.5,2671.5,2671.5,2666,2666,2666,2666,2666,2666,2660,2666,2660,2666,2666,2666,2671.5,2671.5,2671.5,2671.5,2671.5,2677.5,2677.5,2677.5,2677.5,2677.5,2671.5,2671.5,2671.5,2660,2660,2654.5,2649,2643,2637.5,2632,2632,2631.5,2626,2626,2620.5,2620.5,2620.5,2609.5,2615,2615,2603.5,2609,2603.5,2603.5,2609,2620.5,2620.5,2615.5,2627,2633,2639,2645,2645,2645,2645,2644,2639,2633,2627,2610,2604.5,2599,2587.5,2582,2576.5,2576.5,2571,2571,2576.5,2576.5,2587.5,2592.5,2598,2609,2620.5,2631.5,2637,2643,2654.5,2654.5,2654.5,2660,2666,2666,2671.5,2671.5,2677.5,2683.5,2689,2695,2707,2713,2713,2719,2719,2725,2725,2731,2737,2737,2737,2737,2731,2731,2731,2731,2725,2719,2719,2719,2713,2707,2707,2695,2695,2689.5,2689.5,2677.5,2672,2672,2660.5,2660,2660,2654.5,2660,2666,2671.5,2677.5,2683.5,2689.5,2695.5,2701.5,2713.5,2719,2731.5,2737.5,2743.5,2743,2749,2749,2749,2737,2737,2725,2719,2713,2707,2707,2707,2707,2707,2719,2719,2725,2731,2737,2737,2737,2731,2725,2725,2713,2701,2689.5,2677.5,2671.5,2648.5,2637.5,2626,2620.5,2620.5,2620.5,2615,2615.5,2620.5,2626,2626,2637.5,2643,2649,2654.5,2666,2689,2695,2713,2719,2731.5,2750,2762.5,2769,2775,2781.5,2794,2794,2806.5
2508.5,2503.5,2503.5,2498,2503,2503,2498,2498,2498,2498,2498,2493,2493,2493,2483,2483,2483,2483,2483,2483,2488,2488,2488,2488,2493,2493,2498,2498,2498,2498,2498,2503.5,2503.5,2498,2498,2498,2498,2498,2498,2493,2493,2493,2503,2508.5,2508.5,2513.5,2519,2524,2524,2524,2529,2529,2529,2534,2534,2529,2534.5,2534.5,2539.5,2534.5,2540,2540,2534.5,2534.5,2540,2540,2540,2545.5,2545.5,2555.5,2555.5,2560.5,2560.5,2566,2566,2561,2561,2561,2566,2560.5,2560.5,2555.5,2555.5,2561,2561,2561,2561,2560.5,2566,2566,2566,2566,2571.5,2571.5,2577,2583,2588.5,2588.5,2583,2583,2577,2577,2571.5,2561,2550.5,2550.5,2540,2535,2524.5,2519.5,2514.5,2504,2494.5,2494.5,2489,2484,2488.5,2488.5,2483,2493,2503,2513.5,2524,2534.5,2540,2555.5,2566,2598.5,2609.5,2631.5,2643,2660,2666,2666,2671.5,2677.5,2665.5,2671.5,2672,2672.5,2678.5,2684.5,2690.5,2696.5,2702,2702,2702,2713.5,2707.5,2701.5,2695.5,2695,2683.5,2677.5,2671.5,2671.5,2660,2654.5,2649,2649,2648.5,2660.5,2660.5,2672.5,2678.5,2684,2690,2701.5,2707.5,2713,2719,2713,2725,2731,2731,2737,2737,2749.5,2749.5,2743.5,2743.5,2744,2744,2739,2739,2727.5,2722,2716,2710.5,2698.5,2693,2688,2676,2676,2664.5,2658,2647,2641,2635,2623,2611,2599.5,2588.5,2587.5,2582.5,2582,2582,2582,2582,2582,2582,2587.5,2587.5,2587.5,2598.5,2598.5,2599,2599,2599,2604.5,2604.5,2604.5,2610.5,2621.5,2633.5,2639,2651,2657,2674,2686,2697,2697,2703,2708.5,2702,2695.5,2695.5,2689.5,2677.5,2665.5,2660,2643,2626,2614.5,2603.5,2592.5,2592.5,2582,2577,2577,2582,2582,2576.5,2582,2587.5,2593,2587.5,2593,2598.5,2598.5,2598.5,2603.5,2604.5,2609.5,2609.5,2615,2615,2615,2620.5,2626,2626,2632,2643,2654.5,2660.5,2666.5,2678,2678,2684,2690,2690,2690,2695.5,2695.5,2695.5,2695.5,2695.5,2695.5,2695.5,2695.5,2701.5,2707,2707,2701,2701,2701,2707,2701,2695,2689,2683,2677.5,2677.5,2671.5,2671.5,2671.5,2665.5,2665.5,2665.5,2660,2660,2660,2660,2660,2666,2666,2666,2666,2671.5,2671.5,2666,2666,2666,2666,2666,2666,2666,2666,2666,2666,2666,2666,2671.5,2677,2677,2677,2677,2677,2683,2683,2683,2689,2689,2689,2677.5,2677.5,2677.5,2677.5,2671.5,2660,2660,2654,2648.5,2643,2637,2643,2632,2632,2626.5,2626.5,2620.5,2620.5,2615,2615,2615,2609,2603.5,2609,2614.5,2620.5,2620.5,2615,2626.5,2632,2643.5,2643.5,2649.5,2649.5,2643.5,2649.5,2643.5,2637.5,2626.5,2620.5,2610,2604.5,2598.5,2593,2582,2576.5,2576.5,2587.5,2587.5,2592.5,2592.5,2603.5,2609,2620.5,2631.5,2637,2643,2648.5,2648.5,2654.5,2654.5,2660.5,2660.5,2666,2666,2666,2677.5,2677.5,2683.5,2689,2695,2707,2707,2713,2713,2719,2719,2725,2725,2731,2731,2725,2731,2731,2725,2719,2719,2719,2719,2719,2719,2713,2707,2701,2695,2695,2689.5,2677.5,2672,2660.5,2660.5,2660.5,2654.5,2654.5,2654.5,2666,2660,2671.5,2677.5,2683.5,2695.5,2701.5,2713,2725,2725,2737,2743,2743,2743,2749,2743,2737,2725,2719,2713,2701,2701,2701,2701,2707,2707,2713,2713,2719,2725,2725,2725,2731,2725,2725,2713,2701,2695.5,2689.5,2677.5,2665.5,2648.5,2637.5,2626,2620.5,2615,2609.5,2604.5,2610,2610,2615.5,2626,2631.5,2637.5,2649,2654.5,2677,2695,2707,2719,2737.5,2750.5,2769.5,2782,2788.5,2794.5,2794.5,2807.5,2807.5,2807.5
2508.5,2503.5,2498,2498,2498,2498,2498,2498,2498,2498,2493,2498,2493,2488,2483,2483,2483,2483,2488,2488,2488,2488,2488,2493,2498,2498,2498,2498,2498,2498,2498,2498,2498,2498,2498,2498,2498,2498,2498,2498,2498,2503.5,2508.5,2508.5,2513.5,2513.5,2524,2524,2524,2524,2524,2529.5,2529.5,2524,2529,2529,2524,2524,2529,2524,2529.5,2529.5,2529,2534.5,2534.5,2534.5,2540,2545.5,2545.5,2550.5,2555.5,2560.5,2560.5,2560.5,2566,2566,2561,2566,2555.5,2555.5,2560.5,2555.5,2550.5,2550.5,2555.5,2555.5,2555.5,2550,2555.5,2555,2561,2566,2566,2572,2578,2583.5,2588.5,2594,2583.5,2594,2583,2583,2577,2566.5,2556,2550.5,2540,2535,2530,2525,2514.5,2504,2499.5,2494.5,2489,2489,2488.5,2488.5,2493.5,2493,2503,2513.5,2524,2540,2540,2555.5,2566,2603.5,2620.5,2643,2654,2666,2671.5,2683,2689,2695,2671.5,2671.5,2672,2660.5,2666.5,2666.5,2672.5,2678.5,2678.5,2684.5,2684.5,2684.5,2684,2683.5,2677.5,2671.5,2665.5,2666,2654,2648.5,2648.5,2643,2643,2643,2643,2654.5,2654.5,2666,2672,2683.5,2695.5,2695.5,2707,2713,2713,2713,2725,2731,2731,2737,2737,2743,2743.5,2743.5,2743.5,2744,2738,2739,2739,2733,2728.5,2728.5,2716,2710.5,2705,2693,2688,2676,2670.5,2653,2647,2641,2623.5,2611.5,2605.5,2599.5,2588.5,2582.5,2582.5,2582,2576.5,2582,2582,2587.5,2582,2582,2593,2593,2598.5,2598.5,2604.5,2610,2610,2615.5,2615.5,2616,2616,2627.5,2639,2651,2657,2674,2686,2692,2709.5,2709.5,2715.5,2709,2702,2701.5,2695.5,2683.5,2683.5,2677.5,2660,2654,2643,2637.5,2620,2609,2598,2598,2592.5,2592.5,2587.5,2587.5,2587.5,2587.5,2593,2587.5,2587.5,2593,2587.5,2593,2598.5,2598.5,2598.5,2609.5,2609.5,2615,2620.5,2620.5,2626,2626,2632,2637.5,2643,2649,2660.5,2666.5,2666.5,2672.5,2672.5,2684,2684,2684,2684,2684,2689.5,2689.5,2689.5,2695.5,2695.5,2695.5,2695.5,2695.5,2701,2701,2701,2695,2695,2695,2689,2689,2683,2671.5,2671.5,2665.5,2665.5,2665.5,2665.5,2665.5,2660,2660,2660,2660,2660,2666,2666,2666,2666,2666,2671.5,2677,2677,2677,2677,2671.5,2671.5,2666,2666,2666,2666,2671.5,2671.5,2671.5,2677,2677,2677,2689,2689,2689,2689,2695,2695,2695,2695,2695,2695,2695,2695,2689,2677,2677,2665.5,2665.5,2660,2654.5,2648.5,2643,2643.5,2638,2638,2632,2627,2632,2626.5,2620.5,2615,2615,2615,2614.5,2620,2620.5,2620.5,2626,2626,2631.5,2637.5,2648.5,2648.5,2643,2643,2643,2637.5,2631.5,2626,2615,2609,2609,2598,2592.5,2592.5,2582,2587,2587,2592.5,2598,2598,2609,2615,2626,2631.5,2637.5,2637.5,2643,2643,2643,2649,2654.5,2654.5,2660.5,2660.5,2660.5,2672,2677.5,2683.5,2689.5,2695,2695,2695,2707,2707,2713,2719,2725,2725,2719,2725,2725,2725,2719,2719,2719,2719,2713,2713,2707,2713,2713,2707,2701,2701,2695,2695,2677.5,2672,2660.5,2660.5,2660.5,2654.5,2654.5,2654.5,2660,2666,2671.5,2683.5,2689.5,2701,2707,2719,2719,2725,2731,2737,2737,2737,2743,2731,2731,2719,2713,2713,2701,2701,2701,2701,2695,2695,2701,2701,2713,2713,2719,2719,2719,2713,2713,2707,2701,2695.5,2683.5,2677.5,2660,2648.5,2637.5,2626,2620.5,2603.5,2603.5,2598.5,2599,2604.5,2604.5,2620.5,2626,2637,2643,2660,2677.5,2701.5,2707.5,2726,2744.5,2763.5,2776.5,2795.5,2795.5,2802,2802,2808,2808,2808
2508.5,2503.5,2503.5,2498,2498,2493,2493,2498,2498,2493,2493,2493,2493,2488,2488,2483,2483,2483,2488,2488,2493,2493,2493,2493,2493,2498,2498,2498,2498,2498,2498,2498,2498,2503.5,2503.5,2503.5,2498.5,2498.5,2498.5,2498.5,2508.5,2508.5,2513.5,2513.5,2518.5,2518.5,2524,2529.5,2529.5,2529.5,2524,2524,2524,2518.5,2518.5,2518.5,2518.5,2513.5,2519,2524,2529,2524,2529.5,2524,2529,2529,2534.5,2540,2545.5,2550.5,2555.5,2560.5,2560.5,2560.5,2566,2561,2566,2566,2555.5,2555.5,2550.5,2550.5,2550.5,2550.5,2550.5,2550.5,2545,2550,2550,2555,2555.5,2560.5,2566,2572,2578,2583.5,2589,2589,2589,2588.5,2588.5,2583,2583,2566.5,2561.5,2556,2545,2540,2530,2525,2520,2509.5,2499.5,2499,2493.5,2488.5,2493.5,2493.5,2493,2498,2508.5,2518.5,2524,2534.5,2545.5,2555.5,2577,2598.5,2620.5,2637.5,2654,2666,2677.5,2683,2689,2683.5,2677.5,2665.5,2654.5,2648.5,2648.5,2649.5,2649.5,2644,2655.5,2649.5,2649.5,2655,2654.5,2654.5,2654.5,2643,2648.5,2643,2643,2637.5,2637.5,2632,2626,2637.5,2643,2643,2654,2660,2665.5,2677.5,2683.5,2695.5,2701,2707,2707,2713,2719,2725,2731,2725,2731,2731,2737.5,2743.5,2737.5,2738,2744.5,2739,2733,2739.5,2728.5,2728.5,2722.5,2710.5,2705,2693,2688,2676,2664.5,2658,2641.5,2629.5,2623.5,2611.5,2605.5,2594,2588.5,2582.5,2582.5,2582,2576.5,2582,2587.5,2587.5,2587.5,2593,2593,2598.5,2598.5,2609.5,2610,2615.5,2621.5,2621.5,2627,2627,2627.5,2639,2645,2657,2674,2680.5,2692,2704,2709.5,2722,2715.5,2709,2708.5,2696,2695.5,2695.5,2683.5,2677.5,2665.5,2654,2654,2643,2632,2620,2609,2609,2603.5,2598,2593,2593,2593,2587.5,2587.5,2587.5,2587.5,2587.5,2587.5,2593,2593,2593,2593,2603.5,2609,2615,2614.5,2614.5,2626,2620,2626,2631.5,2637,2648.5,2654.5,2660.5,2660.5,2660.5,2672.5,2672.5,2672.5,2672.5,2666.5,2666.5,2678,2678,2683.5,2683.5,2683.5,2689.5,2689.5,2689.5,2695.5,2689.5,2695,2695,2689,2689,2689,2683,2671.5,2671.5,2665.5,2665.5,2665.5,2665.5,2660,2660,2660,2654,2660,2654,2660,2666,2666,2671.5,2671.5,2677,2683,2683,2683,2683,2683,2683,2677,2677,2677,2671.5,2677,2683,2677.5,2677.5,2683,2689,2695,2695,2695,2695,2701,2707,2707,2707,2707,2707,2701,2701,2701,2695,2695,2689,2683.5,2677.5,2666,2666.5,2660.5,2655,2649.5,2649.5,2644,2633,2633,2627,2621.5,2626.5,2620.5,2615,2620.5,2620.5,2620.5,2620,2626,2626,2631.5,2643,2649,2649,2649,2649,2649,2643,2643,2637.5,2632,2620,2614.5,2609,2603.5,2603.5,2592.5,2592.5,2592.5,2598,2598,2603.5,2603.5,2615,2615,2620.5,2626.5,2632,2637.5,2632,2638,2643.5,2643.5,2643.5,2649,2654.5,2654.5,2660.5,2666,2666,2677.5,2683.5,2689,2695,2695,2701,2701,2707,2713,2719,2719,2719,2719,2719,2719,2719,2719,2713,2713,2707,2707,2707,2707,2713,2701,2701,2701,2683.5,2683.5,2677.5,2672,2666.5,2660.5,2660.5,2654.5,2654.5,2660,2665.5,2665.5,2677,2683,2689,2701,2707,2719,2725,2737,2737,2737,2737,2731,2737,2737,2725,2719,2713,2707,2701,2695.5,2695.5,2689.5,2689.5,2695,2695,2701,2701,2701,2707,2713,2707,2701,2707,2695.5,2695.5,2695.5,2678,2672,2660,2643,2643,2632,2620.5,2609,2598,2593,2587.5,2598.5,2603.5,2614.5,2614.5,2626,2643,2654.5,2678,2696,2708.5,2726.5,2745.5,2758.5,2777.5,2790,2797,2803,2803,2796,2796,2789.5
2508.5,2508.5,2503.5,2498,2498,2493,2493,2493,2493,2493,2493,2493,2488,2488,2488,2488,2493,2493,2493,2493,2493,2493,2498,2498,2498,2498,2503.5,2503.5,2503.5,2498.5,2498.5,2498.5,2498.5,2503.5,2503.5,2503.5,2498.5,2498.5,2498.5,2508.5,2508.5,2513.5,2518.5,2518.5,2524,2529.5,2524,2529.5,2529.5,2529.5,2524,2519,2519,2519,2514,2513.5,2513.5,2513.5,2513.5,2513.5,2514,2519,2519,2518.5,2524,2529,2534.5,2540,2540,2550.5,2555.5,2560.5,2560.5,2560.5,2566,2561,2566,2561,2555.5,2555.5,2550.5,2550.5,2550.5,2550.5,2550.5,2545,2550,2555.5,2550,2550,2555.5,2560.5,2566,2571.5,2577,2578,2583.5,2594,2589,2589,2583.5,2583,2577,2572,2561.5,2556,2545,2540,2540,2530,2525,2514.5,2504,2499,2493.5,2493.5,2493.5,2498.5,2498.5,2508.5,2519,2518.5,2534.5,2534.5,2550.5,2560.5,2582,2604.5,2626,2649,2665.5,2677,2689,2695,2701,2689,2683,2677.5,2660,2649,2637.5,2632,2637.5,2627,2627,2626.5,2626.5,2626.5,2626,2631.5,2626,2626,2620,2620,2626,2631.5,2620.5,2626,2620.5,2620.5,2637.5,2643,2643,2654,2660,2666,2671.5,2689,2689,2701,2701,2701,2707,2707,2719,2713,2707,2713,2725,2725,2731.5,2731.5,2732.5,2733,2733,2734,2734,2728.5,2722.5,2716,2705,2693,2688,2676,2664.5,2653,2635.5,2629.5,2618.5,2606.5,2600,2594,2588.5,2588.5,2582.5,2582,2582,2587.5,2593,2593,2593,2593,2598.5,2603.5,2609.5,2615,2615.5,2615.5,2627,2627,2633,2633,2639,2650,2662,2674,2686,2692,2704,2716,2722.5,2722.5,2722,2715.5,2703,2702,2701.5,2689.5,2683.5,2677.5,2671.5,2660,2660,2648.5,2637.5,2626,2620,2614.5,2603.5,2598,2598,2598,2593,2593,2593,2587.5,2587.5,2587.5,2587.5,2587.5,2593,2593,2598,2603.5,2609,2620.5,2614.5,2626,2632,2637.5,2637.5,2637,2643,2648.5,2654.5,2654.5,2660.5,2660.5,2660.5,2660.5,2660.5,2660.5,2660.5,2660.5,2660.5,2666,2666,2671.5,2671.5,2677.5,2677.5,2683.5,2689,2689,2689,2683,2683,2689,2689,2683,2671.5,2665.5,2665.5,2665.5,2660,2660,2660,2654,2654,2654,2660,2660,2666,2671.5,2671.5,2677.5,2683,2683,2683,2683,2683,2683,2683,2683,2683,2683,2683,2683,2683,2683,2683,2689,2701,2701,2701,2701,2701,2713,2713,2713,2713,2713,2713,2713,2707,2707,2707,2701,2701,2695,2689.5,2683.5,2678,2672.5,2666.5,2661,2655.5,2650,2650,2644,2638,2638,2632,2626.5,2620.5,2626,2620.5,2626,2626,2631.5,2632,2632,2637.5,2637.5,2654,2654,2654,2654,2654,2648.5,2648.5,2648.5,2643,2626,2620.5,2620.5,2615,2609,2603.5,2598,2598.5,2603.5,2609.5,2604.5,2604.5,2610,2615.5,2621.5,2621.5,2627,2627,2627,2627,2632,2632,2637.5,2637.5,2643,2643,2654.5,2654.5,2666,2671.5,2671.5,2677.5,2683,2695,2695,2701,2707,2713,2713,2719,2719,2719,2713,2713,2713,2707,2701,2695,2701,2701,2701,2701,2695,2695,2695,2689,2683.5,2683.5,2671.5,2671.5,2666,2666,2660,2654.5,2660,2660,2671.5,2677.5,2683,2689,2701,2713,2719,2731,2731,2731,2737,2737,2743,2737,2731,2737,2725,2719,2713,2707,2701,2695.5,2689.5,2689.5,2689.5,2689.5,2689,2689,2695,2701,2695,2707,2695,2701,2695.5,2695.5,2689.5,2689.5,2678,2672,2660.5,2654.5,2643,2631.5,2620,2614.5,2603.5,2598,2598,2598,2603.5,2614.5,2615,2620.5,2632,2655,2672.5,2697,2703,2722,2740.5,2759,2772.5,2778.5,2778.5,2784,2784,2777.5,2777.5,2770.5
2513.5,2513.5,2503.5,2503.5,2498,2498,2498,2493,2493,2493,2493,2498,2493,2493,2493,2493,2493,2493,2493,2498,2503,2503,2503,2503,2503.5,2503.5,2503.5,2508.5,2508.5,2503.5,2503.5,2503.5,2503.5,2498.5,2498.5,2503.5,2498.5,2503.5,2503.5,2514,2514,2524,2524,2529,2529,2534.5,2534.5,2534.5,2534.5,2529,2529,2524,2524,2519,2509,2509,2509,2503.5,2508.5,2503.5,2503.5,2508.5,2514,2519,2524,2529.5,2534.5,2540,2545,2550.5,2560.5,2560.5,2560.5,2560.5,2561,2566,2561,2555.5,2555.5,2555.5,2555.5,2550.5,2550.5,2550.5,2550.5,2550.5,2550,2555.5,2555,2555.5,2561,2560.5,2560.5,2571.5,2572,2572,2578,2578,2578,2583.5,2578,2578,2572,2566.5,2561,2556,2550.5,2545,2535,2530,2530,2519.5,2509,2504,2504,2503.5,2498.5,2503.5,2508.5,2513.5,2524,2529,2534.5,2545,2555.5,2566,2587.5,2615,2631.5,2660,2683,2695,2701,2713,2719,2707,2701,2683.5,2665.5,2649,2643,2632,2626.5,2621.5,2610,2610,2604.5,2604.5,2610,2604.5,2609.5,2609,2603.5,2609,2614.5,2614.5,2614.5,2614.5,2614.5,2620.5,2626,2637.5,2643,2643,2654,2660,2660,2677.5,2683,2689,2689,2689,2695,2701,2701,2701,2695,2707,2701,2707,2719,2720,2720,2726.5,2726.5,2727.5,2722,2728.5,2716,2710.5,2698.5,2693,2681.5,2676,2658,2647,2635.5,2623.5,2611.5,2605.5,2600,2588.5,2588.5,2588.5,2587.5,2587.5,2593,2598.5,2603.5,2603.5,2603.5,2603.5,2603.5,2609.5,2609.5,2620.5,2620.5,2626.5,2632,2633,2638,2644,2650,2661.5,2668,2679.5,2692,2704,2710.5,2722.5,2722.5,2728.5,2722,2715.5,2703,2702,2690,2689.5,2683.5,2677.5,2665.5,2665.5,2660,2648.5,2643,2632,2626,2620,2614.5,2609,2603.5,2598,2593,2587.5,2587.5,2587.5,2582,2587.5,2582,2587.5,2587.5,2592.5,2603.5,2609,2620,2620,2632,2632,2632,2637.5,2637.5,2643,2643,2648.5,2648.5,2654.5,2654.5,2654.5,2654.5,2654.5,2660.5,2648.5,2648.5,2649,2649,2654.5,2660,2660,2660,2666,2671.5,2677.5,2683,2683,2683,2683,2677,2683,2683,2683,2671.5,2665.5,2665.5,2660,2660,2660,2654,2654,2654,2660,2660,2660,2666,2671.5,2677.5,2677.5,2683,2683,2689,2689,2689,2689,2689,2683,2689,2689,2683,2683,2683,2689,2689,2695,2701,2701,2707,2713,2713,2713,2713,2713,2713,2713,2713,2713,2713,2713,2713,2707,2707,2707,2695.5,2689.5,2684,2678.5,2672.5,2667,2667,2661.5,2650,2644,2638,2638,2632,2632,2632,2626,2626,2631.5,2637,2637,2643,2643,2643,2654.5,2665.5,2665.5,2665.5,2665.5,2665.5,2665.5,2660,2660,2649,2637,2626,2626,2620.5,2609.5,2609.5,2598.5,2604.5,2604.5,2599,2604.5,2604.5,2604.5,2610.5,2610.5,2616,2621.5,2621.5,2616,2621.5,2621.5,2627,2632,2637.5,2643,2637.5,2648.5,2648.5,2660.5,2666,2671.5,2677.5,2689,2695,2701,2701,2707,2719,2713,2725,2725,2719,2713,2713,2713,2707,2701,2701,2695,2695,2695,2695,2695,2695,2689,2689,2677.5,2677.5,2671.5,2665.5,2660,2660,2660,2654.5,2660,2666,2671.5,2683.5,2689,2701,2707,2719,2725,2737,2743,2743,2743,2743,2743,2743,2737,2737,2725,2719,2713,2707,2707,2701,2695,2695,2689.5,2689.5,2689,2689,2695,2689,2695,2689,2689.5,2689.5,2695.5,2689.5,2684,2684,2678,2678,2666.5,2660.5,2654.5,2637,2631.5,2626,2614.5,2603.5,2598,2603.5,2609,2609.5,2615,2626.5,2638,2650,2673.5,2692,2698.5,2717,2735.5,2748,2760.5,2760.5,2772.5,2772.5,2766,2759,2759,2752.5
2518.5,2513.5,2513.5,2508.5,2508.5,2508.5,2503,2503,2503,2503,2503,2503,2503,2503,2503,2503,2503,2503,2503,2508.5,2503,2503,2503,2508.5,2508.5,2508.5,2503.5,2508.5,2508.5,2503.5,2503.5,2508.5,2508.5,2503.5,2503.5,2503.5,2503.5,2509,2509,2519,2524,2529.5,2534.5,2534.5,2534.5,2540,2540,2540,2540,2534.5,2534.5,2519,2519,2514,2504,2509,2498.5,2498.5,2498.5,2498.5,2503.5,2508.5,2508.5,2514,2524,2529.5,2534.5,2545,2545,2555.5,2555.5,2566,2566,2566,2561,2561,2561,2561,2561,2555.5,2555.5,2555.5,2555.5,2555.5,2555.5,2555.5,2550,2555.5,2555,2555,2555.5,2561,2560.5,2566,2566.5,2572,2572,2572,2572,2572,2572,2572,2566.5,2561,2561,2555.5,2550.5,2540,2540,2535,2535,2524.5,2519.5,2514,2509,2514,2513.5,2513.5,2519,2529,2529,2544.5,2550,2561,2560.5,2577,2599,2631.5,2643,2677.5,2695,2707,2713,2725,2725,2725,2707,2689,2671.5,2654.5,2637,2626,2615.5,2599,2594,2588.5,2588.5,2588.5,2587.5,2587.5,2593,2593,2598,2603.5,2603.5,2603.5,2603.5,2603.5,2603.5,2609,2620,2626,2632,2637.5,2637.5,2654,2660,2660,2671.5,2671.5,2677.5,2683,2683,2683,2689,2689,2683,2683,2683.5,2695.5,2701.5,2707.5,2707.5,2720,2721,2721,2722,2716,2709.5,2704,2698.5,2686.5,2686.5,2663.5,2652,2646,2635,2617.5,2611.5,2600,2600,2594,2594,2588.5,2593.5,2593,2593,2604.5,2603.5,2603.5,2603.5,2609.5,2615,2615,2615,2632,2637.5,2637.5,2638,2644,2650,2656,2661.5,2667.5,2679.5,2692,2697.5,2704,2710.5,2716,2722,2722,2722,2709,2696.5,2696,2690,2689.5,2677.5,2671.5,2677.5,2671.5,2666,2654,2654,2643,2632,2626,2620,2614.5,2614.5,2598,2598,2593,2593,2587.5,2582,2587.5,2592.5,2587,2598,2598,2609,2614.5,2620,2632,2637.5,2631.5,2637.5,2643,2649,2649,2654.5,2648.5,2648.5,2654.5,2660.5,2654.5,2648.5,2648.5,2648.5,2649,2649,2643,2648.5,2648.5,2648.5,2654,2654,2660,2666,2666,2677,2677,2677,2677,2677,2683,2683,2683,2671.5,2665.5,2665.5,2660,2660,2660,2654,2654,2660,2660,2660,2666,2671.5,2677.5,2677.5,2683,2689,2689,2689,2689,2689,2689,2689,2689,2689,2689,2689,2683,2689,2689,2695,2701,2707,2707,2719,2719,2719,2719,2725,2725,2719,2719,2719,2719,2719,2719,2719,2719,2713,2713,2707,2695.5,2695.5,2690,2678.5,2672.5,2672.5,2666.5,2661,2655,2643.5,2643.5,2643,2643,2637.5,2637.5,2631.5,2643,2649,2654.5,2654.5,2654.5,2654.5,2671.5,2671.5,2683.5,2677.5,2677.5,2672,2672,2666.5,2666.5,2660.5,2643,2637.5,2632,2626,2620.5,2620.5,2610,2604.5,2604.5,2604.5,2604.5,2605.5,2605.5,2605.5,2605.5,2611.5,2611.5,2611,2611,2611,2616,2621.5,2627,2632,2637.5,2637.5,2643,2648.5,2654.5,2660,2665.5,2671.5,2683,2695,2695,2701,2707,2719,2719,2725,2725,2719,2719,2707,2707,2701,2695,2689,2689,2689,2683,2683,2689,2683.5,2683.5,2677.5,2671.5,2665.5,2665.5,2660,2660,2660,2660,2660,2660,2666,2677.5,2689.5,2695,2707,2713,2719,2737,2737,2743,2743,2749,2743,2743,2743,2743,2743,2731,2725,2719,2713,2713,2713,2701,2701,2695,2695,2689,2695,2695,2689,2689,2689,2683.5,2689.5,2683.5,2684,2684,2684,2684,2684,2672.5,2666.5,2660.5,2654.5,2643,2637,2626,2614.5,2609,2609.5,2615,2615.5,2621.5,2633,2645,2657,2669,2693,2705,2718,2730,2742,2742,2748,2753.5,2753.5,2747,2740.5,2740.5,2727.5
2524,2524,2519,2519,2519,2514,2514,2514,2514,2508.5,2508.5,2508.5,2508.5,2503,2508.5,2508.5,2508.5,2508.5,2508.5,2513.5,2508.5,2508.5,2508.5,2514,2514,2508.5,2508.5,2513.5,2508.5,2508.5,2513.5,2508.5,2508.5,2514,2514,2514,2509,2514,2519,2524.5,2529.5,2540,2540,2545.5,2550.5,2550.5,2550.5,2545.5,2545.5,2540,2529.5,2524.5,2524.5,2509,2509,2509,2499,2499,2499,2498.5,2503.5,2508.5,2508.5,2513.5,2524,2529,2534.5,2544.5,2550,2550,2561,2561,2566,2566,2566,2566,2566,2561,2561,2561,2555.5,2555.5,2555.5,2555.5,2555.5,2561,2561,2560.5,2560.5,2566,2560.5,2561,2566,2566,2571.5,2571.5,2571.5,2566.5,2566.5,2566.5,2566.5,2566.5,2561,2561,2555.5,2555.5,2555.5,2550.5,2545.5,2545.5,2534.5,2534.5,2529,2529,2529,2529.5,2529.5,2534.5,2539.5,2550,2555,2566,2566,2582,2587.5,2604.5,2620.5,2648.5,2666,2695,2707,2719,2725,2743,2737,2731,2713,2701,2671.5,2654.5,2637,2626,2610,2599,2588.5,2572,2572,2577,2577,2582,2582,2587.5,2593,2598,2603.5,2603.5,2603.5,2603.5,2609,2609,2614.5,2620,2632,2637.5,2637.5,2637.5,2654,2660,2671.5,2671.5,2671.5,2671.5,2671.5,2683,2677,2677,2677,2671.5,2671.5,2677.5,2684,2690,2702,2702,2708.5,2708.5,2709,2709,2703,2697.5,2686,2680.5,2669,2657.5,2651.5,2640,2629,2623,2611,2605.5,2599.5,2594,2594,2593.5,2599,2599,2604.5,2609.5,2615,2615,2615,2615,2620.5,2626,2632,2643,2649,2655,2661,2667,2661.5,2667.5,2667.5,2679,2691.5,2697.5,2704,2709.5,2716,2722,2715.5,2721,2721,2708.5,2702,2701.5,2695.5,2683.5,2683.5,2683.5,2677.5,2671.5,2666,2654,2648.5,2643,2637.5,2632,2620,2620,2609,2614.5,2603.5,2603.5,2598,2598,2592.5,2598,2592.5,2598,2603.5,2609,2620.5,2626,2631.5,2643,2649,2649,2654.5,2660,2660,2660,2660.5,2654.5,2654.5,2654.5,2654.5,2648.5,2648.5,2648.5,2643,2649,2643,2637.5,2643,2643,2648.5,2648.5,2654.5,2654.5,2665.5,2665.5,2671.5,2671.5,2671.5,2677.5,2683,2683,2683,2677.5,2665.5,2665.5,2665.5,2660,2660,2660,2654,2654,2660,2660,2660,2671.5,2671.5,2677.5,2683,2689,2689,2689,2701,2701,2701,2695,2695,2689,2689,2689,2689,2695,2695,2701,2701,2707,2707,2713,2713,2725,2725,2725,2725,2725,2719,2719,2725,2725,2725,2725,2725,2725,2719,2719,2713,2707.5,2695.5,2695.5,2684,2684,2672.5,2672.5,2666.5,2660.5,2660.5,2654.5,2660.5,2654.5,2649,2649,2649,2654.5,2660,2671.5,2671.5,2671.5,2671.5,2689.5,2695,2701,2695.5,2689.5,2689.5,2684,2684,2672.5,2666.5,2649,2637.5,2637.5,2626.5,2632,2621.5,2615.5,2610,2604.5,2605.5,2600,2600.5,2600.5,2595.5,2595.5,2601.5,2600.5,2600.5,2605.5,2605.5,2611,2616,2621.5,2626.5,2632,2632,2643,2648.5,2654.5,2660,2671.5,2677.5,2689,2689,2695,2707,2713,2719,2725,2725,2725,2725,2719,2713,2707,2701,2689,2689,2683,2683,2677.5,2677.5,2683.5,2683.5,2677.5,2671.5,2665.5,2665.5,2665.5,2665.5,2660,2660,2660,2660,2671.5,2671.5,2689.5,2689.5,2701,2713,2725,2731,2737,2749,2749,2761.5,2761.5,2755,2755,2749,2743,2743,2737,2731,2725,2725,2719,2713,2713,2707,2701,2695,2695,2701,2695,2689,2689,2683,2683.5,2683.5,2683.5,2678,2684,2684,2690,2690,2684,2678.5,2672.5,2666.5,2660.5,2648.5,2637.5,2631.5,2626,2620.5,2626.5,2627,2633,2633.5,2645.5,2657.5,2670,2688,2699.5,2712.5,2724.5,2730,2730,2735.5,2735.5,2741.5,2729,2722.5,2722,2715.5
2534.5,2534.5,2529,2524,2524,2524,2519,2519,2519,2519,2514,2514,2519,2519,2519,2519,2519,2524,2524,2524,2524,2519,2519,2519,2519,2519,2519,2518.5,2518.5,2518.5,2518.5,2513.5,2519,2514,2519,2519,2524.5,2524.5,2530,2540,2545,2556,2556,2556,2556,2561,2561,2556,2550.5,2545,2540,2530,2525,2514.5,2509.5,2504,2504,2499.5,2499,2493.5,2498.5,2503.5,2508.5,2518.5,2524,2534,2539.5,2545,2550,2560.5,2560.5,2560.5,2566,2566,2566,2566,2566,2560.5,2560.5,2555.5,2555.5,2561,2561,2561,2566,2571,2566,2566,2566,2566,2566,2566,2571,2566,2571.5,2571.5,2571.5,2566,2566,2566,2566,2560.5,2560.5,2560.5,2555.5,2555.5,2555.5,2555.5,2555.5,2555.5,2545,2545,2545,2550,2544.5,2550,2555.5,2555,2560.5,2571.5,2577,2587,2592.5,2603.5,2615,2631.5,2643,2666,2677.5,2713,2725,2731,2737,2743,2743,2737,2725,2713,2677.5,2654.5,2643,2626,2615.5,2593.5,2583,2566.5,2566.5,2566.5,2571.5,2577,2582,2582,2582,2593,2603.5,2603.5,2603.5,2603.5,2603.5,2603.5,2614.5,2620,2626,2637.5,2637.5,2637.5,2648.5,2648.5,2660,2660,2671.5,2671.5,2671.5,2671.5,2671.5,2671.5,2666,2666,2665.5,2671.5,2683.5,2684,2690,2702,2702,2703,2703,2703,2697,2691.5,2679.5,2674,2663,2651.5,2645.5,2634,2623,2617,2611,2605.5,2604.5,2599,2599,2604.5,2610,2610,2615,2620.5,2620.5,2620.5,2626,2626,2631.5,2637.5,2643,2643,2660.5,2666.5,2667,2673,2673,2673.5,2679,2685,2691.5,2697.5,2709.5,2709.5,2715.5,2709,2714.5,2714.5,2714.5,2702,2696,2695.5,2695.5,2689.5,2683.5,2683.5,2677.5,2671.5,2666,2660,2654,2654,2643,2637.5,2632,2632,2620,2620,2614.5,2614.5,2614.5,2603.5,2603.5,2603.5,2609,2609,2614.5,2620.5,2626,2637,2643,2654.5,2654.5,2660.5,2666,2666,2666,2660.5,2660.5,2660.5,2660.5,2660.5,2660.5,2654.5,2654.5,2649,2649,2643,2637.5,2637.5,2643,2643,2648.5,2648.5,2654.5,2660,2660,2665.5,2671.5,2671.5,2665.5,2665.5,2665.5,2665.5,2671.5,2665.5,2665.5,2665.5,2665.5,2660,2660,2660,2666,2660,2660,2660,2671.5,2671.5,2677.5,2683,2683,2695,2695,2701,2701,2701,2701,2701,2695,2695,2689,2689,2695,2695,2695,2695,2695,2707,2707,2713,2713,2719,2719,2719,2719,2719,2725,2725,2725,2725,2725,2725,2725,2725,2719,2719,2713,2707,2701.5,2695.5,2683.5,2683.5,2677.5,2677.5,2671.5,2665.5,2665.5,2666,2671.5,2671.5,2666,2666,2671.5,2677,2689,2695,2689,2695,2701,2707,2713,2719,2713,2701.5,2695.5,2690,2690,2678.5,2672.5,2655,2643.5,2643.5,2632,2632,2621.5,2610,2610.5,2605.5,2600.5,2600.5,2590,2585,2591,2585,2585,2590,2590,2590,2595,2600,2610.5,2626.5,2626.5,2632,2643,2648.5,2660.5,2666,2677.5,2677.5,2683.5,2695,2701,2701,2713,2719,2725,2731,2731,2725,2725,2719,2713,2701,2689,2683,2677.5,2671.5,2671.5,2671.5,2671.5,2671.5,2666,2671.5,2660,2660,2665.5,2665.5,2665.5,2665.5,2665.5,2665.5,2665.5,2671.5,2671.5,2689.5,2695.5,2701,2719,2725,2737,2743,2755.5,2761.5,2761.5,2767.5,2767.5,2761,2755,2749,2749,2749,2737,2731,2725,2725,2725,2719,2713,2701,2701,2695,2701,2695,2689,2689,2683,2677.5,2677.5,2678,2678,2684,2690,2696,2696,2696,2696,2696,2690,2678,2666.5,2660.5,2649,2643,2637.5,2638,2633,2639,2645.5,2651.5,2657.5,2670,2676,2688,2699.5,2711.5,2723.5,2723.5,2722.5,2722.5,2722,2716,2709.5,2703,2697
2550,2545,2545,2539.5,2534,2534,2529,2529,2529,2524,2524,2524,2524,2529,2529,2529,2529,2534.5,2534.5,2529.5,2529.5,2524,2524,2529,2524,2524,2524,2524,2524,2529.5,2524,2524,2524,2524,2529.5,2529.5,2529.5,2535,2540,2550.5,2556,2561.5,2566.5,2566.5,2566.5,2566.5,2566.5,2561,2556,2550.5,2545,2540,2535,2525,2520,2509.5,2509.5,2504,2504,2504,2504,2509,2514,2519,2529.5,2534.5,2545,2550,2555,2560.5,2560.5,2560.5,2566,2566,2566,2566,2560.5,2560.5,2555,2555,2560.5,2560.5,2566,2566,2566,2571,2571,2576.5,2571.5,2571.5,2577,2571.5,2576.5,2571,2576.5,2576.5,2571,2566,2560.5,2560.5,2555.5,2555.5,2555.5,2550,2550,2555.5,2555.5,2555.5,2555.5,2555.5,2560.5,2555.5,2561,2566,2566,2566,2571.5,2582,2592.5,2592.5,2603.5,2609,2620.5,2637.5,2643,2666,2666,2689,2707,2725,2737,2749,2755.5,2761.5,2749.5,2737,2731,2707,2683.5,2654.5,2643,2620.5,2604.5,2593.5,2577,2572,2566.5,2566.5,2571.5,2571.5,2582,2582,2587.5,2593,2603.5,2603.5,2609,2609,2609,2609,2614.5,2626,2620,2626,2632,2637.5,2643,2648.5,2654,2648.5,2654,2666,2666,2671.5,2671.5,2677,2665.5,2665.5,2665.5,2666,2672,2672.5,2678.5,2684.5,2696,2690.5,2690.5,2690.5,2690.5,2679,2673.5,2662,2657,2651,2639.5,2628,2622,2611,2610.5,2604.5,2604.5,2610,2604.5,2610,2610,2615,2620.5,2626,2626,2631.5,2631.5,2631.5,2643,2643,2648.5,2654.5,2666.5,2672.5,2678.5,2679,2685,2685,2691.5,2691.5,2697.5,2697.5,2697.5,2704,2709,2703,2714.5,2714,2708.5,2696,2695.5,2689.5,2695.5,2689.5,2689.5,2683.5,2677.5,2671.5,2671.5,2666,2666,2654,2654,2643,2637.5,2637.5,2632,2626,2626,2632,2620,2620,2620,2626,2620,2626,2626,2637,2637,2643,2660.5,2666.5,2666.5,2666.5,2672,2672,2672,2666.5,2666.5,2672,2666,2660.5,2660.5,2660.5,2654.5,2649,2649,2643,2643,2643,2648.5,2648.5,2654.5,2654.5,2660,2660,2660,2671.5,2671.5,2671.5,2665.5,2665.5,2665.5,2665.5,2671.5,2671.5,2665.5,2665.5,2665.5,2665.5,2660,2666,2666,2666,2671.5,2671.5,2683,2683,2683,2695,2695,2701,2701,2701,2707,2707,2707,2707,2695,2695,2689,2695,2695,2689,2689,2689,2695,2695,2695,2695,2701,2707,2707,2713,2719,2719,2719,2719,2725,2725,2725,2731,2731,2731,2731,2731,2719,2713,2701,2701,2695,2689,2683,2677,2677.5,2677.5,2671.5,2677.5,2689.5,2689.5,2695.5,2689.5,2695,2701,2719,2713,2719,2719,2725,2731,2737,2737.5,2725,2719,2713.5,2707.5,2701.5,2690,2678.5,2661,2649.5,2643.5,2632,2621.5,2616,2610,2605.5,2600,2590,2595.5,2585,2580,2580,2575,2586,2591,2585,2584.5,2595,2605.5,2616,2626.5,2632,2643,2648.5,2654.5,2666,2677.5,2683.5,2683.5,2695,2701,2707,2707,2713,2719,2725,2725,2725,2725,2725,2713,2707,2695,2689,2677.5,2677.5,2671.5,2666,2666,2666,2666,2666,2660,2660,2660,2660,2660,2660,2660,2665.5,2665.5,2665.5,2671.5,2677.5,2689.5,2701,2713,2725,2737,2749.5,2761.5,2767.5,2767.5,2773.5,2773.5,2773.5,2767.5,2761,2761,2755,2755,2743,2743,2737,2731,2725,2731,2719,2713,2707,2707,2701,2701,2695,2689,2683,2677.5,2677.5,2683.5,2684,2690,2690,2696,2702,2708.5,2708.5,2714,2707.5,2696,2690,2678.5,2660.5,2655,2655,2655.5,2650,2639.5,2645.5,2646,2652,2658,2670,2681.5,2693,2699.5,2705,2710.5,2709.5,2709.5,2703,2709,2696.5,2690.5,2690.5
2555,2550,2550,2544.5,2544.5,2544.5,2544.5,2539.5,2539.5,2539.5,2539.5,2534,2534,2534,2539.5,2539.5,2539.5,2534.5,2534.5,2534.5,2534.5,2534.5,2534.5,2529,2529,2524,2529,2529,2529,2534.5,2529.5,2534.5,2529,2534.5,2540,2540,2545,2545,2556,2561.5,2567,2572,2572,2572,2577,2572,2572,2566.5,2566.5,2556,2550.5,2545,2540,2530,2525,2519.5,2514.5,2514.5,2514,2514,2514,2519,2524,2529,2534.5,2544.5,2550,2555.5,2561,2566,2571,2571,2571,2571,2571,2566,2566,2566,2560.5,2560.5,2560.5,2566,2571.5,2571.5,2576.5,2582,2587.5,2582,2582,2582,2582,2582,2582,2576.5,2576.5,2571,2571,2571,2566,2561,2561,2555.5,2550,2555.5,2555.5,2555.5,2560.5,2560.5,2560.5,2560.5,2571.5,2571.5,2576.5,2582,2587.5,2587.5,2598,2598,2609,2620.5,2626,2643,2648.5,2654.5,2666,2683.5,2701,2707,2725,2743.5,2749.5,2756,2756,2762.5,2756,2737.5,2725.5,2713.5,2684,2654.5,2637.5,2626.5,2604.5,2588.5,2572,2567,2561.5,2566.5,2566.5,2577,2577,2582,2593,2603.5,2614.5,2614.5,2614.5,2614.5,2614.5,2614.5,2626,2632,2632,2632,2637.5,2643,2643,2654,2654,2660,2660,2666,2671.5,2677,2677,2671.5,2665.5,2665.5,2665.5,2666,2666,2666.5,2672.5,2678.5,2678.5,2684.5,2684.5,2684.5,2679,2667.5,2662,2656,2651,2639.5,2633.5,2628,2616,2610.5,2616,2610,2610,2610,2615,2615,2626,2631.5,2631.5,2637,2637,2637,2643,2649,2654.5,2648.5,2660.5,2672.5,2684,2684.5,2690.5,2690.5,2685,2691.5,2691.5,2691.5,2691.5,2691.5,2691.5,2691.5,2703,2696.5,2702,2707.5,2707.5,2695.5,2695.5,2695.5,2689.5,2695,2695,2689,2683,2677,2677,2671.5,2666,2654,2654,2648.5,2643,2637.5,2637.5,2637.5,2637.5,2637.5,2632,2632,2632,2637.5,2632,2643,2643,2649,2654.5,2654.5,2672,2666.5,2672,2666.5,2672,2678,2678,2678,2672,2672,2666,2666,2666,2666,2660,2654.5,2648.5,2648.5,2643,2648.5,2648.5,2654.5,2654.5,2660,2660,2660,2666,2671.5,2671.5,2671.5,2665.5,2665.5,2665.5,2671.5,2671.5,2671.5,2671.5,2671.5,2671.5,2671.5,2671.5,2671.5,2671.5,2677,2677,2683,2689,2695,2695,2707,2707,2713,2713,2713,2707,2707,2707,2707,2695,2695,2689,2683,2683,2689,2689,2683.5,2677.5,2683.5,2683.5,2683.5,2683.5,2683.5,2689.5,2689.5,2695.5,2701,2701,2713,2725,2725,2725,2725,2737,2731,2731,2731,2719,2713,2707,2701,2695,2695,2689,2695,2689.5,2689.5,2695.5,2701.5,2701.5,2713.5,2713.5,2719,2719,2731,2737,2743,2743,2743,2743,2749.5,2755.5,2749.5,2737.5,2731.5,2719,2713.5,2701.5,2690,2678.5,2666.5,2649,2637.5,2626.5,2615.5,2610,2604.5,2599.5,2595,2590,2584.5,2579.5,2580,2575,2575,2586,2586,2590,2595.5,2600,2610.5,2626.5,2637.5,2648.5,2654.5,2660.5,2666,2677.5,2683.5,2695,2695,2701,2713,2713,2713,2719,2725,2725,2719,2719,2719,2719,2707,2701,2689,2683,2677.5,2666,2666,2660.5,2660.5,2660.5,2660.5,2660.5,2660,2660,2660,2660,2660,2660,2660,2660,2660,2671.5,2677.5,2677.5,2695,2701,2713,2725,2731,2749.5,2761.5,2767.5,2767.5,2773.5,2780,2780,2780,2774,2767.5,2767.5,2761.5,2755,2749,2743,2737,2737,2737,2731,2719,2713,2707,2707,2701,2695,2695,2683,2677.5,2677.5,2677.5,2689.5,2689.5,2695.5,2707.5,2707.5,2714,2714,2720,2720,2707.5,2701.5,2695.5,2684,2672.5,2672.5,2661,2656,2651,2657,2651.5,2657.5,2663.5,2663.5,2675.5,2680.5,2680.5,2691.5,2697,2696.5,2696.5,2696,2690.5,2690,2684,2684
2560.5,2560.5,2561,2555.5,2550,2550,2550,2550,2555.5,2555.5,2550,2550,2550,2545,2545,2539.5,2544.5,2544.5,2544.5,2539.5,2534.5,2534.5,2539.5,2539.5,2534,2534,2534,2539.5,2539.5,2539.5,2539.5,2539.5,2545,2550.5,2550.5,2555.5,2561,2561,2566.5,2566.5,2572,2572,2583,2577,2577,2572,2572,2572,2566.5,2561.5,2556,2550.5,2550.5,2540,2530,2530,2530,2524.5,2524.5,2524.5,2524,2534.5,2534.5,2540,2550.5,2555.5,2561,2561,2566,2566,2571,2571.5,2566,2566,2566,2566,2566,2566,2566,2566,2566,2571.5,2571.5,2582,2582,2587,2587.5,2592.5,2592.5,2592.5,2587,2587,2587,2582,2582,2576.5,2576.5,2576.5,2566,2566,2561,2555.5,2555.5,2555.5,2550,2555,2560.5,2566,2566,2571.5,2571.5,2577,2587,2587,2592.5,2603.5,2603.5,2614.5,2626,2626,2637,2643,2660.5,2672,2683.5,2695.5,2713,2725,2743.5,2756.5,2756.5,2763,2763,2763.5,2751,2744.5,2726.5,2708.5,2684.5,2667,2649.5,2627,2616,2588.5,2578,2567,2567,2567,2571.5,2587.5,2587.5,2593,2609,2614.5,2620,2632,2632,2632,2632,2632,2637.5,2637.5,2637.5,2637.5,2637.5,2648.5,2648.5,2654.5,2660,2665.5,2665.5,2677.5,2677.5,2683,2683,2683,2671.5,2671.5,2671.5,2665.5,2671.5,2666,2672,2666.5,2672.5,2678.5,2672.5,2667,2661.5,2656,2650,2645,2645,2633.5,2628,2621.5,2621.5,2616,2616,2615.5,2620.5,2626,2626,2631.5,2637,2643,2643,2648.5,2648.5,2654.5,2654.5,2654.5,2660,2660,2666,2677.5,2689.5,2690,2696,2690.5,2690.5,2690.5,2690.5,2690.5,2685,2685,2685,2684.5,2690.5,2684.5,2690,2695.5,2695.5,2695.5,2695.5,2689.5,2695,2695,2695,2695,2689,2677,2677,2671.5,2671.5,2660,2660,2660,2648.5,2648.5,2648.5,2648.5,2648.5,2648.5,2654,2643,2643,2654,2654,2648.5,2660,2665.5,2666,2666.5,2672,2678,2678,2678,2678,2678,2683.5,2683.5,2678,2677.5,2671.5,2671.5,2666,2671.5,2665.5,2654.5,2654,2648.5,2648.5,2648.5,2654.5,2654.5,2654.5,2660,2654.5,2660,2665.5,2671.5,2665.5,2665.5,2665.5,2665.5,2671.5,2671.5,2671.5,2671.5,2671.5,2677,2677,2677,2677,2677,2689,2695,2701,2701,2707,2713,2719,2719,2719,2719,2719,2719,2719,2713,2707,2707,2701,2695,2689,2683,2683,2683,2677.5,2677.5,2665.5,2665.5,2665.5,2665.5,2660,2660,2660,2671.5,2677.5,2683.5,2689.5,2701,2713,2725,2725,2731,2737,2737,2737,2737,2725,2719,2719,2713,2701,2701,2701,2701.5,2701.5,2707.5,2708.5,2714.5,2726.5,2732.5,2732.5,2738,2750.5,2750,2762,2761.5,2761.5,2767.5,2761.5,2767.5,2767.5,2761.5,2749.5,2737.5,2731.5,2719,2707.5,2689.5,2678,2666.5,2649,2637.5,2626,2615,2604.5,2593.5,2594,2589,2589,2578.5,2573.5,2574.5,2580,2580,2585,2585,2595.5,2605.5,2610.5,2621.5,2632,2654.5,2660,2665.5,2671.5,2683.5,2689,2695,2707,2707,2713,2713,2713,2713,2719,2719,2719,2719,2719,2713,2707,2701,2689,2683,2677.5,2671.5,2666,2666,2660.5,2660.5,2660.5,2660.5,2660.5,2660.5,2654.5,2654.5,2660,2660,2666,2666,2666,2666,2671.5,2677.5,2683,2695,2701,2713,2725,2737,2749.5,2749.5,2767.5,2767.5,2773.5,2780,2786,2780,2780,2773.5,2773.5,2767.5,2761.5,2761.5,2755,2749,2743,2737,2731,2725,2719,2719,2707,2707,2701,2695,2689,2683,2677.5,2683.5,2695.5,2701.5,2707.5,2713.5,2720,2720,2726,2731.5,2725.5,2725.5,2713.5,2707.5,2695.5,2690,2684.5,2678.5,2672.5,2661.5,2667.5,2662,2657,2663,2663,2668,2673.5,2679,2690.5,2690,2695.5,2701.5,2701,2689.5,2683.5,2683.5,2683.5
2566,2566,2566,2555.5,2555.5,2555.5,2555.5,2555.5,2555.5,2561,2555.5,2555.5,2550,2550,2550,2550,2550,2544.5,2544.5,2544.5,2544.5,2544.5,2539.5,2539.5,2539.5,2539.5,2534,2539.5,2544.5,2544.5,2550,2550,2555.5,2555.5,2560.5,2566,2566,2571.5,2577,2577,2583,2583,2583,2583,2583,2577,2572,2572,2566.5,2566.5,2561,2561,2550.5,2545,2545,2540,2540,2540,2545.5,2534.5,2540,2540,2545,2550.5,2555.5,2555.5,2566,2566,2566,2571.5,2571.5,2566,2566,2566,2566,2566,2560.5,2560.5,2560.5,2561,2571,2576.5,2582,2582,2587,2592.5,2592.5,2592.5,2598,2603.5,2598,2598,2587,2587,2587,2582,2577,2571.5,2566,2560.5,2560.5,2555.5,2550,2550,2555,2555,2560.5,2566,2566,2576.5,2576.5,2587.5,2592.5,2598,2598,2609,2614.5,2626,2631.5,2649,2649,2660.5,2666.5,2678,2695.5,2701.5,2720,2726,2744.5,2763.5,2770,2776.5,2770.5,2758.5,2746,2740.5,2728.5,2703,2679.5,2651,2639.5,2622,2600,2589,2573,2567.5,2567,2567,2577,2587.5,2598.5,2603.5,2614.5,2637.5,2643,2649,2654.5,2654.5,2649,2643,2649,2654.5,2649,2660,2660,2654.5,2660,2666,2671.5,2671.5,2677.5,2683.5,2695,2695,2701,2689,2689,2677.5,2677.5,2677.5,2671.5,2671.5,2666,2666.5,2666.5,2672.5,2661,2661,2655.5,2650,2645,2633.5,2633.5,2627.5,2627.5,2621.5,2621.5,2616,2615.5,2620.5,2626,2631.5,2637,2643,2648.5,2648.5,2660,2660,2660,2666,2666,2666,2671.5,2671.5,2677.5,2689.5,2701,2701.5,2701.5,2701.5,2696,2690.5,2690.5,2690.5,2684.5,2673,2678.5,2678.5,2678.5,2684,2689.5,2695.5,2695.5,2695.5,2695,2689,2695,2695,2695,2695,2689,2683,2683,2677.5,2671.5,2671.5,2666,2660,2654,2654,2654,2660,2654,2654,2660,2666,2660,2660,2666,2671.5,2671.5,2677.5,2671.5,2672,2683.5,2683.5,2684,2689.5,2683.5,2683.5,2683.5,2689.5,2683.5,2677.5,2671.5,2671.5,2677.5,2677.5,2665.5,2660,2654,2660,2660,2660,2660,2660,2665.5,2665.5,2665.5,2671.5,2671.5,2665.5,2671.5,2665.5,2665.5,2671.5,2671.5,2677,2677,2683,2683,2683,2683,2689,2695,2701,2701,2713,2719,2725,2731,2731,2731,2737,2737,2737,2731,2725,2719,2719,2713,2707,2701,2695,2689,2683,2683,2671.5,2671.5,2660,2660,2654.5,2648.5,2648.5,2643,2643,2643,2649,2654.5,2660,2671.5,2677.5,2695,2707,2719,2725,2731,2731,2731,2731,2731,2725,2719,2719,2713,2713,2713,2713.5,2714,2726.5,2733,2739.5,2739.5,2758.5,2764,2757.5,2763.5,2775.5,2781.5,2781,2780,2780,2786,2780,2780,2767.5,2755.5,2749.5,2731,2719,2707,2689.5,2677.5,2660,2643,2631.5,2620.5,2609.5,2604.5,2593,2587.5,2583,2578,2578.5,2573,2573.5,2573.5,2579.5,2584.5,2590,2600,2616,2627,2643,2654.5,2665.5,2671.5,2683,2695,2695,2701,2713,2713,2713,2719,2725,2713,2713,2719,2719,2713,2713,2707,2701,2701,2689,2683,2677.5,2671.5,2666,2660.5,2660.5,2654.5,2654.5,2654.5,2654.5,2660.5,2660.5,2660,2660,2660,2666,2666,2666,2666,2666,2666,2677,2683,2695,2695,2707,2719,2725,2737,2749.5,2761.5,2767.5,2773.5,2780,2780,2780,2780,2780,2773.5,2773.5,2773.5,2761.5,2755,2749,2755,2755,2749,2737,2731,2719,2719,2719,2713,2707,2695,2689,2689,2695,2701,2701.5,2707.5,2713.5,2725.5,2725.5,2731.5,2731.5,2731.5,2731.5,2725.5,2713,2713,2701.5,2695.5,2695.5,2690,2678.5,2672.5,2667,2667,2661.5,2661.5,2667,2672.5,2684,2689.5,2689.5,2695,2701,2695,2695,2683,2683,2683.5
