3478.7,3957.4,4524,4485.3,4459.9,4967,5468.1,5441.2,5427.8,5425.5,5421.6,5426.6,5407,5388.1,5374,5345.2,5340.4,5311.4,5284.6,5262.2,5230.3,5199.7,5176.3,5159,5144.6,5135.4,5123.1,5114.4,5101.8,5102.3,5102.8,5098.7,5095.4,5096.5,5092.7,5098.6,5095.4,5091.7,5075.5,5064.6,5056.4,5039.7,5010.5,4978.7,4949.9,4910,4885.2,4857.2,4832.7,4816.6,4789.3,4296.4,4295.7,4287.9,3832.7,3369.5,3372.9,3365.3,3384.5,2429.8,2429.7,2433.4,2441.1,2452.7,2456.5,2452.4,2456.1,2459.7,2467.9,2475.6,1963,1958.9,1954.9,1470.1,1473.9,492.6,78,157,236.7,236.6,317.3,317.1,316.6,316.3,316.4,397.7,397.5,397.4,397.1,396.5,395.9,477.8,561.2,560.2,727.2,810,809,807.6,806.7,806.1,804.8,804.1,803.6,803,802.3,802.2,801.7,801.2,801,800.8,800.8,800.7,800.8,800.9,800.8,801,801.1,801.5,801.5,801.7,802.3,802.3,802.2,802.4,802.8,803.3,803.6,804.1,804.5,805,805.8,806.2,807,808,808.7,809.7,810.7,811.6,812.9,814.2,815.4,816.6,817.5,819.2,820.5,822,823.1,824.1,825.1,826.2,827.6,828.8,829.8,831.5,832.8,833.9,835.7,838.3,840.9,843.3,847.3,852,855.9,860,863.4,867.3,871.6,699.9,1047.4,522.6,523.6,2566.8,2540.3,2935.4,2654.5,2637.8,2515.9,2495.4,2948.7,3414,3921.9,4942.5,5011.1,5065,5086.1,5093.9,5081.2,5089.8,5098.8,5098.9,5056.8,5007.4,5015.6,5032.3,5044.7,5052.9,5044.9,5057.1,5048.9,5057,5036.5,5016.7,4992.6,4996.4,5045.2,5104.1,5116.9,5129.9,5150.9,5172.6,5198.6,5211.6,5233.8,5211.6,5202.5,5171.1,5171.1,5179.7,5175.5,5179.7,5153.7,5128.2,5085.9,5040.2,5003.8,4959.4,4920.2,4881.9,4851.9,4837.7,4809.1,4813.8,4815.3,4815.1,4813.4,4826.9,4835.6,4851,4857.8,4877.1,4896.6,4911.5,4939.5,4943.6,4956,4967.7,4975.7,4963.5,4963,4962.1,4944.5,4955.7,4964.1,4975.3,4994.6,5015,5034.3,5059,5091.6,5119.9,5150,5188,5218.1,5253.1,5270.6,5297.2,5315.2,5333.5,5333.5,5352.2,5356.6,5356.6,5366.4,5361.6,5362.4,5357.8,5363,5335.9,5337,5328.2,5320.4,5320.8,5308.3,5305.8,5284.3,5275.9,5285.3,5285.3,5294.5,5301.6,5300.2,5307.1,5319.7,5341.9,5358.8,5358.2,5376.4,5380.9,5385,5394,5408,5398.4,5398.2,5383.8,5369.5,5346.1,5332.1,5304.4,5268.4,5232.9,5180.1,5128.7,5044.7,4987.5,4935.6,4857.8,4782.6,4720.3,4649.2,4600.8,4549.7,4510.4,4477.7,4436.1,4410.6,4382.1,4357.6,4326.2,4299,4271.5,4241.6,4218.4,4206.9,4212.7,4230.3,4242.5,4265.8,4286.5,4307.8,4328.6,4346.6,4352.6,4355.5,4346.2,4343.4,4334.1,4315.7,4306.6,4285.3,4267.8,4235.7,4161.5,4033.4,3907.8,3801.5,3681.2,3565.9,3455.7,3359.9,3277.5,3226,3205.9,3196,3182.8,3177.9,3173.1,3163.3,3153.6,3142.3,3132.6,3121.5,3104.2,3088.8,3066,3038.7,3019.4,3006.3,2992,2979.2,2380.9,2080.7,900.7,614.4,0,0,0,0,0,0,0,0,0,0,0,0,0,0,0,0,151.1,225.3,523.2,596.1,740.8,737.6,734.9,731,727.7,724.1,720.5,717.3,714.5,711.4,709.1,706.6,704.6,703.1,701.9,700.8,700,699.3,698.4,697.6,696.8,696.3,695.4,694.5,693.7,692.5,691.4,689.8,688.3,687.1,685.2,683.5,681.7,680.4,679.1,678,676.8,675.5,674.5,673.4,672.7,671.8,670.9,669.5,668.3,667.3,666.1,665.3,663.9,663.1,662.1,660.8,660.3,659.7,659,658.5,658.2,657.5,656.5,655.7,655,654.4,654,653.7,652.7,652.1,652.1,652,652.1,652,651.9,652,651.7,651.9,651.9,652.2,652.4,652.7,653.4,653.9,654.1,654.7,655,655.9,657.2,659.3,661.5,663.9,666.7,669.8,672.5,675.7
3476.8,4581.5,4554.6,4506.3,4458.2,4431.4,4935.2,5483.6,5482.5,5482.3,5471.6,5475,5455.6,5440.4,5416.9,5411.2,5387.3,5368.2,5335.6,5312.2,5284.2,5261.8,5229.9,5206.1,5188.2,5174.6,5152.8,5144.1,5134.9,5130.6,5126.8,5135.7,5124,5124.6,5121.2,5122.1,5109.8,5111,5098.8,5092,5067.8,5039.6,5014.9,4982.8,4947.6,4900.2,4856,4836.7,4804.4,4777.1,4749.9,4235.3,3789.3,3792.5,3335.9,3339.9,3339.5,3347.1,2892,2406.9,2418.6,2418.6,2418.1,2418.1,2421.8,2417.8,2428.8,2428.9,2448.3,1951.4,1947.5,1466.2,1466.2,1462.3,492.6,0,78.2,237.6,237.3,237.3,318,317.6,317.3,317.1,398.4,398.2,398.2,397.7,397.4,479.8,478.8,561.8,560.6,727.9,811,809.6,808.1,807,806.1,805.4,804.1,803.6,802.9,802.3,802,801.6,801.4,800.7,800.6,800.6,800.4,800.3,800.2,800.4,800.2,800.6,800.6,800.8,800.8,801.3,801.4,801.8,801.9,802,802.4,802.7,802.8,803.7,803.9,804.2,804.6,805.4,806.3,807.2,808,808.9,809.9,811,812.4,813.5,814.7,816.1,817.6,818.6,819.9,821.2,822.8,823.6,824.6,825.6,827.1,828.4,829.7,830.9,832.3,833.7,835.5,837.4,839.9,842.6,846,850.7,855.3,859.1,862.4,866.7,781.5,520.2,1057.5,523.5,1600.5,2581.7,2568.5,2959,2673.1,2575.1,2540.8,2516,2487.2,2936.4,3421.2,4461.9,5019.3,5077.3,5102.8,5098.6,5085.7,5098,5111,5102.8,5065.2,5023.6,5027.7,5027.7,5040.2,5052.7,5044.3,5061.1,5060.9,5065.2,5052.7,5008,4995.6,5000,5061.1,5112.1,5133.3,5146.5,5167.9,5185.2,5224.8,5242.3,5260.2,5242.3,5215.4,5188.6,5188.6,5179.7,5183.9,5197.1,5162.3,5128.1,5090,5036.1,5007.8,4951.7,4912.4,4863,4825.9,4811.7,4783.2,4780.9,4781,4792.9,4782.9,4780,4795.2,4815,4821.7,4848.4,4859.6,4875.2,4899.1,4918.8,4935.4,4951.2,4934,4938.2,4926,4929.5,4932.3,4935.3,4950.8,4955.2,4970.4,4986.1,5014.8,5047.6,5083.3,5116.3,5149.7,5188.1,5222.4,5266.5,5288.8,5306.7,5333.5,5347.7,5365.8,5370.5,5375.5,5375.4,5380.4,5380.4,5376.6,5367.4,5377.6,5359.6,5346,5333.7,5338.1,5329.9,5321.5,5305.6,5296.7,5288.3,5287.7,5283.6,5310.6,5314,5317,5334.6,5351.1,5369.3,5382.5,5400.6,5413.9,5414,5427.8,5442,5436.8,5436.8,5431.4,5421.6,5397.8,5364.9,5346.1,5304.5,5277.6,5241.9,5180.4,5124.9,5040.5,4975.9,4920.2,4846.4,4768.2,4702.2,4638.9,4590.7,4543.8,4507.2,4481.1,4436.4,4410.6,4385.4,4366.5,4328.9,4307.7,4280.3,4256.2,4238.6,4235.8,4244.6,4271.4,4295.5,4310.6,4335.1,4356.3,4380.7,4393.2,4405.7,4389.6,4383.5,4380.1,4367.6,4343.2,4328,4309.7,4282.6,4250.4,4175.7,4046.7,3915.6,3813.3,3689.7,3570.1,3463.6,3367.3,3282.8,3229.4,3210.9,3199.4,3181.2,3177.9,3171.5,3161.7,3150.3,3139.2,3126.4,3113.8,3095.1,3076.7,3050.8,3024,3002,2985.8,2976,2963.4,2068.1,1185.1,606.8,300.4,0,0,0,0,0,0,0,0,0,0,0,0,0,0,0,75.8,301.3,450,597.4,669.5,740.3,737.1,734.2,730.9,727.3,723.9,720.3,717,714.3,711.2,708.9,706.5,704.4,702.9,701.6,700.4,699.9,698.8,697.9,696.9,696.3,695.7,694.6,693.8,693,692,690.7,689.5,687.7,686.6,684.5,683,681.1,680,678.4,677.3,676.4,675.1,674,673.1,672.3,671.6,670.5,669,668,666.5,665.7,664.6,663.4,662,660.7,660.2,659.3,658.4,657.9,657.4,656.7,655.8,655.3,654.2,653.5,653.1,652.4,652.2,651.5,651,650.7,650.2,650.1,650.1,650,649.9,649.8,650,650,649.9,650.1,650.5,651,651.6,652,652.4,653,654.2,655.3,657.3,659.5,661.9,664.7,667.8,670.8,674.4
4111.2,4593.8,4552.1,4504.8,4464.8,4447.2,5008.3,5520.4,5519.4,5527,5532.2,5534.8,5514.6,5494.1,5492.9,5482.6,5458.4,5444.3,5419.4,5382.1,5344.5,5311.8,5288.4,5269,5236.8,5204.7,5186.9,5173.4,5164.5,5164.8,5156.1,5143.7,5148.8,5153.6,5145.1,5137.1,5142.3,5130.7,5126.1,5119.1,5085.8,5070.4,5042.1,5005.5,4966.2,4931.6,4886.5,4863.1,4823.8,4792.3,3827.2,3338.3,3337.9,3337.5,3344.1,3344.4,3332.4,2866,2877.4,2396.3,2400.2,2392.6,2392.1,2384.5,2387.8,2384,2387.7,2394.9,1913.7,1921,1450.9,1454.7,488.7,81.9,80.5,0,79.6,238.2,238,237.8,318.9,318.5,318.1,399.4,399,398.6,398.3,397.8,480.5,479.7,562.8,645.8,729,727.4,810.3,809,807.8,806.4,805.6,804.9,803.8,802.8,802.3,801.7,801.3,801.3,801,800.7,800.3,800.2,799.8,799.8,799.8,799.7,799.7,799.6,800.1,800.4,800,800.5,800.8,801.2,801.2,801.2,801.3,801.9,802.2,802.5,802.9,803.4,804,804.7,805.2,806.2,807.1,808,809.3,810.4,811.7,812.8,814.4,815.5,817,818,819.2,820.5,822.2,823.2,824.2,825.4,826.8,828,829.4,830.5,832,833.1,835.3,837.1,839.4,842,845.4,849.8,853.8,857.9,861.2,865,869.3,520.9,522.7,524,1610.9,2606.1,2588.3,3075,2792.7,2681.8,2740.8,2638.3,2515.8,2487.2,2967.7,2987.9,3521.3,4063.4,3571.1,5128.4,5115.3,5140.7,5149.5,5145.7,5103,5073.2,5065,5081.4,5085.7,5085.7,5068.9,5089.8,5089.8,5089.8,5077.3,5044.3,5011.2,5023.9,5069.3,5128.6,5145.7,5167.9,5189.4,5215.7,5260.2,5269.3,5291.9,5260.1,5255.4,5210.8,5214.9,5201.8,5206.1,5192.7,5175.3,5136.4,5098.6,5036.2,5008.1,4952.1,4909.6,4855.9,4815.7,4793.5,4772.7,4766.5,4766.2,4766.3,4763.5,4763.8,4771.9,4786.1,4797.9,4812.4,4835.2,4854.9,4877.7,4897.3,4910.7,4925.2,4917.4,4921.4,4909.2,4905.2,4904,4922.9,4934.7,4926.3,4938.3,4962,5010.6,5034.7,5062.6,5103.9,5136.7,5188.2,5231.7,5280.4,5307.4,5329.7,5352.3,5375.5,5385,5389.6,5394.4,5394.7,5390,5385.4,5376.2,5376.8,5363.4,5359.6,5346.4,5347.3,5329.4,5320.8,5317.6,5308.6,5292.2,5288.1,5309.9,5309.9,5319.1,5341.2,5344.2,5361.5,5383.5,5401.9,5415.2,5438.4,5457.2,5461.6,5465.8,5470.4,5475.1,5465.3,5455.3,5440.8,5416.9,5388.2,5350.7,5318.4,5286.6,5242.1,5181,5120.9,5024.7,4967.9,4912.4,4835.8,4760.7,4695.6,4628.4,4590.9,4543.8,4517.3,4481.4,4452.4,4419.9,4394.7,4369.3,4347.5,4328.8,4300.9,4273.9,4276.9,4274.1,4286,4313.5,4347.2,4375.1,4393.8,4412.7,4431.2,4446.9,4453.2,4443.5,4430.7,4421.1,4398.9,4383.5,4358.6,4334.1,4309.9,4274.2,4187.1,4062.7,3923.1,3825.3,3701.1,3584.5,3471.5,3370.9,3286.2,3231.2,3210.9,3197.7,3181.3,3173.1,3166.6,3158.6,3145.6,3131.2,3120,3102.9,3084.2,3063,3037.3,3009.4,2985.8,2970.4,2953.2,2643.1,1745.5,885.9,599.5,601,0,0,0,0,0,0,0,0,0,0,0,0,0,0,76,302.4,451.1,524.3,597.1,595.1,740,736.6,733.8,730.4,727.2,723.7,720.3,717.1,714.4,711.3,708.8,706.6,704.4,702.5,701,700.1,699.2,698.3,697.4,696.5,696.1,695,693.9,693.5,692.4,691.7,690.1,688.9,687.4,685.7,684,682.8,680.8,679.6,678.1,677,675.7,675,673.7,672.6,672,670.8,669.7,668.6,667.2,665.9,664.7,663.6,662.5,660.8,660.1,659,658.3,657.3,656.5,656,655.5,654.3,653.6,652.9,652,651.5,651,650.5,650.2,649.4,649.1,648.6,648.2,648.1,648,647.9,647.6,647.8,647.8,647.8,647.9,648.3,648.8,649.6,650.1,650.5,651.3,652.1,653.7,655.8,657.6,659.9,662.7,665.7,669.1,672.8
4122.4,4600.8,5077.5,5032,5618.8,5582.2,5560.2,5548.6,5555.4,5567.9,5576.1,5568.9,5562.3,5557,5540.5,5540.9,5521.4,5517,5492.2,5449.5,5419.8,5387.2,5348.4,5319.1,5295.5,5258.7,5227,5204.1,5208.2,5194.9,5185.9,5177.5,5178,5174.1,5170.2,5161.8,5162.5,5154.6,5146.3,5125.5,5122.2,5093.2,5073.2,5040.1,5001.1,4965.3,4929.8,4902.8,4858.8,3894.1,3373.4,3357.5,3353.2,3348.7,3344.8,3337.4,2860.1,2856.3,2386,2381.9,2374.9,2360,2356,2352.1,2348.3,2344.5,2344.2,1881.2,1891.8,1428.5,1436,484.9,0,0,0,0,79.9,238.9,238.6,238.6,319.6,319,400.7,400.3,399.9,399.3,398.7,481.4,480.8,564.1,647,730.4,813.2,811.6,809.9,808.4,807,805.9,804.9,804.1,803.1,802.5,801.9,801.3,801.1,800.7,800.4,799.8,799.7,799.3,799.2,799,799,799.1,798.9,799,799,799.4,799.5,799.6,800,800.3,800.2,800.3,800.6,800.7,801,801.7,802.1,802.5,803,803.5,804.6,805.5,806.4,807.4,808.4,809.9,810.8,812.1,813.6,814.9,816.4,817.6,818.7,820,821.5,822.6,823.7,824.8,826.1,827.4,828.6,830.3,831.5,833,834.6,836.7,838.4,841.3,844.6,848.5,852.6,856.7,859.5,863.3,867.4,698.2,523.4,1644.4,2171.5,2635.6,2622.1,3117.2,2833.4,2726.6,2694.7,2676.9,2642.3,2528.3,2519.9,2524,2544.7,2566,3605.4,3605.5,4653.9,5184.1,5215.1,5206.6,5158.6,5132.8,5128.4,5128.2,5140.9,5128,5119.6,5140.7,5140.7,5145,5132.1,5093.9,5073,5073,5128.2,5188.5,5197.5,5224.3,5237.4,5264.4,5305.5,5314.6,5333.3,5314.6,5291.7,5232.9,5215.1,5223.6,5223.6,5206.1,5184.1,5153.9,5094.7,5032.4,5008.3,4956.7,4902.1,4845.2,4797.6,4783.8,4758.9,4752.4,4755.6,4745,4752.4,4744.2,4756.3,4763.3,4778.4,4796.4,4814.8,4834.4,4861.1,4880.8,4896.6,4900.7,4900.8,4897,4896.9,4900.1,4899.5,4910.8,4922.5,4930.2,4938.8,4958.2,4990.3,5026.1,5063,5104.4,5146.2,5202.2,5241.5,5290.3,5316.7,5348.3,5362.3,5371.6,5385.2,5390,5394.8,5385.1,5390.1,5385.5,5376.8,5381.8,5364.4,5350.4,5346.8,5324.6,5325.5,5312.6,5303.1,5309.4,5314,5304.8,5318.6,5336.2,5344.5,5362.3,5389.3,5402,5429.9,5453.2,5466.6,5481,5500.1,5504.7,5514.7,5509.5,5514.2,5499,5489.2,5469.7,5445.3,5402.4,5369.6,5327.7,5291.3,5242.4,5181.1,5112.5,5024.9,4948.1,4885.3,4827.5,4749.6,4684.7,4635.5,4587.9,4550.7,4521.1,4497.9,4458.7,4432.6,4406.8,4387.2,4362.2,4343.6,4328.3,4309.7,4309.7,4316,4340.5,4368.4,4396.6,4431.7,4447.8,4467.4,4486.3,4492.7,4492.6,4485.7,4475.8,4459.5,4440.3,4421.1,4396,4368.1,4343.5,4301,4218.8,4079.1,3948.3,3842.3,3705.6,3588.7,3473.6,3369.1,3288.1,3229.5,3210.9,3199.5,3178.1,3171.5,3165,3153.7,3139.1,3124.8,3110.7,3088.9,3069.2,3047.8,3019.4,2990.4,2965.8,2953.4,2939.3,2323.4,1449.1,592.4,301.9,0,0,0,0,0,0,0,0,0,0,0,0,0,0,0,151.7,377.3,525.9,598.5,670.9,743.1,739.2,736.2,732.8,730.2,726.5,723.3,720.1,717.1,714.4,711.6,708.8,706.5,704.2,702.3,700.8,699.9,698.9,697.9,696.8,696.3,695.5,694.3,693.6,692.6,691.9,691.1,689.6,688.3,686.8,685,683.4,682,680.4,678.9,677.5,676.5,675.4,674.2,673.1,672.5,671.2,670,668.8,667.5,666.2,664.9,663.7,662.6,660.9,660,658.9,658,656.8,656,655.4,654.2,653.5,653,651.9,651.4,650.8,650,649.3,648.9,648.2,647.6,647.2,646.8,646.3,646.1,646,645.9,645.3,645.6,645.7,645.6,645.8,646.1,646.8,647.8,648.2,648.9,649.6,650.4,651.9,653.9,655.9,657.8,660.4,663.5,667.3,670.9
4670,4604.9,5678.8,5631.8,5599.7,5587.2,5574.4,5583.8,5600,5606.6,5625.5,5623.9,5621.9,5620.9,5615.2,5600.6,5581.2,5575.6,5546.9,5514,5494.3,5450,5409.9,5367.3,5342.7,5314.1,5281.1,5258.1,5244.3,5230,5212.6,5203.7,5198.9,5195.2,5195.4,5182.7,5178.4,5174.9,5162.1,5162.7,5137.6,5120.9,5100.2,5067.8,5035.2,5003.8,4968.6,4941,4399.9,3409,3396.2,3383.7,3368.6,3356.8,2879.2,2871.3,2863.4,2388.8,2374.4,2367,2356,2344.7,2337.4,2334,2322.9,1863,1859.4,1856,1406.7,1406.7,473.7,0,0,0,80.8,0,80.1,239.5,239.4,320.6,320.3,320.1,401.4,400.9,400.4,483.8,483.1,481.9,565.3,648.3,731.4,730,812.6,810.9,809.3,807.7,806.6,805.4,804.5,803.7,802.8,802.3,801.8,800.9,800.7,800.6,800,799.5,799.2,798.9,798.4,798.7,798.7,798.6,798.2,798.2,798.4,798.6,799,799.1,799.1,799.1,799.3,799.5,799.8,799.8,800.2,800.5,801,801.8,802.2,802.9,803.7,804.4,805.3,806.3,807.4,808.5,809.7,811.1,812.4,814,815.3,816.6,818.2,819.2,821,822,822.9,824.3,825.5,826.8,828.3,829.6,831.3,832.9,834.5,836.4,838.4,840.7,843.8,847.5,851.7,854.9,858,774.6,865.3,785.3,523.6,1660.6,2746.4,2671.1,2652.1,2648.2,2969.2,2683.7,2744.8,2725.9,2694.4,2663.9,2566.3,2574.7,2583.3,2592,2600.7,2600.7,3131.4,3149.2,5242.4,5242.4,5202.2,5184.9,5180.3,5162.7,5179.9,5175.8,5166.9,5192.8,5197.1,5205.9,5197.1,5158,5132,5145.1,5197.3,5237.2,5264.3,5273.6,5296.2,5323.8,5360.8,5389.4,5403.3,5370.5,5323.9,5268.9,5246,5232.4,5250.6,5228.2,5193,5158.2,5099,5049.1,5020.8,4953.3,4907.6,4846.8,4799.3,4774.3,4764.5,4757.3,4760.2,4750.6,4738.5,4741,4752.3,4762.8,4773.4,4784.2,4802.5,4829.2,4853.2,4865,4881,4904.9,4901.6,4897.5,4904,4904.7,4915,4918.9,4927,4931.1,4939.1,4959,4999.2,5034.9,5066.8,5109,5151,5189.1,5246.3,5285.7,5327.1,5344.8,5358.2,5371.9,5381.4,5381.6,5377.1,5367.1,5362.9,5349.2,5335.5,5331.3,5323.1,5305.2,5301.5,5297.5,5298.5,5302.7,5298.6,5303.7,5304.1,5313,5339.7,5353.8,5371.2,5403.2,5421.7,5439.7,5467.8,5496,5520.6,5534.7,5549.2,5549.2,5559,5558.8,5548.6,5543.8,5508.8,5493.8,5459.7,5412,5383.8,5337.1,5282.5,5238.2,5168,5108.2,5016.5,4955.5,4888.6,4816.1,4764.2,4691.9,4639.1,4598.3,4564.3,4531,4501.4,4475.1,4445.3,4425.6,4405.9,4383.6,4374.2,4358.5,4346.1,4349.3,4364.8,4396.1,4427.9,4460.3,4483.1,4502.9,4525.7,4538.9,4549,4548.8,4532.2,4522.3,4502.3,4485.7,4460,4434.1,4405.6,4377.6,4332,4239.2,4098.2,3955.9,3851.9,3719.1,3595.2,3475.5,3374.7,3284.6,3227.9,3210.9,3197.9,3174.8,3168.2,3158.5,3145.6,3129.7,3112.2,3095.3,3075.1,3055.3,3031.4,3001.8,2971.6,2950.5,2936.6,2920.1,2020.6,870.6,298.9,0,0,0,0,0,0,0,0,0,0,0,0,0,0,0,0,75.7,527.6,525.2,673,745,742.2,738.5,735.7,732.1,729.6,726,722.9,719.8,717.1,714.1,711.4,708.5,706,704,701.9,700.5,699.4,698.4,697.2,696.6,695.8,695.1,694,693.3,692.2,691.6,690.5,689.2,687.6,686.1,684.3,682.6,681.2,679.9,678.3,677,675.6,674.7,673.5,672.5,671.9,670.6,669.4,668.1,666.7,665.2,664,663,661.3,660.3,658.9,657.9,656.4,655.7,654.7,653.8,653,652.2,651.6,651,650,649.3,648.6,648.1,647.4,646.5,646,645.6,645.3,644.8,644.2,644,644,643.7,643.8,643.9,644.2,644.2,644.4,645.5,646.2,646.7,647.3,648.2,649.2,650.2,651.9,653.6,655.5,657.9,661,664.8,668.4
4699,5756.9,5689.1,5627,5612,5587.8,5584.5,5602.5,5625.4,5644.9,5660.8,5675.6,5674.1,5673.3,5662.9,5658.3,5638.1,5629.2,5610.2,5584.4,5539.6,5520.3,5479.8,5420.5,5385.7,5356.9,5323.5,5290.8,5276.8,5262.5,5244.2,5243.9,5217.2,5217.4,5217.3,5208.9,5204.4,5200,5196.2,5183.1,5175.1,5162.5,5137.1,5116.3,5087.3,5047.1,5014.7,4482.2,3467.3,3455.2,3435.2,3418.6,2910,2902,2901.7,2890.3,2415.5,2404,2388.8,2373.9,2363,2348.4,2334,2323.3,2319.5,1856.2,1859.3,1399.7,1396.1,929.5,463,0,0,0,0,0,80.3,240.2,239.9,321.5,321.2,402.5,402.1,401.6,401,484.4,483.2,566.8,564.9,733.2,731.1,814.3,812.3,810.6,808.5,807.1,805.9,805,803.9,803.3,802.8,801.9,801.6,801,800.4,799.9,799.7,799,798.6,798.3,798.1,798,798.2,798,797.9,797.8,798,798.1,798,798.3,798.2,798.4,798.4,798.4,798.9,799,799.3,799.8,800,800.7,801.2,802,802.7,803.5,804.5,805.1,806.6,807.6,808.7,810,811.3,813.1,814.7,816.1,817.1,818.9,820.4,821.6,822.7,824.1,825.1,826.5,827.7,829.3,830.9,832.7,834.1,836,838.2,840.4,843,846.6,850.2,853.9,856.7,859.7,863.6,783.1,523.6,525.6,2772.1,2697,2682.6,2668.6,3023.1,2820.7,2711.5,2697.1,2757.9,2632.2,2614.2,2618.5,2631.9,2631.7,2636.3,2636.3,3181.1,3199.4,3218,5284.3,5261.3,5234,5238.2,5233.1,5233.1,5214.9,5219.2,5245.8,5254.8,5264,5245.8,5210.3,5205.9,5201.6,5250.2,5300.6,5310,5323.9,5351.4,5374.5,5412.9,5456.4,5461.4,5427.8,5371.3,5269.4,5250.6,5246,5241.6,5223.8,5197.5,5158.1,5103.4,5061.9,5034,4966.4,4913.1,4852.7,4807.6,4786.5,4779.6,4777.1,4766.2,4765.9,4760.9,4756.1,4751.6,4773.7,4779.9,4797.9,4801.7,4832.3,4851.8,4875.3,4899,4908.2,4905.6,4906,4914,4913.5,4916.5,4928.1,4944.1,4940.8,4960.6,4967.9,5016.4,5043.8,5080,5117.9,5163.8,5211.8,5269.4,5309.2,5359.4,5373.2,5373.2,5387,5391.6,5377.3,5363.2,5363.3,5349,5326.6,5323.1,5305,5287.7,5270.1,5266,5270.9,5267.3,5280.7,5285.3,5286.2,5313.3,5326.7,5349,5380.6,5403.1,5426.3,5454.2,5482.7,5516.1,5545.4,5574.9,5584.4,5599.6,5609.8,5609.2,5604,5593.8,5573.6,5558.4,5518.4,5479.3,5445.5,5407.5,5356.3,5301.5,5252.5,5190.4,5096,5012.4,4951.6,4888.5,4823.3,4760,4695.5,4653.6,4601.6,4571.7,4544.7,4521.2,4485.2,4461.5,4441.4,4421.8,4402.3,4399,4392.7,4389.6,4402.1,4424.6,4456.4,4489.3,4512.7,4549.3,4559.3,4572.8,4586.2,4589.6,4593.1,4582.6,4562.4,4545.7,4522.5,4495.7,4473.3,4440.7,4409,4362.5,4274.7,4117.5,3966.2,3854.3,3714.6,3588.8,3475.5,3367.3,3275.8,3222.8,3209.3,3189.7,3169.9,3163.4,3148.8,3137.5,3121.7,3104.4,3086,3063,3041.8,3016.7,2990.3,2959.1,2936.7,2922.9,2906.6,2289.6,1147.7,0,0,0,0,0,0,0,0,0,0,0,0,0,0,0,0,0,151.2,452.1,599.7,746.7,744.6,742,738.1,735,731.7,728.9,725.4,722.8,719.6,716.9,713.9,710.9,708.3,705.7,703.5,701.4,700,698.8,697.8,697,696.2,695.6,694.7,693.9,692.7,691.8,690.9,689.7,688.4,686.8,685.4,683.3,682,680.2,679.1,677.5,676.2,675.1,674,672.9,672,671.1,669.9,668.6,667.3,666,664.4,663.2,661.9,660.7,659.2,658.1,656.6,655.7,654.6,653.6,652.9,652.1,651.5,650.8,650.1,649.2,648.3,647.7,647.3,646.5,645.6,645.1,644.3,643.5,643.1,643,642.8,642.6,642.8,643,643.3,643.2,643.5,643.6,644.2,644.9,645.5,646.1,646.9,647.6,649.1,650.2,651.5,653.4,655.3,658.2,661.7,665.9
5892.2,5789,5708.2,5646.4,5625.7,5614.1,5620.4,5626.9,5652.7,5692.3,5695.5,5708.2,5712.7,5706.7,5712.6,5712.4,5691.7,5672.6,5657.9,5627.8,5586.6,5557.1,5516.1,5471.1,5426.2,5396.8,5358.1,5338.6,5300.4,5291.3,5263,5249.4,5230.5,5230.7,5235,5225.7,5217,5217.1,5208.7,5199.7,5194.9,5177.9,5160.7,5148.5,5123.8,5095.1,5084.3,4028.1,3503.9,3487.1,3479,2945.7,2941.9,2930.1,2918,2905.8,2889.6,2411.1,2396.1,2388.6,2377.1,2358.7,2347.7,2337,1873.7,1873.7,1866.8,1400.1,1403.7,456.2,0,0,0,0,80.9,0,80.4,240.7,240.5,322.2,403.8,403.4,402.7,402.2,485.8,484.7,483.5,566.7,650.1,818,815.9,813.5,811.8,809.9,808.3,806.8,805.8,804.3,803.9,803.1,802.4,801.8,801.5,800.9,800.4,799.6,799.1,798.6,798.3,797.9,797.6,797.4,797.4,797.2,796.9,797.3,797.4,797.6,797.5,797.9,797.7,797.7,797.9,797.9,798,798.3,798.7,798.8,799.2,799.8,800.3,801,801.6,802.5,803.3,804.5,805.4,806.5,807.7,809.2,810.6,812.1,813.6,815.1,816.5,817.9,819.5,820.8,822.1,823.3,824.6,825.9,827.2,828.8,830.6,832,834.1,836.2,837.8,840.4,842.6,846.1,849.2,852.7,855.3,858.4,861.8,866.3,523.1,525.3,2792.5,2717.5,2713.5,2709.9,3157.6,2881.3,2770.3,2938.5,2815,2781.8,2768.1,2673.4,2677.8,2769.3,2677.8,2682.5,2682.3,3251,3270,5349.4,5335.1,5338.9,5329.4,5319.6,5314.7,5291.7,5295.6,5323.2,5341.5,5341.5,5313.6,5286.2,5286.2,5291,5327.8,5369.7,5388.8,5408.1,5431.7,5446.3,5495.1,5520.1,5520.3,5500.7,5428.4,5315.2,5273.3,5246.3,5250.6,5241.4,5201.9,5162.8,5116.2,5079.6,5071.9,4996,4941.2,4884.4,4845.2,4830.7,4815.5,4822.2,4810.1,4799.6,4801.2,4796.4,4807.7,4806.1,4820.6,4846.4,4853.9,4880.9,4900.8,4921.5,4930.4,4951.6,4948.2,4940.8,4945.2,4956.8,4968.9,4960.4,4969,4981.6,4985.7,5014.2,5037.2,5078.7,5110.8,5157.5,5199.5,5243.5,5300.4,5346.3,5382.3,5401.6,5406.1,5396.4,5386.8,5378.2,5354.5,5340.8,5323,5314.5,5291.4,5269.3,5270.5,5258,5263.6,5258.7,5264.7,5269.2,5273.5,5281.7,5317.9,5340.4,5371.4,5399.9,5441.1,5479,5507,5531.8,5560.7,5605.6,5635.6,5661.3,5655.6,5666,5666,5660.7,5639.8,5609,5588.8,5553.4,5513.8,5474.7,5422.7,5361.7,5320.6,5270.7,5203.9,5113.3,5032.9,4955.6,4892.2,4834.5,4763.9,4713.2,4660.3,4619.2,4592.1,4561.7,4537.8,4507.7,4480.4,4464.1,4450.4,4430.9,4433.7,4430.6,4440.3,4459.5,4482.3,4518.7,4552.2,4582.9,4610.5,4620.7,4624.1,4638.2,4638,4634.5,4624.1,4599.8,4586.5,4552.6,4536,4502.9,4473.5,4444.4,4393.8,4296.2,4134.3,3979.1,3856.7,3717,3584.8,3469.7,3358.1,3265.5,3214.3,3199.4,3181.3,3163.3,3152.1,3140.8,3125,3112.1,3093.6,3075.1,3052.3,3031.5,3009.2,2978.8,2950.5,2927,2627,2897.1,1996.6,843.6,278.6,0,0,0,0,0,0,0,0,0,0,0,0,0,0,0,0,0,602.4,673.8,746.2,743.8,741.7,737.5,734.7,731.2,728.3,725.4,722.7,719.4,716.6,713.7,710.6,707.9,705,703,701.3,699.9,698.4,697.4,696.6,696,695.1,694.4,693.4,692.3,691.4,690.3,688.9,687.5,686.1,684.2,682.5,680.8,679.7,678,676.8,675.8,674.5,673.4,672.4,671.4,670.2,669.1,667.8,666.4,664.8,663.6,662.3,660.8,660,658.4,657.1,656.2,654.8,653.6,652.7,652.1,651.2,650.5,650.2,649.5,648.6,648,646.9,646.1,645.7,644.7,643.7,643,642.7,642.5,642.1,641.9,641.6,641.7,641.8,642,642.2,642,642.4,643.4,643.9,644.3,645,645.7,646.5,647.4,648.6,649.7,651.1,652.8,655.6,658.7,662.6
5940.6,5835,5754.9,5660.2,5638.1,5636.1,5634,5670.3,5700.2,5708.6,5729.4,5742,5747.3,5751.7,5746.7,5730.9,5726,5700.7,5685.5,5663.5,5633.8,5598.4,5572,5532.5,5482.2,5446.4,5397.6,5367.4,5338.7,5315.1,5300,5267.6,5253.5,5252.8,5252.5,5244,5234.8,5243.3,5230.2,5225.5,5216.4,5203.2,5194.9,5186,5168.8,5148.9,4610.6,3567.6,3547.6,3523,3511.9,2978.2,2974.3,2958,2942,2929.2,2917.3,2441.5,2418.4,2410.8,2391.6,2377.1,2362,2355,1884.7,1881.3,1407.4,1411,929.9,0,0,0,0,0,80.8,0,160.7,241.2,241,322.8,404.3,403.9,403.4,402.9,486.3,484.8,568.2,651.6,735,818,815.4,813.2,811,809,807.6,806.1,805,804,803.3,802.7,802.2,801.6,801,800.6,799.9,799.3,798.8,798.1,797.8,797.4,797.1,797,797,796.6,796.6,796.3,796.6,796.9,796.7,796.8,797.1,796.9,797.1,797.4,797.1,797.3,797.4,797.7,798.1,798.9,799.3,800.4,801,801.5,802.4,803.6,804.6,805.7,806.8,807.6,809.5,811,812.8,814.4,815.6,817.2,818.9,820.1,821.6,822.7,824.1,825.6,827,828.8,830.4,832.3,834.3,836.3,838.2,840.5,842.7,845.7,848.4,851.9,854.4,857.4,860.2,864,522.6,524.4,2802.7,2733.1,2734.9,2736.2,3194,2927.8,3002,2995.4,2964.7,2850.1,2825.9,2720.9,2730.3,2807.4,2715.7,2720.3,2729.8,2739.6,3878.6,5435.2,5438.9,5428.9,5432.9,5418.3,5408.3,5398.1,5397.9,5430.9,5445.2,5445.2,5440.4,5397.6,5388.3,5397.8,5421.6,5459.9,5464.9,5489.9,5514.2,5534.4,5589.8,5605.9,5626.4,5606.2,5540.9,5408.4,5361,5328.2,5309.5,5286.9,5255,5211.2,5155,5122,5119.6,5055.3,5003.4,4952.8,4908,4890.4,4890.4,4881.2,4869.8,4860.4,4863.2,4846.6,4853.3,4863.8,4875.2,4893.2,4900.6,4928.1,4940.8,4965.6,4985.4,5002.7,4999.6,5003.7,5004.3,5024.9,5016.8,5034,5038.1,5037.9,5037.9,5059,5088.1,5129.3,5175.4,5204.4,5253.1,5301.8,5350.8,5387.6,5430,5443.8,5439.3,5420.7,5411.3,5392.3,5359.4,5341.5,5313.8,5291.7,5279.2,5248.1,5244.9,5241.6,5242.8,5250.9,5257.4,5270.2,5282.6,5305,5322.4,5353.5,5399.9,5427.4,5469.3,5516.5,5550.9,5580.7,5625.9,5656.5,5693,5719,5729.4,5729.4,5723.9,5702.4,5686.6,5650.2,5619.4,5584,5534.3,5490.8,5442.8,5386.5,5335.4,5281.6,5214.9,5126.3,5037.6,4951.8,4892,4834.7,4771.2,4724.3,4678.5,4640.2,4595.2,4571.8,4544.5,4527.3,4503.7,4483.3,4476.5,4466.4,4472.7,4479.3,4495.5,4518.7,4535.3,4575.9,4606.6,4630.9,4651.7,4665.9,4673,4683.4,4683.6,4676.9,4648.7,4638.1,4621.1,4593.5,4566.4,4540,4503.5,4471,4419.6,4329.6,4156.9,3997.4,3859.3,3714.7,3580.7,3456.2,3343.6,3255.2,3206,3191.3,3178,3156.9,3145.6,3132.8,3121.8,3104.4,3084.2,3064.5,3047.8,3024.1,3003.6,2973.3,2945,2924.7,2625.8,2897.3,2295.3,276.1,0,0,0,0,0,0,0,0,0,0,0,0,0,0,0,0,0,151.2,750.6,747.5,745.3,743,740.9,737.1,733.9,731,728,724.8,722.2,719.1,715.9,713.4,710,707.4,704.9,702.6,701.1,699.8,698.4,697.3,696.5,696,694.9,694.3,692.8,691.9,691,689.8,688.2,686.8,685.1,683.1,681.6,680.1,678.8,677.2,676.4,675.1,673.9,672.8,671.7,670.7,669.6,668.1,666.9,665.6,664.3,663,661.6,660.4,659.1,658,656.6,655.3,654,652.8,652.2,651.2,650.5,649.8,649.1,648.6,647.9,646.8,646.1,645.7,644.5,643.9,642.8,642.4,642.1,641.4,641.2,641.1,640.8,640.9,641.1,641.5,641.5,641.5,641.7,642.5,643.2,643.6,644.6,645.1,645.7,646.8,647.4,648.3,649.2,650.9,653.4,656.4,660
6039,5897.2,5785.6,5711.5,5674.5,5671.9,5687.7,5696.7,5733.7,5752.2,5773,5794,5793.8,5798,5781.9,5774.9,5754.5,5744.4,5729,5699.1,5668.1,5636.5,5594.4,5559.1,5508.5,5482.6,5428.6,5392.4,5363.1,5329.1,5319.6,5299.2,5271.2,5266.8,5261.7,5256.8,5256.6,5256.3,5251.9,5238.6,5242.9,5234.1,5229.4,5216.4,5203.8,4661.3,4653.1,3597.3,3594.6,3564.9,3030.7,3014.2,3006.9,2990.7,2977.9,2961.4,2481.2,2465,2445,2422.1,2410.4,1917.9,1903.4,1895.7,1884.7,1881.3,1414.8,1407.6,452.8,0,0,0,0,0,80.9,0,161,241.6,323.6,323.4,404.9,404.4,404,487.7,486.4,485.1,568.3,736.8,819.7,817.3,814.9,812.2,810.3,808.8,806.9,805.6,804.5,803.7,802.8,802.5,801.9,801.3,800.7,800.1,799.4,799.1,798.3,797.9,797.4,796.7,796.2,796.3,796.3,796,795.9,795.6,796,796.2,796.2,796.2,796.2,796.1,796.1,796.5,796.5,796.2,796.4,796.7,797.4,797.8,798.6,799.5,800,800.7,801.8,802.7,803.8,805,805.8,807,808.5,810.2,811.8,813.3,814.8,816.4,818.4,819.7,821.1,822.4,824,825.3,826.9,828.4,830.3,832.5,834.6,836.6,838.7,840.7,842.8,845.4,848.2,851.4,854,856.4,859.2,862.2,521.8,524,2802.3,2738,2761.5,2763.5,3315.8,3239.6,3050.6,3141,3023,3007.4,2976.9,2780.5,2866.1,2861.4,2866.2,2769.2,2769.2,2784.4,3950.1,5514.4,5508.5,5512.5,5516.3,5495.9,5499.9,5499.3,5533.4,5548.2,5568.4,5568.4,5563.2,5538,5538,5528.2,5538.4,5553.4,5563.8,5594.5,5630.4,5645.9,5688.2,5720.6,5747.8,5737.5,5690,5535.5,5456.2,5431.4,5388.9,5360.6,5309.3,5250.9,5207.8,5161,5163.4,5101.1,5075.7,5016,4993.7,4970.5,4966.8,4969.7,4947.4,4943.7,4925.6,4919.9,4923.3,4930.7,4937.6,4949.6,4960.9,4973.6,4997.6,5018,5034.1,5052.5,5064.4,5065.2,5073.3,5072.8,5081.4,5089.6,5103.9,5104.1,5103.8,5128.9,5163.7,5202.4,5236.2,5268,5320,5348.1,5403.2,5420.8,5463.5,5467.3,5462.6,5443.8,5429.1,5401.2,5363.6,5340.9,5314,5283,5270.4,5241,5245.7,5234,5230.6,5248.6,5254.1,5284.9,5297.6,5324.9,5346.5,5396.4,5433.2,5484.5,5522.7,5561.2,5605.7,5652.2,5693.1,5729.7,5756.5,5772.1,5782.9,5772.1,5761.1,5745.1,5729,5676.2,5650.4,5599.4,5554.6,5501.3,5448,5396.9,5354.7,5296.4,5224.4,5135.7,5050.5,4964,4904,4831,4786.1,4731.5,4681.9,4643.9,4613.1,4592,4568.3,4554,4526.4,4506.1,4505.7,4505.6,4525.4,4532,4542.2,4579.3,4599.5,4630.6,4658.6,4679.7,4701.3,4708.6,4723.1,4723.1,4715.9,4705.2,4691.4,4670.2,4645.7,4621.4,4590.6,4567.4,4537.4,4500.7,4452.1,4357.7,4182.6,4007.8,3862.1,3705.9,3570.5,3444.8,3334.7,3250.1,3202.8,3184.5,3168.2,3147.2,3139.2,3128,3115.3,3098.1,3078,3062.9,3044.7,3024.2,3000.7,2973.3,2949.6,2930.3,2631.3,2609.9,1729.1,274.9,0,0,0,0,0,0,0,0,0,0,0,0,0,0,0,0,76.2,226.5,749.4,746.5,744.5,742.4,739.9,736.3,733.1,730.3,727.2,724.2,721.4,718.6,715.2,712.8,709.4,706.6,704.6,702.2,700.6,699.5,698.4,697.1,696.3,695.5,694.6,693.9,692.6,691.6,690.3,688.9,687.7,686,684.2,682.5,680.9,679.4,678,676.8,675.8,674.6,673.5,672.4,671.3,670.1,668.4,667.5,666.1,664.9,663.4,662.1,660.7,659.8,658.5,657.1,655.9,654.4,653.1,652.2,651.2,650.2,649.6,649,648.3,647.6,646.8,645.9,645.4,644.8,643.7,642.9,642.2,641.5,641,640.7,640.4,640.2,639.9,640.1,640.1,640.3,640.5,640.5,641.1,641.6,642.4,643,643.6,644.5,645,645.7,646.2,647.2,648,649.3,651.3,654.5,657.9
6078.2,5950.4,5838.9,5753.6,5726.6,5716.1,5725.4,5752.1,5778.1,5804.7,5824.2,5834.7,5838.3,5837.9,5827.1,5808.8,5799.7,5767.1,5762.3,5720.7,5699.8,5663.9,5627,5590.1,5539.6,5508.3,5458,5422.9,5388.6,5363.2,5329.1,5314.2,5289.5,5275.4,5275,5265.5,5265.2,5260.4,5265,5256,5264.9,5255.9,5251.8,5251.9,5234.5,4691.2,4688.1,4157.7,3628.4,3080.8,3069.3,3048.2,3035.8,3027.9,3007.8,2538.3,2509.3,2489,2464.7,2453.1,2425.5,2399.2,1917.9,1906.5,1892,1884.9,941.1,456.2,0,0,0,0,0,0,80.9,0,161.3,242.2,324.2,324.1,405.7,405,404.4,403.5,486.4,484.9,653.3,736.5,819.1,816.7,814,812,809.6,807.9,806.4,805,804,803.2,802.5,801.8,801.3,800.9,800.3,799.6,799,798.6,797.9,797.4,797,796.4,796,795.9,795.7,795.5,795.2,795,795.4,795.4,795.7,795.7,795,795.2,795.2,795.5,795.4,795.5,795.7,796,796.4,797.1,797.9,798.7,799.3,799.9,801.1,801.9,802.9,804.1,805.1,806.2,807.6,809.3,810.9,812.3,813.6,815.6,817.3,819.1,820.6,821.9,823.4,825,826.5,828.6,830.5,832.7,834.9,836.9,839,841.2,843.3,845.7,848.4,851.4,853.5,856.2,858.8,861.6,607.3,523.6,1682.7,2188.8,2777.7,2796.7,3359.4,3367.9,3099.8,3095.5,3084.7,3061.7,3035.4,3024.8,2923.4,2917.5,2922.5,2825.4,2814.8,2825.2,4023.9,5090,5614.9,5608.2,5602.2,5591.3,5604.8,5614.6,5650.3,5686.7,5697.4,5687,5692.2,5665.9,5671.1,5655.6,5650.3,5645.1,5655.8,5698,5735.2,5746.1,5789.7,5824,5874.5,5863.7,5814.5,5673.1,5605.4,5534.5,5489.5,5431.1,5369.9,5319.1,5256.4,5222.9,5212.2,5175.8,5139.2,5095.5,5069.2,5063.9,5047,5046.5,5037.3,5027.4,5026.1,5016.9,5016.6,5011.5,5023.6,5031,5042.8,5058.8,5084,5105.2,5104.4,5134.5,5139.2,5135.5,5153.3,5165.3,5169.8,5170.2,5171.5,5172.4,5171.5,5202.7,5246,5268.5,5298.1,5331,5375.5,5418.2,5445.2,5463.6,5477.4,5497.2,5492.4,5467.3,5438.7,5401.2,5368.2,5336.2,5318.6,5283.4,5275.5,5259,5238.6,5226.3,5249.5,5250,5273.5,5298.2,5316.4,5343.4,5389,5433.8,5476.4,5523.5,5572,5611.5,5662.6,5698.6,5740.3,5789,5810.9,5832.5,5832.2,5826.7,5815.6,5782.7,5750.4,5708.1,5666.1,5609.7,5560.3,5516.5,5459.5,5417.6,5361.5,5297.4,5234.6,5150.5,5051.7,4980.5,4912.6,4842.8,4790.3,4738.9,4689.2,4650.2,4622.5,4598.6,4574.6,4560,4542.9,4535.9,4538.9,4545.7,4562.4,4582.8,4606.7,4637.9,4665.9,4686.9,4708.3,4726.5,4733.6,4744.7,4748.3,4741.3,4741.4,4730.6,4712.9,4695.2,4674.3,4650.1,4615.1,4591.4,4564.6,4527.7,4478.4,4373.4,4194.5,4015.9,3854.7,3697.1,3564.3,3439,3323.9,3229.6,3194.4,3173.1,3161.7,3145.5,3132.8,3119.9,3112.1,3094.9,3078.1,3062.8,3043.2,3025.5,3005.1,2984.9,2959.3,2941.5,2634.4,2624.7,856.2,274.9,0,0,0,0,0,0,0,0,0,0,0,0,0,0,0,0,76.1,75.6,598.5,745.6,743.6,741.5,739,735.6,732.1,729.5,726,723.4,720.2,717.6,714.4,711.5,708.8,705.8,704.2,702,700.4,699.2,698.2,697,696.2,695.4,694.2,693.1,692.5,691,689.9,688.3,686.8,685.2,683.5,681.7,680.2,678.8,677.4,676.2,675.1,674.1,672.9,671.5,670.5,669,668,666.3,665.1,663.9,662.4,661.1,660.1,658.8,657.8,656.7,655.4,654.1,652.7,651.7,650.6,649.7,648.7,647.9,647.4,646.5,645.9,645.3,644.4,643.6,642.8,642.2,641.4,640.9,640.4,640.2,639.8,639.5,639.2,639.4,639.6,639.7,639.9,639.9,640.4,640.9,641.6,642.2,642.9,643.4,644.3,644.8,645.3,646.3,647,648.2,649.9,652.6,655.7
6136.4,6017.7,5909.9,5812.6,5780.6,5776.3,5787.3,5814.9,5836,5850.7,5866.3,5886.5,5897.2,5884.8,5877.3,5861.2,5827.5,5807.5,5786,5753.6,5716.5,5685.4,5647.6,5628.8,5581.1,5543.8,5507.5,5462.2,5426.7,5401.1,5366.5,5337.2,5322.1,5307.7,5292.9,5292.6,5283.2,5287.5,5278.3,5278.3,5282.9,5278.3,5278.6,5292.6,5284,4726.6,4723.3,3680,3668.6,3660.3,3652.7,3091.1,3079,3066.7,2577.3,2555.4,2525.7,2505.1,2484.5,2456.8,2433.6,2410.8,2395.6,1888.1,933.1,929.7,940.7,456.2,0,0,0,0,0,0,80.9,0,161.6,242.6,406.5,324.6,406,405.4,404.7,403.7,486.4,655,738.6,735.9,818.3,815.9,813.5,810.8,808.6,807.2,805.8,804.6,803.5,802.7,802.1,801.2,800.9,800,799.5,799,798.2,797.7,797.3,796.8,796.2,795.6,795.4,795.4,795.2,794.7,794.7,794.7,794.7,794.7,794.8,794.9,794.8,794.3,794.4,794.5,794.8,794.9,795,795.1,795.7,796.4,797,798.1,798.6,799.2,799.9,801.3,802.1,803.1,804,805.3,806.5,808.1,809.8,811.2,812.6,814.4,816.4,818.3,819.8,821.3,822.8,824.4,826,828.3,830.6,832.5,834.8,837,839.3,841.4,843.7,845.9,848.4,851.2,853.3,855.9,858.6,860.6,778.7,523.3,525.7,2780.3,2799.3,2818.8,3387.2,3396.6,3134.6,3135.1,3124.1,3198.8,3085,3160.8,3062,2975.9,2965.1,2878.3,2867.5,2867.2,4084.2,5165.1,5699,5692.7,5696,5689.3,5698.6,5740.2,5766.6,5793.5,5799.1,5777.9,5794.3,5783.8,5778.2,5756.3,5740.4,5740.4,5745.4,5805.4,5838.4,5855.7,5906.5,5947.2,6000.5,5994.6,5943.4,5824.1,5725.5,5641.1,5589.4,5513.8,5455.5,5389,5329.8,5276.6,5265.6,5228.6,5196.1,5169.3,5158,5160.9,5156.5,5146.3,5137.6,5135.7,5120.6,5120.9,5119.7,5124.1,5131.8,5144.2,5143.7,5156.6,5181.2,5202.4,5216.2,5220.2,5229.5,5226.3,5234.7,5240,5252.8,5258.1,5263,5254.6,5264.1,5287.9,5328.1,5359.5,5387.4,5423.5,5461.7,5514.5,5533,5531.8,5536.1,5525.9,5510.8,5471.7,5447.4,5404.9,5367.7,5340.6,5313.4,5301.1,5284,5263.3,5256.4,5261.1,5275.7,5286.4,5304.5,5336.6,5363.2,5398.8,5435.5,5477.5,5539.9,5578.7,5628.3,5673.6,5725.3,5762.6,5805.3,5849.3,5882.7,5876.7,5882.5,5871.1,5854.2,5826.6,5771.7,5740,5677.1,5630,5585.6,5526.1,5468.8,5422.9,5377.1,5303.9,5248.8,5143.4,5052.8,4969.3,4909.4,4854.9,4801.8,4739.1,4695.6,4653.8,4625.8,4608.3,4590.9,4576.9,4566.2,4569.4,4565.9,4586.4,4610.6,4638.3,4659.2,4687.6,4705.1,4730.2,4748.4,4759.3,4762.9,4777.8,4774.2,4774.3,4767.1,4745.4,4731,4713.2,4688.5,4661,4640.4,4609.8,4578.9,4548.9,4495.2,4392.6,4212.2,4026.7,3857.2,3324.2,3196.2,3419.9,3311.5,3226.2,3182.9,3170,3155.2,3140.8,3131.2,3118.4,3107.3,3088.6,3078,3064.4,3047.7,3029.9,3013.9,2993.6,2970.5,2951.1,2943,2640.2,1732,557.5,0,0,0,0,0,0,0,0,0,0,0,0,0,0,0,0,0,75.6,374.5,745.4,743.2,741,738.3,734.9,731.4,728.4,724.9,722.4,719.1,716.1,713.5,710.2,708.2,705.6,703.3,701.6,700.2,699.1,698,697,696.2,695.2,693.8,693,692,690.7,689.4,687.9,686.3,684.8,682.8,681.3,679.8,678.3,676.9,675.6,674.5,673.3,672.3,670.9,669.5,668.4,666.8,665.7,664.2,662.8,661.7,660.2,659.5,658.4,657.2,656.2,654.5,653.7,652.3,651.4,650.2,649.4,648.4,647.6,646.8,645.9,645.5,644.4,643.5,643.1,642.1,641.6,640.8,640.2,640,639.5,639.2,639,638.8,638.9,639.1,639.4,639.3,639.4,639.7,640.3,640.6,641.2,641.9,642.6,643,643.9,644.5,645.6,646.4,647.6,648.6,651.3,654.5
6195,6076.8,5968.2,5881.2,5831.3,5829.2,5818.4,5845.7,5880.4,5894.3,5904,5919.2,5906.4,5915.2,5901.7,5891,5856.6,5829.4,5801.6,5779.9,5748.6,5700.3,5685.4,5648,5606.4,5580,5538.4,5502.5,5466.3,5444.4,5409.9,5375.9,5355.2,5334.7,5329.7,5324.4,5314.9,5305.9,5305.8,5296.6,5310.3,5306.1,5315.5,5315.5,5311.6,5307.3,5312.8,4755.1,4234.4,3150.1,3137.3,3129.4,3112.4,2630.5,2608.4,2576.9,2546.9,2521.7,2496.7,2468.5,2453,2418.3,2403.1,1429.2,936.7,459.6,463,0,0,0,0,0,0,0,81,81.1,161.9,325.5,407.1,406.7,406.4,405.8,404.9,403.8,486.5,569.1,738,820.4,817.6,815.4,812.9,810.3,807.9,806.2,805.1,803.7,802.9,802.2,801.2,800.9,800.3,799.7,799.1,798.5,797.6,797,796.7,796.4,795.6,795.2,794.9,794.4,794.7,794.3,794,794,794.4,794.1,794.2,794.1,793.8,793.7,793.7,793.7,794.1,794.1,794.2,794.4,794.8,795.4,796.2,796.9,797.8,798.4,798.8,800,800.9,802.1,802.8,804.1,805.3,807,808.7,810.3,811.8,813.3,815.1,817.1,818.7,820.3,821.7,823.9,826.1,828.3,830.4,832.6,835.1,837.3,839.9,841.8,844.4,846.5,848.5,851.2,853.8,856.3,858.7,860.8,864,522.7,525.4,1025.6,1625.7,2830.4,2851,3402.5,3399.1,3225.6,3232.3,3233.2,3392,3300.5,3189.7,3188,2997.7,2911.1,2905.2,2905.2,4140.3,5246.4,5802,5778.9,5787.7,5781.2,5801,5838.4,5871.4,5893.5,5882.8,5883.1,5888.7,5883.2,5894.8,5866.6,5849.7,5849.7,5843.8,5906,5951.5,5981.1,6009.8,6064.6,6114.4,6107.6,6059.8,5947.1,5862.4,5778.6,5698.3,5619.7,5533.6,5470.3,5395.4,5346.5,5329.9,5277.7,5249.4,5261.3,5260.3,5244.5,5256.7,5254.6,5259,5248.3,5243.2,5251.2,5254.9,5254.9,5254,5257.9,5261.9,5270.3,5283.3,5291.7,5305.5,5314.6,5311,5334.8,5334.5,5338.7,5348.7,5353.5,5349.7,5351.5,5370,5393.9,5427.1,5468.1,5502.1,5524.9,5559.5,5598.6,5608,5622.5,5610.9,5580.2,5560.2,5520,5471.6,5428.8,5390.5,5363.1,5340.6,5323.3,5307.2,5304.2,5306.1,5294.4,5316.9,5336.8,5356.3,5391.5,5428.4,5461.8,5509,5546.5,5605.5,5649.7,5690.8,5747.6,5790.2,5822,5877.3,5921.8,5921.8,5927.6,5933.2,5910.5,5898.9,5859.8,5815.5,5756.2,5708.8,5651.1,5610.5,5561.6,5507.6,5456.6,5391.3,5336.4,5255.1,5170.1,5062.1,4983.2,4918,4855.6,4798.2,4746.2,4688.4,4653.5,4631.9,4621.7,4607.6,4589.9,4593.3,4600.1,4610.5,4620.9,4652.6,4680.7,4705.7,4730.7,4752.3,4766.8,4785.1,4788.8,4800,4792.7,4789.1,4792.8,4785.7,4763.8,4749.5,4716.9,4700.2,4668.3,4647.9,4623.9,4597,4562.9,4500.1,4394.3,4222,4029.9,3852.8,3688.6,3540,3406.7,3293.8,3216.2,3178.2,3158.6,3147.2,3134.4,3124.8,3116.8,3104.3,3093.3,3079.5,3068.9,3053.8,3038.9,3024.1,3002.2,2987.7,2971,2663.5,871,576.5,274.9,0,0,0,0,0,0,0,0,0,0,0,0,0,0,0,0,0,375.2,598.2,745.4,743.3,741,737.9,734,730.8,727.3,724,720.7,718.1,714.6,711.9,709.2,707.1,705,703,701.5,700.2,699.2,698.3,697,696.2,695.2,693.8,693,691.9,690.5,689.3,687.7,686.1,684.5,682.6,681.1,679.2,677.8,676.1,674.9,674.1,672.9,672,670.5,669,667.5,666.1,664.8,663.7,662.2,661,659.8,658.6,658,656.9,655.9,654.5,653.3,652.1,651,650,648.8,648,647.1,646.1,645.8,644.6,643.8,642.9,642.3,641.7,640.9,640.3,640,639.5,639.2,638.7,638.6,638.5,638.5,638.8,639,638.9,638.9,639,639.7,640,640.4,641.2,641.8,642.2,642.8,643.6,644.5,645.7,646.6,648.1,650.2,653.5
6234.4,6130.1,6026.9,5913.4,5871.6,5858.6,5859.1,5866.4,5910.4,5926.5,5931.4,5934.7,5938.6,5940.6,5928.6,5913.5,5879.4,5862.9,5824.9,5803.5,5776.3,5760.1,5711,5682.1,5660,5621.4,5580.6,5548.5,5520.1,5489.8,5453.5,5436.9,5388.1,5377.3,5357.7,5347.8,5347,5333.2,5333.3,5324.4,5338.4,5347.6,5361.4,5348.2,5348.1,4793.3,4794.3,4809.4,4269.6,3735.1,3730.8,3167.9,3159.1,2652.3,2629.9,2593.8,2555.2,2533.7,2505.1,2480.4,1936.1,1924.6,1898.8,1410.4,463,466.5,463,0,0,0,0,0,0,81,81,81,162.2,326.1,325.8,406.9,406.8,405.8,405.1,404,486.4,654.7,737.6,819.8,816.9,814.5,811.7,809.2,807.3,805.6,804.4,803.3,802.3,801.6,801,800.3,799.9,799.2,798.7,798.3,797.2,796.7,796.1,795.7,795.4,794.9,794.6,794.4,794.4,793.9,793.6,793.6,793.6,793.4,793.4,793.4,792.9,793.2,792.8,792.9,792.9,792.8,793.2,793,793.8,794.4,794.9,795.7,796.4,797,797.7,798.8,799.7,800.6,801.6,802.7,804,805.7,807.2,808.8,810.4,812.3,814.1,815.8,817.5,819.5,821.2,823.1,825.4,827.8,830.1,832.7,835.4,837.7,840.1,842.5,844.6,847,849.2,851.4,854,856.6,859.1,861.4,863.8,694.2,524.6,526.8,441.1,1042.2,2253.2,3407.8,3411.4,3413.9,3410,3412.4,3393,3295.2,3289.7,3282.8,3021.1,2927.4,2927.4,3549.2,4715.7,5272.1,5850.9,5844,5848.4,5842.4,5874.2,5906.2,5945.5,5951.8,5945.8,5946.3,5964,5975.4,5993.1,5969.5,5940.6,5934.3,5951.4,6015.7,6050.9,6093.2,6124.1,6148.7,6219.6,6187.1,6162.9,6082.2,5987.4,5895.5,5800.1,5708.7,5614.7,5539.2,5481.3,5425.7,5400.3,5355.6,5326.4,5333.9,5347.5,5347.7,5347.3,5355,5363.3,5360.8,5374.1,5367.5,5376.6,5362.3,5366.5,5375.6,5379.5,5393.5,5412.3,5407.5,5416.9,5421.5,5417.3,5422.1,5432.6,5437.6,5448.1,5433.8,5435,5444.9,5465.1,5488.2,5517.7,5575.8,5590.9,5610,5655.4,5680.8,5679.2,5683.4,5672.1,5631.2,5599.8,5569.3,5539.5,5485.6,5447.4,5424,5387,5379.1,5366.4,5348.6,5360.2,5357.4,5372.1,5397.2,5421.5,5454.2,5491.9,5525.2,5564.1,5607.2,5667.5,5718.8,5754.6,5801.8,5845.4,5883.8,5928.3,5956.4,5967.6,5961.8,5961.8,5939,5916.1,5876.7,5832.2,5772.6,5719.6,5671.9,5626.1,5586.6,5533.1,5480.9,5410.6,5356.2,5283.3,5175.4,5079.2,4992,4918.9,4859.9,4791.3,4746.2,4695.2,4660,4631.6,4627.9,4620.9,4617.2,4617.1,4624.1,4641.4,4666.7,4702.1,4720.4,4749.2,4774.8,4785.5,4800.1,4807.6,4815.1,4815.1,4807.6,4804.2,4804.2,4797.1,4782.5,4753.8,4732.1,4707.6,4683.2,4659.1,4632.4,4604.9,4568,4511.2,4408,4237.3,4027.9,3848.4,3680,3525.9,3393.8,3285.1,3206.3,3170.1,3152.2,3141,3129.7,3123.1,3116.9,3102.8,3094.9,3085.7,3076.5,3062.9,3050.8,3035.9,3022.6,3011.2,2696.2,1787.7,588.7,281.2,278.6,0,0,0,0,0,0,0,0,0,0,0,0,0,0,0,0,225.7,600,672.6,745.2,743,740.6,737.4,733.7,729.9,726.2,723,719.3,716.4,713.3,710.6,708.4,706.2,704.1,702.5,701.1,700.1,699.1,698.4,697.1,696.2,695.2,693.9,693.2,691.9,690.5,689.1,687.6,686.1,684.4,682.7,680.7,679.4,677.4,675.8,674.6,673.4,672.3,671.2,669.8,668.4,666.9,665.7,664.4,663.3,661.8,660.8,659.8,658.6,658,656.7,655.7,654.3,653,652,650.7,649.8,648.5,647.8,646.6,645.8,644.9,644.2,643.1,642.4,641.8,641.2,640.5,640,639.6,639.3,638.7,638.3,638.2,638,638.1,638.2,638.5,638.4,638.5,638.8,639,639.3,639.7,640.4,640.8,641.4,641.9,642.6,643.5,644.4,645.6,647.1,649.1,651.8
6274.1,6175.4,6069.8,5973.3,5919.5,5894.7,5897.1,5897.1,5927.7,5941.9,5952,5962.4,5976.4,5957.4,5953.5,5927.6,5898.9,5870.3,5869.6,5831.4,5807.7,5787.4,5744,5724.4,5693.5,5675.3,5648.3,5609.4,5582.1,5546,5514.2,5481.6,5446,5425.4,5410,5385.1,5393.9,5384.3,5375.1,5365.9,5370.6,5375.8,5375.8,5390.2,5390.4,5381.4,5395.9,4831.9,4315.5,4301.8,3780.5,3762.2,2684,2670.8,2643,2602.4,2571.6,2534,2508.7,2484.6,2452.7,1921.1,1413.9,936.6,466.5,466.5,466.5,0,0,0,0,0,0,0,81,162.2,243.7,243.8,326.2,325.9,407,406.2,405.2,404.1,486.1,654.4,736.9,738.7,816.2,813.8,810.9,808.5,806.6,804.9,803.6,802.7,801.9,800.9,800.4,799.8,799.3,798.6,798.2,797.5,796.7,796,795.7,795.1,794.8,794.2,794.3,794,793.9,793.6,793.5,793.3,793.2,793.1,793.1,792.7,792.6,792.5,792.4,792.3,792.4,792.3,792.5,792.4,792.8,793.2,794,794.7,795.2,795.7,796.1,797,798.2,799.1,800,801.1,802.7,804.1,805.8,807.7,809.3,811.5,813.1,814.8,816.5,818.5,820.4,822.3,824.6,826.9,829.7,832.4,835,837.5,840.3,842.7,844.7,847.4,849.5,851.9,854.1,856.9,859.5,861.9,864,867.5,524.1,526.6,440.4,1042,2851.1,3402.4,3405.8,3408.5,3405,3314.4,3217.6,3207.4,3109.6,3010.5,2927.8,2933,3561.1,4152.9,4721.3,5847.4,5873.6,5861.1,5859.5,5853.1,5879.2,5900.5,5939.8,5951.8,5963.5,5981.6,5987.6,6017,6052.4,6022.2,6010.4,6015.9,6033.2,6092.8,6116.9,6160.3,6204.4,6223.8,6268.8,6269.2,6256.1,6193,6100.1,6004.2,5900.6,5805.5,5703.5,5614.7,5566.1,5498.6,5467.4,5416.8,5377.7,5395,5418.1,5419.3,5428.1,5450.1,5467.3,5475.3,5482.4,5479.9,5488.9,5478.4,5483.3,5493.1,5497.1,5497,5498.2,5497.8,5503.2,5503.1,5503.1,5513.6,5504.9,5511.1,5511.4,5506.4,5517,5528.4,5544.6,5588.4,5622.7,5652.2,5672.5,5692,5728.2,5737.9,5742.2,5730.1,5724.6,5676.8,5656.1,5630.2,5589.3,5549.1,5519.3,5495.3,5472,5453.2,5455.2,5442.4,5444.7,5446.1,5456.6,5493.7,5514.5,5553.8,5578.2,5606.1,5656,5684.7,5747.4,5773.2,5830.9,5857.6,5912.9,5946.3,5991.5,6002.8,6026.2,6002.6,6002.4,5967.8,5950.6,5905.2,5849.1,5794.8,5741.4,5693.8,5652.1,5606.7,5557.1,5490,5433.9,5369.6,5277.7,5183.9,5084.4,4991.9,4911.6,4852,4794.9,4745.9,4694.8,4666.5,4648.5,4645,4627.6,4634.6,4641.4,4659.1,4680.6,4709.5,4734.5,4771.3,4789.7,4808.4,4822.9,4830.3,4830.2,4833.8,4834,4826.5,4823.2,4819.6,4805,4786.6,4772.1,4758.2,4729.2,4701.9,4670.9,4643.7,4616.5,4579.2,4512.8,4409.3,4239.2,4029.1,3839.9,3667,3511.8,3382.8,3272.8,3201.4,3165.3,3147.4,3133,3125,3121.7,3113.8,3106.1,3098.2,3088.9,3085.8,3075.1,3070.5,3058.4,2744.5,2738.6,2423.5,1498.2,597,0,0,0,0,0,0,0,0,0,0,0,0,0,0,0,0,0,0,376,600.1,747,745,743,739.8,736.9,732.9,729.3,725.3,722,718.7,715.2,712.6,709.8,707.7,705.7,703.9,702.5,701.3,700.3,699.3,698.4,697,696.2,695.2,693.9,693,692,690.7,689.2,687.7,686,684.3,682.2,680.4,679,677.1,675.4,674.2,673.1,671.9,670.7,669.1,668,666.3,665.2,664,663,661.5,660.5,659.5,658.5,657.8,656.7,655.5,654.4,653,651.9,650.5,649.5,648.2,647.5,646.5,645.5,644.5,643.4,642.6,641.8,641.1,640.5,640.1,639.4,639.2,638.9,638.5,638.2,638,637.7,637.9,637.8,637.9,638,638,638.2,638.4,638.9,639.3,639.7,640.1,640.5,640.9,641.7,642.7,643.8,644.5,646.2,648.3,650.7
6291.1,6206.7,6106.9,6015.2,5955.3,5931.5,5910.1,5934.6,5927.4,5951,5953.6,5972,5968.7,5967.4,5963.3,5943.7,5928.7,5894.9,5870.9,5854.9,5832.5,5815.7,5799.9,5762.9,5744.2,5720.8,5687,5669.4,5646.8,5613.8,5581.9,5543.1,5506.5,5484,5452.8,5442.3,5426.9,5431.8,5412.6,5398.9,5404.1,5404.1,5413.8,5418.8,5414,5418.9,5419.1,4864.7,4865,4329.5,3793.6,3262.3,3253,2683.7,2655.9,2620.1,2580.5,2546.2,2509.1,2484.7,2449.7,1922,1403.4,922.9,466.5,466.5,463,0,0,0,0,0,0,0,81.1,162.7,244.3,244.3,244,326.2,407.4,406.5,405.3,404,485.9,654,736.3,738.3,815.8,813.3,810.4,807.9,806.1,804.2,803.1,802.2,801.3,800.6,800.1,799.3,799,798.4,797.4,796.9,796.3,795.7,795.3,794.8,794.5,794,793.9,793.7,793.6,793.5,793.2,793.1,792.7,792.9,792.6,792.4,792,791.9,791.9,791.9,791.9,792,792,792,792.1,792.5,793.2,793.7,794.2,794.7,795,795.6,796.8,797.7,798.8,799.7,801,802.7,804.3,806,808.1,810,811.9,813.6,815.3,816.9,819.5,821.3,823.4,826,828.7,831.7,834.5,837.4,840.1,842.7,845.2,847.7,849.8,852,854.7,857.1,859.7,862.1,864.3,868,696.8,526,440.3,443.8,1045.3,3379.9,3388.7,3379.9,3393.9,3124.8,3033.1,2940.8,2934.2,2934.2,2939.2,2945,3578.6,3566.6,4739.6,5892,5906.4,5905,5898.5,5914.5,5929.8,5958,6009.5,6009.6,6027.2,6057.7,6075.7,6099.8,6124.4,6093.4,6074.8,6068.5,6050.4,6086.5,6122.7,6135.1,6166.3,6229.6,6274.5,6261.7,6261.7,6229.5,6160.3,6081.4,5962.8,5872,5767.6,5687.6,5631.9,5572.9,5516.6,5436.5,5415,5437.5,5460.9,5476.5,5494.8,5512.2,5535.2,5547.6,5549.9,5568.2,5582.2,5576.1,5576,5570.9,5571.3,5576.6,5566.2,5576.9,5567.2,5557.5,5558.9,5558.8,5555,5559.9,5566.2,5572.3,5581.8,5598.6,5629.7,5660.4,5706.1,5736.9,5745.1,5782.4,5802.5,5802.2,5812.1,5789.6,5772.8,5729.4,5697.6,5682,5650.6,5609.8,5579.5,5569.7,5550.8,5541.5,5552.9,5545.2,5552.7,5554.4,5572.3,5579.3,5618.7,5640.7,5679.5,5715.9,5734.9,5776,5823.8,5860.3,5898.5,5942.6,5987.6,6010,6044.6,6056.3,6056,6043.9,6026.1,6002.7,5962.2,5905.3,5855.2,5811.6,5758,5704.2,5673.6,5627.7,5582.3,5514.8,5443.1,5373.6,5287.3,5184,5063.6,4984.4,4915.2,4848.6,4786.9,4752.8,4705.3,4673.1,4662.3,4655.3,4665.8,4662.3,4669.5,4701.7,4730.7,4763.7,4793.5,4823.6,4838.6,4849.6,4872.3,4868.2,4856.8,4860.8,4857,4853.4,4842.1,4831,4820.1,4813.3,4798.8,4769.8,4744.3,4709.5,4685.7,4644.3,4620.4,4580.1,4514,4404.4,4234.4,4024.7,3839.8,3665.3,3504,3375.3,3269.6,3196.4,3160.2,3141,3131.4,3123.5,3121.7,3113.9,3107.7,3101.6,3098.3,3095.1,3091.9,3085.9,3082.8,3075.2,2456.2,1518.7,920.8,0,0,0,0,0,0,0,0,0,0,0,0,0,0,0,0,0,0,0,376,749.4,747,745.1,743.2,739.8,736.4,732.2,728.6,724.7,721,717.8,714.4,711.9,709.1,707.4,705.8,703.9,702.5,701.4,700.5,699.2,698.6,697.1,696.2,695.3,694,693.2,692,690.7,689.3,687.8,685.8,684.3,682.1,680.2,678.7,676.8,675.2,674.1,673,671.6,670.2,668.8,667.4,666.1,664.7,663.6,662.5,661.4,660.2,659.6,658.4,657.7,656.6,655.2,654.1,652.7,651.6,650.3,649.3,648,647.2,646,645,644.1,642.8,642.5,641.5,640.9,640,639.6,639.1,638.7,638.5,638.2,637.9,637.4,637.3,637.3,637.4,637.5,637.7,637.8,637.7,637.9,638.2,638.7,639.2,639.4,640,640.4,641.2,642.1,643.2,644,645.7,647.3,650.1
6298.4,6208.2,6107,6025.6,5971.9,5919.3,5909,5923,5930,5933.8,5937.1,5952.4,5957.1,5950.4,5958.9,5950.6,5913,5896.6,5891.3,5879.8,5862.4,5838.6,5822.9,5796.7,5786,5784.7,5745,5726.1,5697.4,5674.6,5646.1,5614.2,5575.6,5533.5,5517.2,5506.1,5486,5466,5461.1,5456.5,5451.9,5442.3,5461.7,5452.3,5457.3,5452.7,5462.3,4902.7,4902.4,4907.2,3827,3817,3802.4,2702.8,2674.5,2642.4,2593.6,2555.2,2521.6,2489.6,2458.4,1919.2,1905.1,916.3,466.5,466.5,0,0,0,0,0,0,0,81.2,81.2,162.9,244.6,163,244.5,326.8,407.6,406.7,405.5,404,485.9,653.8,820.7,737.9,815.4,812.6,810.1,807.6,805.4,804,802.9,801.5,800.7,800,799.3,798.7,798.3,797.7,796.9,796.3,795.7,795.4,795.1,794.8,794.3,793.8,793.6,793.4,793.3,793.2,793,792.6,792.4,792.4,792.2,792,791.7,791.7,791.7,791.5,791.3,791.5,791.7,791.7,791.7,791.8,792.3,792.9,793.2,793.5,793.9,794.3,795.1,796.3,797.5,798.6,800.2,801.3,803.2,805,806.9,808.7,810.5,812.5,814.2,816.2,818.3,820.5,822.7,825,827.9,830.9,833.8,837,839.6,842.6,845,847.1,849.7,852,854.3,857.1,860,862,864.5,868.2,871.1,525.6,439.8,443.8,447.3,3363.5,3378.1,3381,3393.9,3124.6,3027.9,3038.9,2946.4,2951.4,2968.2,2973.4,3607.8,3608,4228.8,5366.4,5953.7,5939.9,5950.9,5943.9,5971.2,6010.6,6039.4,6075,6087,6106,6130.1,6160.7,6166.9,6141.6,6129.1,6105,6068.5,6104.7,6111.1,6122.9,6154,6191.6,6242.5,6223.6,6235.8,6248.3,6197.5,6129.2,6021.1,5917.1,5822.1,5746.2,5694.1,5613.5,5561.5,5484,5458.4,5472.6,5496.5,5506.5,5540.1,5547.8,5572.8,5580.4,5597.1,5609.6,5613,5612.2,5627.3,5606.4,5596.7,5606.8,5607.6,5588.7,5594.2,5595,5601.5,5592.2,5597.9,5598.4,5604.4,5609.2,5620.3,5642,5656,5703,5754.3,5774.1,5805.2,5825.6,5852.2,5856.5,5850.2,5844,5805.3,5777.5,5750.3,5739.8,5718.9,5687,5661.3,5666.9,5647,5642.7,5644.7,5646.4,5637.9,5655.7,5668.8,5675.7,5717.5,5727.8,5769.4,5795.1,5821.1,5857.8,5889.7,5927.9,5966.8,6012,6046.3,6063.7,6086.8,6098.1,6091.6,6073.9,6061.9,6032.5,5986.1,5929,5867,5818,5753.2,5716.2,5668.5,5628.5,5573.3,5534.6,5448,5368.1,5291.9,5174.6,5071.6,4992.5,4919.4,4855.9,4797.6,4756.1,4715.7,4687,4679.8,4690.4,4690.4,4701.3,4715.9,4748.6,4789.6,4816,4838.4,4864.9,4888.4,4895.8,4899.6,4891.6,4888,4876.6,4869,4869.1,4865.5,4861.9,4854.5,4832.4,4810,4795.9,4774.1,4735.2,4703.7,4673.8,4639.2,4588.9,4515.6,4403.3,4239.3,4013,3824.5,3646.4,3494.4,3368.2,3264.5,3191.5,3158.7,3136.2,3128.1,3123.5,3120.1,3118.5,3115.4,3110.8,3107.6,3106.3,3106,3102.8,3099.7,3095.1,2788.7,2479.4,925.5,0,0,0,0,0,0,0,0,0,0,0,0,0,0,0,0,0,0,0,451.1,674.7,747.2,745.3,743.4,739.9,736,731.9,727.7,723.9,720.1,716.9,713.6,711,708.6,706.9,705.4,703.9,702.7,701.6,700.3,699.4,698.6,697.5,696.2,695.4,694.3,693.3,692,690.7,689.2,688,685.9,684,682,680.3,678.9,676.7,675.1,673.6,672.3,671.4,669.8,668.5,666.9,665.6,664.6,663.2,662.1,661,660.1,659.3,658.1,657.4,656.4,654.7,653.8,652.3,651,650,648.8,647.9,647,645.8,644.7,643.7,642.8,642.1,641.1,640.6,639.8,639.2,638.6,638.3,638.1,637.7,637.4,637.1,637,637.1,637.2,637.3,637.1,637.1,637.2,637.4,637.7,638.1,638.4,638.8,639.4,639.9,640.6,641.3,642.4,643.4,644.9,646.7,649.1
6299.1,6195,6117.3,6030.2,5947,5912.7,5884.1,5881,5908.3,5913,5912.4,5924,5934.9,5934.1,5933.7,5932.7,5925.1,5920.3,5904.7,5898.2,5896.9,5879.2,5873.6,5852.5,5851.5,5839.6,5830.7,5801.1,5770.2,5747.2,5724.4,5680.9,5652.8,5625.6,5587.1,5556.2,5546,5526.1,5515.7,5506.4,5496.4,5496.2,5500.9,5496.6,5496.6,5491.6,5487,5506,5506,4396.1,3846.3,3836.2,3826.6,3817.7,3233.3,2651.5,2611.3,2572.8,2539.1,2494.1,2467.4,2436.6,1892.9,1382.8,933,466.5,0,0,0,0,0,0,0,0,81.2,81.3,163.4,163.4,245,327.2,325.9,406.7,405.5,404.2,485.9,739,820.6,737.4,815.2,812.4,809.6,807,805,803.3,802.1,800.9,799.7,799,798.4,797.8,797.5,797,796.2,795.6,795.1,794.9,794.5,794.1,793.7,793.4,793.3,793,792.9,792.8,792.4,792.2,792,791.7,791.5,791.3,791.2,790.9,790.8,790.9,790.9,791,791.1,791.1,791.1,791,791.4,791.8,792.2,792.5,792.9,793.2,794.2,795.2,796.6,797.6,799.1,800.6,802.3,804.1,805.8,807.8,809.4,810.9,812.8,814.9,817.1,819,821.6,824.5,827.2,830,833.6,836.6,839.6,842.3,845,847.5,850,852.3,854.9,857.7,860.2,862.4,864.9,868.3,871.3,525,439.5,443,1620.4,3363.4,3383.8,3381,3383.4,3305.2,3318.2,3331.9,3338.1,3343.6,3074.1,3185.5,3286.8,3286.8,3638,4802.8,5966.7,5975.8,5980.1,5967.2,6000.6,6046,6081.7,6106.1,6111.8,6148.4,6191.8,6204.3,6235.9,6191.2,6160,6147.6,6116.8,6130.1,6135.5,6135.4,6178.4,6216.3,6254,6235.3,6260,6285.4,6253.9,6171.7,6062.1,5979.9,5871.6,5800.2,5741.9,5654.2,5590.8,5524.4,5467.4,5495.6,5511,5532.4,5541.1,5562.7,5586.7,5604.9,5616.9,5640.9,5639.4,5648.9,5632.8,5627.7,5628.2,5628.5,5624.4,5600.7,5606.2,5607,5613.3,5608.5,5619.6,5621.1,5632.4,5632.6,5643.4,5654.9,5690.3,5726.1,5777.7,5807.6,5828,5870.6,5886.4,5901.9,5900.5,5894.5,5860.2,5826.9,5793.8,5788.5,5777.7,5756.4,5740.7,5741,5715.3,5742.4,5750.6,5745.9,5749.2,5761.8,5759,5771.1,5803.2,5847.5,5861.9,5888.2,5905.3,5932.2,5970,6003.6,6037.3,6083.9,6094.7,6117.8,6147.5,6146.8,6121.9,6098.1,6074.2,6038.6,5980.4,5946.4,5879.6,5818.4,5781.4,5728.1,5680.4,5644.8,5594.5,5525.2,5454.2,5364.4,5277.2,5174.2,5075.6,4987.8,4919.2,4866.9,4820,4782,4741,4715.5,4708.4,4722.7,4733.6,4741.1,4752.2,4792.9,4834.5,4853.6,4892,4907.5,4931.3,4943.1,4942.9,4935.2,4915.4,4907.9,4904.1,4896.7,4900.8,4889.4,4885.6,4870.8,4852.3,4822,4793.4,4769.4,4726.6,4692.5,4644.8,4597.9,4514.1,4386.9,4221.6,4009,3808.6,3634.2,3484.7,3359.3,3257.5,3188.2,3155.4,3134.5,3128.1,3125,3124.9,3120.1,3118.5,3116.9,3116.9,3115.4,3115.3,3113.8,3113.8,3109.1,2496.3,2180.5,625.3,314.2,0,0,0,0,0,0,0,0,0,0,0,0,0,0,0,0,0,0,451.3,674.7,747.4,745.4,743.4,739.8,735.8,731.6,727.2,723.4,719.7,716.5,713.3,710.5,708.2,706.8,705.3,703.8,702.7,701.5,700.5,699.6,698.8,697.7,696.4,695.6,694.5,693.3,692.1,691.1,689.4,687.9,686.2,684.2,682.3,680.3,678.9,676.8,675.2,673.5,672.2,671,669.3,668.3,666.5,665.2,663.8,662.8,661.4,660.8,659.5,658.9,657.9,656.9,655.7,654.4,653.1,652.2,650.8,649.8,648.5,647.6,646.7,645.6,644.6,643.1,642.4,641.5,640.8,639.9,639.2,638.6,638.3,637.9,637.6,637.3,637.1,636.9,636.7,636.6,636.8,636.7,636.6,636.7,636.7,637,637.3,637.6,637.9,638.2,638.8,639.1,639.9,640.9,641.7,642.9,644.2,646.1,648.5
6254.8,6176.3,6092.9,6000,5921.4,5884.9,5858.3,5853.6,5870.7,5893.3,5885.7,5887.3,5897,5915.6,5929.9,5927.5,5914.3,5901.2,5912.5,5925,5927.6,5910.2,5903.5,5904.1,5910.5,5902.8,5894.7,5865.4,5845.1,5827.5,5793.2,5771.4,5721.3,5693,5645.1,5608,5596.9,5592.6,5556.9,5542,5541.5,5552,5541.4,5541.4,5536.1,5535.7,5531,5545.5,5545.5,4990.7,4431.2,3865.9,3851.7,3841.4,3252.8,3210.9,2634.5,2595.6,2552.4,2519.6,2488.5,2445.3,2422.6,1863.8,1843,933.1,459.6,0,0,0,0,0,0,81.2,81.2,163.4,163.6,163.7,245.5,327.4,326.5,406.9,405.8,404.4,402.1,738.6,820.3,817.1,814.7,812.3,809.4,806.8,804.4,803,801.3,800.4,799.3,798.4,797.9,797.2,796.8,796.3,795.6,795,794.9,794.7,794.2,793.7,793.4,792.9,793.1,792.6,792.4,791.9,791.9,791.4,790.8,790.7,790.4,790.4,790.3,790.1,790.2,790.2,790.4,790.5,790.5,790.7,790.8,790.7,790.7,791.3,791.5,791.5,792,792.6,793.4,794.3,795.5,796.7,798.2,799.5,801.2,802.9,804.5,806.6,807.9,809.8,811.8,813.7,816,818,820.7,823.5,826.5,829.4,832.7,835.9,839.1,842,844.8,847.4,849.7,852.4,854.7,857.6,860.3,862.9,865.4,868.1,871.6,524.5,438.6,1034.5,2810,3357.3,3372.1,3386.2,3400.2,3408.2,3324.1,3344,3368,3374,3381,3392.6,3300.7,3306.8,3124.2,3675.3,4839.1,5989.1,5987.4,6003.1,6024.9,6059.2,6106.4,6130.6,6167,6204.6,6229.8,6242.7,6268.4,6236.1,6223.4,6198.5,6154.5,6154.5,6160.1,6172.7,6197.5,6215.9,6241.2,6228.5,6279.3,6311.1,6291.7,6233.8,6128.5,6032.2,5939.8,5866.4,5806.5,5727.8,5620.3,5562.2,5521,5534.4,5550.1,5555.7,5564.9,5587.9,5606,5629.8,5632,5672.8,5665.5,5664.1,5664.6,5643.8,5638.5,5634.3,5636,5631.8,5622.6,5628.5,5610.1,5622,5632.8,5642.6,5653.3,5653.2,5665.2,5675.6,5707.5,5748.9,5794.5,5830.5,5855.2,5910.6,5931.9,5959.1,5951.9,5957.2,5910.6,5882.2,5854.5,5849,5832.2,5816.1,5805.7,5806.3,5812.5,5814.3,5831.8,5850.8,5865.6,5855.8,5863.3,5882.1,5903.8,5925.2,5953.6,5968.6,5978.9,6006.7,6034.6,6062.3,6108.7,6125.7,6149.8,6185.7,6190.8,6171.6,6159.1,6122.6,6098.7,6057.1,6010.8,5948.4,5903.7,5837.1,5777.5,5724.4,5698.7,5653.3,5602.8,5528.6,5451.1,5369.6,5272.9,5178.8,5079.6,5004.1,4938.6,4886.4,4846.8,4815.2,4781.5,4777.7,4770.3,4785.2,4792.7,4800.4,4826.6,4868.4,4911.1,4934.8,4954.6,4975,4987.2,4987,5003.4,4979.4,4955.4,4947.7,4947.8,4943.7,4936.2,4932.3,4920.8,4901.8,4882.8,4867.9,4834.8,4794.7,4755.7,4707.3,4657,4613.9,4517.4,4383.9,4214.7,3995.8,3425,3632.6,3473.5,3357.4,3257.4,3188.1,3153.7,3132.8,3127.9,3123.3,3124.8,3124.7,3121.7,3123.3,3123.3,3127.8,3129.4,3129.4,3129.3,3129.3,3129.3,1567.8,628.4,315.8,0,0,0,0,0,0,0,0,0,0,0,0,0,0,0,0,0,0,451.1,674.3,747.2,745.2,743.1,739.6,735.6,731.2,726.8,723.3,720,716.8,713.7,711.1,708.7,707,705.7,704,702.9,701.9,700.7,699.8,698.9,697.9,696.7,695.7,694.7,693.5,692.4,691.3,689.6,688.2,686.3,684.3,682.4,680.2,678.7,676.8,675.3,673.4,672,670.8,668.8,667.7,666,664.8,663.2,662.3,661.1,660,659,658.3,657.1,656.1,655.1,654,652.8,651.9,650.4,649.5,648.3,647.2,646.4,645.3,644.1,642.9,642.1,641.1,640.2,639.5,638.5,638.2,637.7,637.4,637.2,637,636.7,636.5,636.4,636.4,636.4,636.3,636,636.1,636.2,636.3,636.6,637.1,637.2,637.6,638.1,638.9,639.3,640.2,641,642,643.7,645.5,647.7
6227,6137,6061.1,5972.4,5914.2,5858.3,5837.1,5832.9,5842.8,5847.7,5841.1,5881.1,5881.7,5889.5,5899.7,5924.3,5915.5,5916,5926,5932.4,5941.2,5947.2,5946.8,5958.9,5953.8,5962.9,5968.8,5955.2,5926.1,5909,5885.1,5838.5,5787.4,5752.9,5725,5686.4,5660.2,5628.6,5613.6,5613,5603.2,5602.1,5596.9,5591.3,5586.1,5585.9,5590.7,5585.9,5595.9,5596.7,4476.3,3901.5,3890.9,3871.4,3282.3,3248.6,3197.3,2621.4,2578.5,2540.9,2504.4,2469.1,2431.1,2409.5,1849.3,1839.2,456.2,0,0,0,0,0,0,0,81.1,81.3,163.8,163.9,245.8,245.3,326.4,407,405.9,404.3,402.1,654.8,819.7,816.5,813.7,811.3,808.9,806.4,804,802.3,801,799.8,798.4,797.7,797.2,796.9,796.6,795.6,795.1,794.6,794.3,793.8,793.5,793.2,792.6,792.4,792.3,792.1,791.5,791.1,790.8,790.3,790.1,789.9,789.6,789.7,789.6,789.2,789.3,789.5,789.8,789.8,790,790,790.2,790,790.3,790.7,790.5,790.9,791.3,791.8,792.6,793.4,794.6,796,797.6,798.9,800.4,802.1,803.8,805.5,807.2,809,810.9,812.9,814.8,817.1,819.7,822.9,825.8,828.7,832.4,835.5,838.7,841.7,844.6,847.2,849.4,852.4,854.6,857.9,860.6,862.9,865.4,868.2,871.6,524.3,438.2,1632.1,2809.7,3368.3,3382.9,3397.2,3405.8,3408.1,3427.1,3366.1,3385.3,3391.4,3405.4,3417,3324.7,3338.6,3160.5,3077.4,3076.9,4229.7,5431.8,4853.7,6049.3,5491.1,6131.7,6169.4,6206.2,6251.1,6296.6,6296.6,6296.6,6283.1,6257,6218.3,6180,6173.4,6179.5,6185.7,6204,6222.2,6253.4,6253.4,6272.1,6323.8,6310.7,6252.4,6170.9,6079.8,6002.8,5928.5,5856.2,5780.8,5676.1,5606.8,5563.6,5567.2,5564.3,5583.3,5593.3,5633.8,5647.5,5660.7,5674.1,5682.6,5691.4,5685.6,5691,5654.7,5661,5644.7,5642.3,5648.6,5643.7,5645.2,5630.9,5637.8,5654.3,5669.1,5675.1,5690.6,5707.7,5728.9,5744.1,5798.1,5843.7,5897.6,5919.2,5956.3,5989,6005.5,6010.2,6008.9,5996.8,5961.8,5916.1,5904.8,5905,5894.2,5888.9,5884.6,5896.8,5892.2,5916.2,5947.9,5956.4,5942.7,5954.2,5978.7,5977.4,6017.6,6027.8,6050.7,6054.1,6077.4,6112.6,6133.7,6164.8,6181.6,6217.7,6254.7,6234.9,6221,6189.9,6153.5,6105.1,6064.4,6012.8,5938.1,5882.5,5850.5,5790.7,5727.4,5690.8,5650,5599.6,5550.2,5439.1,5372.4,5261.2,5175.5,5084,5000,4942.3,4901.4,4884.9,4857.1,4833.8,4830,4833.8,4852.8,4872.1,4880,4899.4,4946.3,4986.7,5007,5019.5,5028,5040.3,5052.8,5040.3,5032.3,5003.9,4980.1,4984.1,4980,4976.1,4972.6,4960.7,4949.1,4926,4910.8,4873.2,4844.6,4794.2,4737.7,4683.6,4616.2,4516.2,4385.9,4212.6,3986.6,3409.5,3229.1,3101.8,3348.4,3252.2,3184.7,3152,3132.6,3124.6,3127.8,3127.9,3132.7,3126.2,3126.2,3127.8,3135.8,3138.9,3138.9,3140.5,3138.9,2832.8,1261.7,633.3,0,0,0,0,0,0,0,0,0,0,0,0,0,0,0,0,0,0,0,526.2,674.4,747,745,742.8,739,734.9,730.9,726.4,723.2,719.8,717.1,713.9,711.6,709.4,707.6,706.1,704.4,703.5,702.4,701.1,699.9,699.2,698.3,697.2,696,695.2,694.1,692.9,691.6,690.1,688.4,686.7,684.5,682.4,680.4,678.8,677,675.2,673.4,671.9,670.6,668.9,667.6,665.8,664.4,663,662,660.6,659.6,659,657.9,656.9,655.8,654.8,653.7,652.5,651.4,650.3,649.3,648.2,647.2,646,645,643.8,642.5,641.6,640.9,639.9,639,638.2,637.5,637.4,637.1,636.9,636.7,636.2,636.2,636.1,636.1,635.9,635.7,635.5,635.4,635.5,635.8,636,636.6,636.7,637.1,637.7,638.3,639,639.5,640.5,641.3,643,644.8,646.8
6181.6,6121.2,6034.3,5957.7,5879.5,5837.1,5809.2,5798.6,5820.9,5826.2,5826.1,5839,5855.5,5866.2,5877,5898.2,5902.7,5906.9,5935.6,5945.8,5957,5968.9,5968.7,5996.9,6006.2,6015.3,6006.7,5993.1,5980.4,5968.5,5937,5908.8,5872.5,5821.8,5791.6,5763.4,5730.8,5703.1,5677.1,5665.8,5655.4,5650.1,5648.7,5652.9,5631.8,5642.3,5637.3,5637.1,5637.1,5637.1,5637.1,4497.3,3916.5,3896.3,3876.1,3837.1,3794.7,3189,3139.7,2561.8,2520.8,2481.3,2455.2,2417.6,1856.3,1839,452.8,0,0,0,0,0,0,0,0,163.7,163.9,163.9,163.8,245.4,326.4,325.2,405.7,404,401.9,653.9,818.7,815.5,812.7,810.6,807.9,805.4,803.4,801.7,800,798.8,797.8,797.1,796.6,796.1,795.8,795,794.6,794.2,793.8,793.4,793.1,792.9,792.4,791.8,791.8,791.6,791,790.5,790.3,789.6,789.4,789.2,788.8,788.7,788.8,788.5,788.7,789.1,789.1,789.4,789.5,789.4,789.7,789.6,790,790,789.8,790.1,790.7,791,791.7,793.1,794.4,795.5,797.2,798.7,800.1,801.5,803.6,805.1,806.6,808.1,810.3,812,814.4,816.7,819,822.3,825,828.2,831.7,835.1,837.8,841,844.2,847,849.5,852.6,855,857.4,860.8,863.1,865.4,868.1,871.6,524,438,1643.3,3380.7,3389.9,3411.5,3420.1,3434,3436.6,3456.4,3481.7,3506.6,3421.7,3435.1,3447.5,3467.7,3381.2,3300.4,3115.9,3121.7,3107.7,3114.6,3107.1,3113.2,3126.4,3151.6,5014.7,6241.2,6286.4,6312.8,6326.3,6326.5,6306.3,6272.2,6245.1,6187.8,6174.6,6167.6,6185.7,6216.1,6235.2,6260.4,6266.4,6285,6336.8,6336.7,6278.6,6196.2,6109.8,6044.4,5974.6,5896,5830.1,5734.1,5656.6,5613.5,5606.8,5602.6,5612.7,5628.1,5636.9,5661.7,5692.5,5683.6,5698.7,5702.7,5701.7,5691.1,5671.3,5671.7,5672.5,5668.3,5654.5,5654.9,5645.8,5652.5,5658.3,5674.3,5675.3,5695.3,5717.4,5734.6,5754.1,5781.7,5818.2,5867,5927,5953,5996.4,6024.8,6040.6,6051.3,6062.1,6055.7,6014,5996.4,5984.8,5967.8,5974.1,5969.1,5970.4,5977.5,5972.2,5992.8,6018.5,6021.4,6018.9,6029.6,6041.3,6058.6,6069.6,6097.2,6095.8,6126.4,6142.2,6159.2,6201.3,6219.7,6237.7,6274.8,6286.3,6272.6,6246.7,6221.7,6172.2,6112.4,6065.2,6008.5,5951.8,5890.7,5836.8,5777.3,5736.5,5688.7,5639.8,5584.6,5535,5452.6,5362.1,5268.5,5164.3,5077,5012.9,4954.6,4933.1,4908,4895.6,4883.5,4871.9,4902.8,4930.4,4942.3,4958.6,4974.5,5011.1,5052.5,5060.7,5073.2,5090,5090.5,5099.1,5091,5082.4,5045.1,5037.2,5041.3,5041.6,5037.3,5033.5,5009.2,5005.5,4986,4950.3,4920.5,4871.6,4820.6,4771.4,4694.8,4623.5,4515.1,4368.2,4197.8,3599.7,3392.1,3214.5,3090.2,3341,3245.1,3176.4,3150.3,3131,3126.2,3131,3132.6,3134.2,3131,3139,3142.1,3150.1,3153.3,3154.9,3158.1,2844,2847.3,1587.2,317.4,0,0,0,0,0,0,0,0,0,0,0,0,0,0,0,0,75.5,75.4,75.3,526.1,749.5,746.9,744.7,742.3,738.8,734.3,730.4,726.2,723.1,719.9,717.4,714.8,712.2,710.2,707.9,706.6,705,703.9,702.8,701.7,700.6,699.7,698.6,697.9,696.7,695.5,694.8,693.5,692.1,690.6,688.8,686.9,684.6,682.4,680.5,678.7,676.9,675.2,673.4,671.9,670.5,668.7,667.5,665.7,664.2,662.6,661.2,660.4,659.4,658.3,657.2,656.4,655.3,654.3,653.3,652.2,651,650.1,648.7,648,646.8,645.6,644.6,643.3,642.3,641.2,640.3,639.5,638.4,637.8,637.3,637,636.6,636.4,636.2,636.2,635.8,635.7,635.6,635.7,635.5,635.2,635.1,635.4,635.5,635.6,636.2,636.4,636.9,637.3,637.7,638.5,639.4,639.8,641.1,642.4,644.2,646.2
6172.9,6089.4,6010.5,5935.7,5868,5814.2,5785.2,5781.3,5792.4,5809.2,5802.8,5804.4,5826.1,5844.5,5866.5,5889.5,5892,5910.3,5938.8,5958.1,5979.6,5984.5,6002.4,6027.6,6021.5,6022.5,6046.3,6029.7,6023.1,6016.4,5990.6,5972.4,5932.2,5901.7,5866.8,5848.8,5803.9,5780.8,5763,5746.6,5718.9,5712.9,5701.6,5700.1,5689.1,5684.1,5683.8,5689,5694,5694.6,5679.1,5679.1,4528.6,3937.1,3906.5,3876.5,3828.3,3221.1,3180.2,3127,2549.5,2508.8,2482.1,2447.5,2417.5,1863.1,1379.4,449.5,0,0,0,0,0,0,81.1,81.5,163.9,164,163.9,245.5,326.3,324.8,405.1,403.6,401.6,483.9,732.2,814.3,812.3,809.8,807.3,805.1,803.2,801.1,799.8,798.6,797.5,796.7,796,795.3,795.2,794.4,793.7,793.6,793.2,792.8,792.5,792.2,791.8,791.5,791.2,790.9,790.3,789.8,789.4,788.9,788.8,788.5,788.1,787.8,787.8,787.8,788.3,788.4,788.4,788.8,789.1,789.1,789.3,789.1,789.3,789.4,789.5,789.9,790.4,791.1,791.8,792.9,794.2,795.5,797.1,798.7,799.9,801.5,803.2,805.1,806.5,808.2,809.9,811.9,814.2,816.6,818.9,821.7,824.6,827.9,831.1,834.5,837.5,840.7,843.7,847,849.7,852.6,855.1,857.7,860.6,863.2,865.5,868.6,871.8,698.2,437.8,2246.7,3408.3,3423.3,3433.2,3453.3,3462.5,3470.4,3485.2,3517.3,3444.2,3549.6,3478,3497.2,3505.7,3419.4,3346,3168.5,3161,3148.1,3713.5,3751.3,3757,4363.3,4985.4,6216.1,5649.5,6311.7,6344.8,6344.8,6338.1,6335.4,6313.2,6266.4,6207.6,6194,6200,6186.4,6204.2,6260.3,6254.1,6266.5,6285.2,6311.3,6330.6,6298,6221.8,6146.8,6074.4,6027.2,5947.4,5868.9,5787.5,5715.9,5654.3,5641.2,5636.2,5637.9,5647.1,5671.9,5676.9,5691.4,5710.5,5709,5718.8,5718.5,5707.6,5698.1,5672,5663.8,5658.8,5650,5655.3,5646.9,5641.3,5668.4,5679.8,5690.4,5721.6,5738.4,5765.2,5781,5807.3,5845.6,5894.1,5948.9,5987,6039.2,6048.3,6070.8,6075,6098.3,6085.5,6055.4,6055.4,6026,6038.1,6021.3,6028.3,6012.6,6012.9,6026.5,6057.4,6085.1,6088.6,6066,6083.7,6111.5,6104.9,6134.2,6157.5,6174.3,6172.8,6191.6,6239.8,6250.1,6288.7,6300.8,6318.8,6311.6,6298.5,6259.9,6235,6185.6,6131.5,6073.4,6010.9,5939.4,5883.3,5817.5,5776.4,5713.1,5656.5,5622.3,5567.9,5490.6,5425.1,5329.5,5230.2,5148.2,5069.6,5009,4974.8,4949.2,4931.6,4926.8,4922.3,4934.2,4970.3,4994.7,5023.4,5023.4,5039.8,5093.9,5123.4,5123.4,5136.7,5141.2,5154.3,5154.4,5150.3,5142,5104,5091.8,5095.7,5108.2,5099.8,5082.7,5083.3,5066.8,5042.8,5015.4,4968,4930.1,4867,4794.4,4721.3,4638.5,4517,4364.3,4172.8,3586.9,3376.2,3195.9,3082.6,3331.7,3240.1,3179.5,3145.4,3131,3130.9,3132.5,3137.3,3143.7,3140.5,3146.9,3151.7,3158.1,3164.6,3167.9,2848.8,2853.7,2860.3,634.8,0,0,0,0,0,0,0,0,0,0,0,0,0,0,0,0,75.3,75.5,75.4,301.6,677.1,749.4,746.7,744.4,741.8,738.3,733.9,730,725.9,723.1,720.3,717.7,715.2,713,710.6,708.7,707.1,705.7,704.5,703.5,702.5,701,700.1,699.3,698.2,696.9,696.1,695.2,693.9,692.5,691,688.9,687,684.8,682.6,680.5,678.7,677.1,675.4,673.4,671.9,670.5,668.6,667,665.5,663.8,662.1,660.8,659.9,659.2,657.9,657.2,656,654.9,654,652.6,651.8,650.8,649.7,648.4,647.5,646.5,645.4,644.2,643.2,642.1,641.1,640.2,639.2,638.3,637.5,637,636.6,636.5,636.2,636.1,635.8,635.7,635.7,635.7,635.4,635.2,634.9,635.1,635.2,635.3,635.5,636,636.1,636.6,636.9,637.6,638,639,639.5,640.3,641.8,643.7,645.7
6175.6,6067.2,6002.6,5922.6,5855.1,5809.8,5787.6,5776.8,5788.5,5798.5,5793.9,5821.1,5828.1,5839.9,5874,5873,5889.6,5906.5,5931.7,5953.3,5971.2,5985.6,6002.2,6009.2,6021.4,6040.8,6054.5,6041,6052.5,6040.2,6033.9,6033.3,6009,5985.8,5949.2,5925.4,5901.1,5871,5835.8,5818.1,5784.6,5778,5759.9,5764.8,5737.1,5731.6,5736.8,5726,5731.4,5727,5732.2,5140.3,4549.4,3968.4,3942.3,3906.5,3867,3819,3212.1,3176.2,2592.6,2541.5,2521.7,2481.9,2446.3,1880.7,1393.2,449.5,0,0,0,0,0,0,0,81.5,164.1,164.1,164,245.5,325.5,324.1,404.1,402.7,400.9,399,647,813,810.9,808.9,806.7,804.7,802.5,800.6,799.2,797.9,797,796,795.4,794.6,794,793.6,792.8,792.6,792.4,792.1,791.9,791.4,791.1,790.7,790.4,789.8,789.1,788.7,788.4,788,787.7,787.3,787.1,786.9,786.9,787.3,787.5,787.8,788,788.3,788.6,788.7,788.8,788.9,789.2,789.1,789.3,789.7,790.3,791,791.9,793.2,794.3,795.8,797.4,798.9,800.5,802,803.7,805.1,806.9,808.6,810.4,812.3,814,816.2,818.7,821.7,824.1,827.2,830.3,834.1,836.7,839.9,843.2,846.5,849.4,852.4,855,857.5,860.9,863.4,865.5,868.7,871.6,698.1,437.3,2839.3,3430.5,3452.1,3473.2,3482.9,3503.9,3518.7,3551.3,3493.2,3605.2,3618.9,3548.5,3555.6,3564.3,3492.9,3407.7,3230.2,3238.6,3212,3225.3,3223.9,3783.2,3808.1,5010.3,5049.5,5677.5,6355.6,6390.1,6389.1,6355.2,6339.2,6316.1,6294.4,6241,6195.3,6206.8,6199.4,6229.9,6267.4,6260.4,6273.2,6291.8,6318.1,6324.3,6298.1,6247,6178.4,6104.8,6057,5993.6,5920.8,5837.6,5774.8,5706.7,5693.1,5688,5685.6,5684.6,5699.4,5698.5,5713.8,5718.2,5732.4,5731.1,5726.3,5731.2,5705.8,5690.2,5675.7,5665.2,5661.3,5656.9,5651.4,5668.6,5668.6,5683.9,5720.9,5736.2,5757.9,5779.6,5817.5,5844.7,5877.8,5920.3,5982.8,6022.8,6055.8,6083.7,6118.6,6135.7,6147.1,6140,6109.6,6091.4,6067.4,6055.8,6056.6,6045.4,6047,6048.7,6061.5,6086.6,6114.1,6129.2,6115.9,6122.6,6158.8,6163.7,6187.6,6198.4,6203.3,6221.3,6251.6,6282.8,6307.4,6339.3,6352,6357.6,6357.6,6324.9,6299,6248.1,6200,6121,6056.9,5996.7,5935.6,5865.9,5812.4,5759.6,5699.5,5648.6,5606.9,5551.2,5487.6,5400,5318.5,5221.5,5129.1,5059.2,5010,4983.8,4981,4971.6,4970.4,4974.4,4986.5,5035.7,5068.7,5085.3,5098.2,5115,5158,5179.8,5188.5,5201.7,5201.7,5215.3,5224.3,5206.8,5202.5,5172.6,5159.8,5151,5159.6,5168.4,5163.7,5138.2,5129.7,5096.5,5064.7,5016.1,4970.6,4901,4825.8,4732.6,4635.8,4506.8,4352.8,4163.1,3936.3,3351,3184,3067.5,3319.3,3231.3,3179.5,3150.1,3135.8,3135.7,3143.8,3151.8,3155.1,3156.7,3158.2,3164.7,3174.7,3184.7,2872.3,2877.5,2563.6,2240.9,660.6,0,0,0,0,0,0,0,0,0,0,0,0,0,0,0,0,75.5,75.6,150.6,378.5,602,750,746.5,744.3,741.5,738.2,733.5,729.5,725.6,722.9,720.5,717.8,715.7,713.5,711.5,709.6,708,706.4,705.4,704,702.9,701.8,700.6,699.6,698.9,697.9,696.6,695.8,694.5,692.7,691.1,689,687.1,685,682.9,680.9,679.1,677.4,675.6,673.8,672.1,670.5,668.8,667.1,665.4,663.8,662.1,660.7,659.7,658.9,657.8,656.6,655.6,654.4,653.6,652.2,651.6,650.2,649.3,648,646.9,646.1,644.8,644,642.8,641.9,640.6,639.9,639,638,637.4,636.7,636.5,636.2,635.9,635.8,635.4,635.1,635,634.9,635,634.9,634.8,634.9,635,635.3,635.4,635.9,636,636.3,636.8,637.4,637.9,638.6,639.4,640.1,641.3,643,644.6
6168.2,6094.5,6000.4,5918.2,5868.3,5823.2,5795,5806,5801.4,5812.9,5807.1,5834.6,5846.4,5858.4,5886.9,5892.7,5891,5891.7,5931.9,5944.7,5975.4,5983.7,5988.9,6004.1,6023.5,6047.6,6050.4,6048,6064.9,6066.2,6071.4,6078.7,6042.8,6035.2,6036.7,6005.9,5988.5,5949.3,5908,5871.3,5846.8,5834.4,5827.3,5809.3,5791.3,5769.6,5768.9,5769.1,5758.3,5780.2,5758.7,5172.7,4591.2,3994.3,3968.4,3942.3,3901.7,3862.4,3258.7,3216.7,2631.7,2588.5,2554.5,2521.6,2488.7,1913.9,1418.4,449.5,0,0,0,0,0,0,0,0,81.7,81.8,81.6,163.3,243.7,323,322,401.8,400.1,398.4,562.2,727.3,809.3,807.8,806,804,802,800.1,798.9,797.7,796.3,795.4,794.6,794,793.6,793.2,792.5,792,791.6,791.3,791.2,790.6,790.2,789.5,789.3,788.9,788,787.7,787.4,787,786.5,786.6,785.9,786,786,786.2,786.4,786.7,787,787.6,788.1,788.3,788.7,788.6,788.9,789.3,789.2,789.7,790.4,790.9,792,793.2,794.6,796.1,798.2,799.5,801,802.4,804.3,805.5,807.3,808.7,810.5,812.3,814.3,816.4,818.9,821.6,824.1,827.2,830.2,833.2,836.3,839.7,842.9,845.8,849.1,852.1,854.8,857.3,860.6,863.5,865.9,868.4,871.9,786.7,436.7,2850,3458.7,3474.1,3496.5,3512.2,3528.2,3554.8,3582.4,3537.9,3650.8,3671.8,3601.1,3622.4,3651.9,3574.1,3491.3,3313.8,3314.5,3323.9,3325.2,3332.7,3353.9,3940.8,3946.9,5806.6,5837.4,5836.4,6520.5,6475.2,6443.2,6397.7,6351.4,6322.5,6274.5,6222.8,6221.2,6225.4,6236.8,6280.6,6280.6,6292.9,6299.3,6331.5,6344.8,6318.5,6254.2,6204,6135.5,6087.8,6035.2,5954.2,5888.8,5812.1,5751,5731.8,5727.8,5718.5,5730,5727.8,5727.5,5732.8,5735.9,5741.8,5750.2,5750.5,5733.9,5720.1,5702.7,5692.1,5678.7,5682.3,5678,5668,5668.2,5679.6,5704.7,5741.2,5763,5799.4,5832.6,5843,5882.4,5927,5976.6,6029.2,6075,6127.5,6150.2,6185.6,6203.3,6202.5,6196,6158.7,6134.2,6122,6097.8,6092.3,6069.7,6076.8,6059.4,6078.6,6103.4,6135.5,6144.4,6138.6,6168.5,6191.5,6210.6,6241.7,6233.8,6264.4,6277.2,6307.8,6339.6,6352.2,6390.8,6397.4,6396.7,6383.6,6344.7,6312.2,6249.2,6187.9,6117.6,6047.9,5977.6,5929.1,5863.7,5812.2,5754.9,5705.3,5638.6,5599,5545.4,5478.9,5385.4,5302.8,5212.8,5121.4,5055.2,5026.2,5007.5,5005.1,5007.6,5015.2,5027.5,5056.4,5101.9,5149.2,5166.6,5179.7,5179.7,5232.4,5250,5254.6,5254.8,5264.1,5273.3,5269,5282.6,5265.1,5229.6,5225.3,5225.1,5225.7,5229.5,5212.1,5207.4,5181.6,5160.8,5114.8,5074.7,4994.7,4932.1,4847.2,4745.7,4656.7,4503.7,4334.2,4145,3535.1,3710.3,3543.3,3414.1,3310.3,3231.4,3176.3,3148.5,3138.9,3143.7,3151.8,3159.9,3168,3174.5,3196.1,3223,3248.5,3275,3290.9,2664.1,2018.6,1344.7,336.5,0,0,0,0,0,0,0,0,0,0,0,0,0,0,0,0,75.6,227.1,227.7,378.7,678.1,750.1,746.6,744.1,741.4,737.9,733,729.2,725.2,722.8,720.6,718.5,716.3,714,712.2,710.4,708.6,707.4,706.1,704.7,703.6,702.5,701.4,700.2,699.3,698.7,697.5,696.2,694.7,693,691.4,689.6,687.6,685.4,683.4,681.3,679.6,677.8,676.2,673.9,672.4,670.9,668.9,667.3,665.4,663.8,662.1,660.7,659.9,658.7,657.8,656.5,655.1,654.1,653.2,651.9,651,649.7,648.6,647.6,646.6,645.8,644.3,643.6,642.4,641.4,640.3,639.5,638.6,637.6,637.1,636.4,636.3,635.7,635.6,635.4,634.9,634.8,634.8,634.9,634.9,635,634.8,634.8,634.9,635.1,635.3,635.9,636,636.2,636.3,637.4,637.7,638.2,639,639.6,641,642,643.9
6185.4,6105,6009.4,5934.4,5887.8,5854.3,5832.8,5826.7,5843.2,5854.3,5854.3,5870.4,5887.8,5894.5,5893.3,5893.5,5893.5,5899.1,5911.5,5930.2,5949.4,5952,5972,5974,5998.9,6011.3,6012.8,6037.3,6066.2,6078.9,6084.4,6084.7,6103.9,6086.7,6093.4,6062.5,6055,6023.2,5980.4,5949.8,5918.1,5893.7,5873.4,5843.6,5835.9,5823.9,5812.8,5801.6,5801.6,5795.8,5785.3,5780.3,5188.3,4595.9,3999.5,3967.8,3941.5,3341.5,3301.3,3258,2675.8,2630.9,2605.3,2015.1,1982.7,1955.6,963.1,0,0,430.6,0,0,0,0,0,0,0,0,81.6,243,243.1,322.1,321.1,319.8,400.6,479.7,477.9,725.9,808.3,806.8,805.1,803.2,801.4,799.7,798.3,797.1,795.7,794.8,794.1,793.8,793.2,792.6,792,791.5,791.4,790.8,790.3,789.9,789.1,788.7,788,787.6,786.8,786.4,786.2,785.8,785.4,785.5,785.1,784.9,784.9,785.2,785.3,785.8,786.3,786.9,787.4,787.9,788.2,788.4,788.6,789,789.1,789.6,790.1,790.9,792,793.5,795.1,796.8,798.4,799.9,801.7,802.8,804.6,806,807.5,808.8,810.4,812.1,814.1,816.3,818.8,821.5,824,827.1,830.1,833.2,836.1,839.4,842.6,845.7,848.8,851.5,854.8,857.4,860.8,863.7,866,868.6,872,875.2,525.4,2268.7,3481,3497,3513.5,3529.1,3551.4,3592,3613.5,3648,3696.8,3711.3,3641,3670.5,3700.8,3639.9,3562.6,3492.1,3398.1,3401.2,3403.6,3414.1,3402.3,3426.9,4662.3,5870.7,5883.5,5875.9,5863.3,5845.7,6478.2,6438.6,6405.5,6374,6357.6,6326.4,6325.4,6343.2,6355,6352.8,6372.1,6371.9,6364.8,6405.7,6398.8,6372.4,6312.9,6247.8,6185.4,6142.5,6088.4,6007,5933.5,5856.5,5805.6,5786.6,5782.8,5769.5,5765.6,5764.7,5778.5,5756.4,5756.1,5755.6,5737.1,5743.1,5741.9,5710.2,5706.3,5704.2,5684.3,5700.1,5694.2,5693.1,5687.4,5709.4,5740.6,5771.7,5804,5842.4,5875.2,5908,5941.7,5982.2,6039.9,6080.6,6133.3,6193.2,6223.5,6235.3,6253.4,6259.1,6258.8,6221,6189.8,6165.1,6147,6117.1,6093.5,6093.8,6082.6,6089.1,6120.2,6151.8,6171.2,6165.7,6196.3,6214.4,6245.4,6250.9,6276.2,6295.1,6313.2,6352.4,6371.7,6411,6437.2,6450.5,6416.9,6416.5,6344.7,6293.8,6250.4,6176.8,6101.1,6032.8,5955.2,5902.5,5834.4,5789.6,5734.8,5690.5,5624.8,5582.6,5525.3,5470.6,5367.2,5281.4,5208.5,5121.9,5050.2,5026.3,5027.8,5033.7,5036.4,5064.8,5081.2,5119.1,5184,5223.6,5254.4,5268,5263.6,5300.1,5300.1,5309.3,5309.5,5309.7,5328.1,5323.8,5328.6,5324,5288,5279.1,5288.5,5292.8,5292.7,5283.5,5252.3,5239.4,5208.8,5157.5,5103.9,5027.1,4952.5,4861.5,4748.9,4658.8,4502.7,4305.3,4117.4,3507.9,3682.8,3524.4,3393.3,3294.3,3224.7,3176.1,3156.7,3153.5,3158.3,3171.2,3195.9,3228,3257,3307.7,3367.5,3420,3468.6,3168.1,2511.5,2533.1,351.9,358,0,0,0,0,0,0,0,0,0,0,0,0,0,0,0,0,75.6,152.1,76.2,455,754,749.9,746.6,743.8,741,737.6,732.5,728.7,725,722.7,720.7,718.9,717,714.6,712.8,711.3,709.6,708.2,707,705.7,704.3,703.2,702.2,700.9,700,699.2,698.1,696.8,695.4,693.8,691.8,690,688.2,686.2,683.7,681.6,680,678.5,676.5,674.7,672.8,671.1,669.5,667.4,665.6,663.8,662.2,660.6,659.7,658.5,657.4,656.2,655,653.7,652.7,651.5,650.7,649.4,648.4,647.3,646.2,645.1,643.8,643.1,641.8,641,639.9,639.1,638.3,637.2,637,636.3,636.2,635.7,635.7,635.1,634.9,634.8,634.8,634.7,634.9,634.9,634.8,634.7,634.9,635.1,635.3,635.8,636,636.2,636.5,637,637.6,637.9,638.6,639.5,640.4,641.5,643
6207.5,6108.8,6037.6,5961.2,5931.6,5903.8,5886.5,5886.9,5897.7,5904.6,5903.5,5926.4,5938.3,5932.5,5925.6,5925.8,5909,5909.4,5926.9,5929.2,5937.2,5939.2,5959.3,5966.9,5991.8,5987.4,5996.5,6025.6,6035.2,6072.5,6093.3,6098.4,6122.5,6132.4,6126.8,6135,6121,6080.4,6049.3,6010.2,5966.9,5935.7,5908.9,5883.1,5859.1,5841.1,5830,5823.3,5823.6,5817.8,5807.1,5806.6,5796.1,4633.8,4026,4009.6,3982.7,3376.7,3351.1,3311.1,3267.4,2690.1,2087.8,2057.2,2027.8,1498.6,0,0,0,0,0,0,0,0,0,0,0,0,81.3,80.9,242.3,320.7,401,400.9,480.5,561.7,560.1,808.5,806.8,805.2,803.8,802,800.6,799.1,797.6,796.2,795.2,794.4,793.6,793.3,792.7,792.1,791.7,791.2,790.8,790.4,789.7,789.2,788.5,787.8,787.2,786.5,785.8,785.3,785.3,784.7,784.4,784.3,784,784.1,784.2,784.2,784.6,785.2,785.7,786.2,786.6,787.1,787.9,788,788.5,788.6,788.9,789.4,790.2,791.2,792,793.4,795.3,796.8,798.5,800.3,801.8,803.2,804.9,806,807.9,809.3,810.7,812.6,814.2,816.4,818.9,821.6,824.1,826.9,830.2,833,836.1,839.3,842.3,845,848.2,851.2,854.6,857,860.5,863.4,865.9,868.2,871.5,874.7,524.4,2280,3497.2,3526.1,3536.2,3552.5,3581.1,3609.6,3632.1,3674.1,3702.6,3738.5,3669.1,3706.1,3645.1,3661.6,3608.5,3528.9,3438.1,3439.3,3441.7,3440.4,3440.9,3443,3450.8,4698.4,5266.2,5270.9,5262.8,5872.8,6526.4,6485,6437.7,6425.6,6408.7,6404.1,6407.1,6417.9,6436.5,6434.9,6454.5,6447.3,6447.2,6461,6467.4,6420,6385.5,6325.9,6254.7,6191.9,6119.4,6042.9,5969.9,5904,5845.4,5826.4,5807.2,5783.8,5777.8,5789.3,5781.9,5764.3,5775.7,5775.3,5751.1,5755.3,5743.3,5733.5,5704.8,5700.5,5694.6,5698.8,5704.1,5714.3,5707.9,5739.7,5765.8,5808.4,5846.3,5890.5,5924.7,5964.4,5992.9,6050.6,6103.9,6145.4,6206.2,6249.4,6279.8,6311.7,6324.4,6330,6323.6,6285.3,6246.8,6209.5,6191,6172.4,6130.9,6124.5,6107.1,6125.3,6143.9,6175.4,6182.4,6176,6200.3,6237.7,6249.5,6287.7,6307.1,6319.6,6365.2,6397.5,6410.6,6457,6477.3,6463.1,6443,6423.2,6364.6,6314,6226.5,6184.7,6090.8,6022.7,5954.1,5894.6,5836.2,5795.3,5732.8,5680.3,5625.9,5571.7,5521.9,5445.1,5366,5278.5,5189.1,5099.3,5052.6,5029.6,5027.4,5045.6,5061.1,5094.1,5132,5184,5254.2,5304.4,5341.3,5346.1,5341.5,5360.1,5360.1,5364.8,5369.5,5360.3,5370.1,5365.7,5375.3,5370.8,5347.4,5338.4,5348.4,5348.3,5338.8,5343.4,5315.9,5288.7,5248.8,5183.9,5138.1,5047.3,4964,4868,4753.7,4647.2,4480.6,4270.3,3699,3100.6,3650.6,3501.7,3374.1,3285.3,3221.1,3179.5,3158.3,3155.1,3164.9,3199.3,3248.4,3316.6,3376.7,3464,3566.1,1828.9,366.6,0,0,1159.9,1162.1,0,0,0,0,0,0,0,0,0,0,0,0,0,0,0,0,0,75.7,76.1,76.3,227.7,602.7,749.9,746.1,743.4,740.6,737.3,732.4,728.2,724.9,722.7,720.7,719.3,717.3,715.4,713.8,712.2,710.5,708.9,707.9,706.6,705,703.9,702.8,701.7,700.6,699.6,698.7,697.4,695.7,693.8,691.9,690.2,688.2,686.3,683.8,681.9,680.3,678.5,676.9,674.9,673,671.6,669.8,667.7,665.7,664,662.3,660.6,659.5,658.2,657.1,655.8,654.9,653.5,652.4,651.2,650.2,649.3,648,647.1,646,644.5,643.5,642.4,641.4,640.4,639.5,638.6,637.9,637,636.9,636.4,636.3,635.9,635.6,635.2,634.9,634.8,634.8,634.8,635,634.9,634.8,634.9,635.1,635.1,635.3,635.8,635.7,636.1,636.3,636.9,637.4,637.4,638.2,639.1,639.8,641.2,642.2
6237.8,6138.6,6072.3,6000.8,5960.1,5936.5,5936.8,5942.9,5949.1,5949.3,5949.2,5977.4,5977.3,5988.4,5970.6,5976.4,5965.4,5948.8,5938.6,5946.1,5960,5968.3,5958,5978.9,5973.7,5987.5,6006.4,6024.4,6067.5,6095.7,6103.1,6122.6,6138,6144.1,6159.7,6173.6,6154.1,6128.5,6081.7,6061.1,5993.9,5967.7,5956.2,5907.8,5876.2,5857.8,5852.2,5830,5839.6,5833.9,5834.2,5823.1,5247.6,4661.4,4058,4041.5,4009.7,3428.9,3397,3360.9,2781.3,2737.4,2128.3,2105.6,2079.2,1544.5,513.2,978.5,463,449.5,0,0,0,0,0,0,0,0,0,0,0,160.5,319.7,399.6,479.6,560.7,559.4,723.4,805.3,803.8,803,801.4,800,798.4,797.2,796.3,795.3,794.2,793.6,792.9,792.2,791.8,791.3,790.8,790.1,789.6,789.1,788.5,787.9,787.1,786.4,785.8,785.2,784.5,784.2,784.1,783.9,784,783.6,783.5,783.5,783.7,784.2,784.7,785.2,786,786.5,787,787.5,788.1,788.4,788.4,788.7,789.4,790.2,790.8,792.1,793.4,795,796.7,798.7,800.6,801.9,803.3,805,806.6,808,809.2,811,812.5,814.6,816.4,819,821.8,824.3,827.3,830,833.2,835.8,839.4,842.1,844.5,847.8,850.7,854,856.5,860,862.9,865.6,868,871.1,786.3,523.4,2894.5,3514.1,3536.6,3565.6,3569.7,3592.5,3614.1,3643.3,3679.3,3722.2,3667.1,3704.3,3719.9,3659.4,3684,3529.4,3458.3,3467.9,3470.3,3457.2,3476,3468,3469.4,3476.6,3483.6,4702.7,5270.8,5260.3,5886.8,5833,6454.3,6437.9,6429.6,6411.8,6413.2,6434.9,6452.2,6457.5,6462.7,6495.7,6488.8,6481.9,6481.9,6495,6473.7,6419.7,6358.6,6306.2,6236.3,6155.7,6096.3,6027.5,5956.3,5901.8,5870.8,5846.3,5816.2,5807,5810.5,5815.1,5800,5783,5792.7,5771,5779.4,5756.2,5748.5,5726.7,5730.6,5724.9,5719.7,5734.6,5733.1,5738.3,5770.8,5823.9,5850.5,5905.5,5933.7,5991.7,6038.4,6079.1,6121.6,6169,6230.8,6267.8,6312.4,6350.5,6370.3,6383.4,6382.6,6369.8,6337.4,6305.2,6254.2,6242,6198,6168.2,6155.6,6125.4,6138,6161.9,6186.4,6199.1,6204.8,6230.7,6267.6,6293.1,6305.9,6344.5,6370.9,6396.9,6430.3,6470.7,6490.6,6504.2,6503.7,6463.1,6436.8,6371.3,6301.6,6220.8,6148.3,6072.8,5995.8,5930.7,5873.5,5804.1,5779.3,5713.3,5670,5606.6,5544.8,5490.5,5420.9,5343.5,5256.4,5155.8,5091.5,5051.2,5027.7,5025.8,5049.3,5090,5123.7,5183.9,5245.6,5327.4,5383.4,5416.5,5421.3,5426.1,5435.9,5431.2,5416.9,5421.5,5412.3,5412.4,5407.8,5417.4,5412.9,5408.9,5404.2,5404.5,5404.4,5404.1,5385.3,5362.5,5321,5280.8,5218.9,5146.9,5068.4,4971.3,4875,4767.8,4649.1,4478.2,4260.4,3657.5,2684.8,3266,3481.6,3364.8,3282,3219.6,3184.5,3168,3166.4,3196,3253.4,3341.8,3440.8,3195.9,2581.6,2307.3,0,0,0,870.5,1319.9,1306.6,0,0,0,0,0,0,0,0,0,0,0,0,0,0,0,0,0,75.7,380.4,76.5,227.1,678.5,749.9,746.3,743.4,740.5,737,732.3,727.9,724.8,722.7,720.8,719.2,717.4,716,714.5,713,711.4,709.8,708.6,707.2,706,704.7,703.4,702.5,701.2,700.3,699.2,697.8,696.2,693.9,692.3,690.4,688.7,686.4,684.1,681.9,680.3,678.5,676.8,674.9,673,671.7,670.2,667.9,666.1,664.1,662.5,660.7,659.4,657.9,656.7,655.5,654.2,653.3,652,651,649.9,649.1,647.9,646.9,645.8,644.2,643.3,642.2,641.3,640.3,639.3,638.4,637.6,637,636.9,636.4,636.3,635.9,635.6,635.3,635,634.8,634.9,634.8,634.8,634.8,634.9,634.8,635.2,635.3,635.4,635.8,635.9,636,636.3,636.9,637.3,637.5,638.1,639,639.6,640.8,641.9
6263.6,6187.9,6107.8,6053.7,6024.1,6012,5995.3,6000.5,6012.4,6024,6030.3,6040.7,6059.1,6046.8,6047.2,6035.5,6024.7,5995.9,5985,5986.3,5977.3,5978.6,5986.4,5987.8,5994.9,6008.2,6021.8,6050.9,6064.2,6088,6109.5,6140.4,6151.7,6158.1,6173.6,6196.3,6182.3,6163,6117.2,6072.3,6042.9,5999.1,5970,5931.4,5899.5,5870.1,5852.4,5846.2,5840.1,5845.5,5834.3,5264.6,5253.2,5247.4,4079.5,4046.7,3465.1,3454.4,3432.8,3406.8,2810.8,2204.4,2190,2166,2138.1,1589.1,1022.6,488.7,477.4,463,0,0,0,0,0,0,0,0,0,0,78.1,239.5,479.9,479.3,478.7,559.9,641.5,640.6,639.8,720.6,719.6,800.8,799.4,798.2,797.1,796,795,794.2,793.3,792.8,791.9,791.4,790.9,790.1,789.7,789.1,788.4,787.7,787.1,786.3,785.7,785.2,784.6,784.2,783.8,783.8,783.7,783.6,783.5,783.1,783.2,783.7,783.9,784.5,785,785.5,786,786.8,787.3,788,788,788.3,788.8,789.4,790.2,791,792,793.6,795.2,797,798.7,800.6,802.2,803.6,805.1,806.8,808.3,809.7,811.3,812.9,814.7,816.9,819.2,822.3,824.8,827,830.1,833.1,835.8,838.8,841.6,844.1,847.2,850,853.4,856.3,859.7,862.5,865,867.7,870.7,785.7,522,2905.7,3530.8,3553.2,3570,3586.7,3609.5,3625.4,3654.7,3493.2,3727.9,3673.1,3709.4,3641.3,3571.2,3698.9,3446.8,3474.2,3476.2,3477.2,3464,3457.3,3458.4,3474.6,3457.7,3460.1,4686.8,4683.4,5224.4,5849.7,5820.9,5809,6422.3,6405.9,6405.1,6426.4,6409.1,6446.9,6458,6483.7,6496.7,6502.7,6502.7,6494.8,6494.8,6479.5,6439.7,6392.8,6339.5,6262.2,6193.7,6127.7,6047.2,5979.3,5927.4,5883.9,5854.2,5852.2,5831.7,5828.4,5830,5817.4,5815.4,5805.2,5802.7,5790.2,5783.8,5776.8,5769.7,5752.9,5757,5756.9,5760.6,5770.4,5775.9,5808.3,5867.5,5922.9,5973.3,6014.2,6060.3,6114.7,6156.8,6206.1,6262.4,6306.3,6358,6390.3,6416.9,6436.5,6437.2,6423.9,6436.9,6390.9,6345.8,6313.1,6281.7,6250,6206.3,6188.5,6169.1,6163,6187.1,6212.4,6223.9,6236.2,6267.5,6286.1,6325.1,6344.1,6376.4,6423.3,6436.3,6469.8,6504,6531.2,6524,6510.4,6469.8,6443.3,6371.3,6289.9,6228,6150.9,6045.4,5989.6,5919.8,5874.3,5819.3,5761.9,5703.4,5646.6,5584.3,5535.9,5466.2,5387.3,5310.6,5220.3,5142.9,5085.5,5040.6,5018.5,5033.5,5052.8,5089.8,5140.8,5205.9,5272.4,5346,5392.8,5435.7,5445.5,5435.9,5435.9,5426.4,5417.1,5417.2,5417.2,5422.2,5427.2,5441.2,5446.4,5447.2,5442.4,5442.4,5442.7,5433.2,5428.2,5390.6,5358.2,5303.8,5237.3,5156.2,5064.5,4980,4871.4,4761.7,4636.7,4446.2,4231.6,4023.4,2672.5,3253,3467.5,3355.5,3273.4,3219.6,3187.7,3172.9,3191,3255.2,3341.9,3465.8,3614.4,3407.7,0,0,433.7,1361.9,3692.3,4714.8,3322.9,1474,0,0,0,0,0,0,0,0,0,0,0,0,0,0,0,0,0,0,0,0,151.2,527,675,746.7,744.1,666.6,589.3,732.5,728.1,725.1,722.9,721.3,719.8,718.3,716.6,715.1,713.7,712,710.5,709.2,707.7,706.7,705.3,704.2,703.1,701.9,701,699.7,698.2,696.6,694.4,692.4,690.5,688.5,686.5,683.8,682,680.3,678.4,676.9,675,673.1,671.9,670.2,668.3,666.5,664.5,662.6,661.1,659.6,658,656.7,655.4,654.1,652.9,651.8,651,649.6,649,647.8,646.7,645.7,644,643.1,642,641.2,640.1,639.2,638.4,637.7,637.2,636.7,636.5,636.3,636.1,635.6,635.6,635.3,635.2,635.3,635.3,635.3,635,635.1,635.3,635.4,635.6,635.7,635.9,635.9,636.1,636.7,636.9,637.3,637.4,637.8,638.9,639.3,640.3,641.4
6301.2,6219.1,6150.1,6084.4,6065.9,6041.7,6048.1,6060.5,6072.8,6084,6095.6,6107,6113.2,6114.1,6096.2,6097,6068,6050.3,6039.4,6028.4,6023.3,6013.4,6007.4,6009.1,6003.2,5997.5,6011.7,6034.7,6067.7,6088.5,6127.8,6141.9,6174.3,6197.2,6194.7,6222.5,6210.2,6201.1,6154.8,6109.1,6076,6029.4,5990,5954.6,5922.7,5892.7,5858.5,5857.6,5862.3,5851.4,5275.9,5270.7,4694.7,4091.3,4085.5,4068.3,3498,3486.9,3465.1,2883.9,2852,2249.8,2229.4,1664.8,1649.8,1071.1,1053,0,0,473.7,0,0,0,0,0,0,0,0,0,0,160,317.5,478.6,478.6,559.8,559.1,641,640.3,721.8,720.6,719.6,718.5,799,797.8,796.9,795.7,794.8,793.9,792.6,792.3,791.9,791.4,790.8,789.8,789.2,788.7,788.1,787.3,786.6,785.9,785.1,784.5,784,783.8,783.5,783.7,783.6,783.4,783.2,783.1,783.2,783.6,783.9,784.3,784.8,785.3,785.8,786.6,787.2,787.6,788.1,788.3,788.6,789.5,790.1,791.1,792.1,793.4,795.3,797,798.8,800.8,801.8,803.6,805.3,806.9,808.3,809.6,811.2,812.9,814.5,816.8,819.1,821.8,824.7,827.2,830.3,833.2,835.5,838.3,840.8,843.5,846.4,849.3,852.5,855.6,859.4,862.1,865,868,871.1,696.9,520.9,2916.4,3547.5,3563.6,3490,3505.6,3521.8,3447.1,3469.1,3498.2,3542,3485.8,3506.9,3435.2,3466.2,3492.9,3422.3,3440.1,3432.7,3435.2,3437.4,3424.4,4094.8,4080.1,4653,4648.3,4649,5780.8,5788.4,5781.1,5759.4,6351.1,6357.1,6356.5,6371.6,6386.7,6396.3,6439,6451.9,6464.2,6483.3,6495.4,6502.5,6502.3,6507.8,6500.5,6465.3,6411.9,6352.4,6281.9,6200.6,6135.6,6066.6,5988.6,5941.1,5897.5,5873.4,5860,5834,5855.7,5848.4,5853.2,5841,5839.4,5833.4,5824.8,5827.9,5809.1,5797.4,5801.4,5794.6,5789.1,5788.3,5803.4,5818.2,5856.8,5912.5,5963,6032.1,6096.1,6126.2,6199.4,6249.2,6286.8,6318.9,6377.3,6409.8,6457,6470.3,6477,6490.7,6485,6478.4,6431.6,6405.9,6374.3,6355.3,6315.5,6273,6234,6233.7,6215,6226,6244,6262.2,6280.3,6293.2,6318.1,6370.4,6396.3,6409.5,6456.3,6469.8,6517.1,6538.1,6545,6537.8,6537.6,6483.1,6443.3,6371.6,6289.5,6209.7,6131.2,6056.4,5997.2,5948.6,5877.2,5823.1,5765.8,5717.2,5661,5592.8,5527.7,5457.1,5364,5282.5,5212.6,5135.3,5070.4,5035.1,5009.3,5012.3,5056.6,5098,5144.9,5210.3,5272.4,5355.6,5397.7,5431.1,5435.9,5440.9,5436.3,5436.4,5426.7,5422,5422,5431.8,5436.7,5456.2,5470.8,5466.2,5476.1,5466.9,5462.1,5457.4,5433.2,5405.1,5363.7,5300.7,5248.1,5157.4,5050.6,4954.9,4866.3,4732.7,4621.4,4434.5,4210,3998.6,3037.6,3595.3,3459.3,3349.9,3274.9,3226.5,3207.6,3216,3265.6,3356.7,3487.5,3666,3888.3,0,439.9,4648.6,4827,4996.6,5156.4,4733,3721.3,549.8,0,0,0,0,0,0,0,0,0,0,0,0,0,0,0,0,0,0,0,0,0,679.3,675.8,747.5,745,742.3,738.3,733.5,729.6,726,724.1,722.1,720.4,719,717.2,715.5,713.9,712.5,710.8,709.8,708.4,707.3,705.9,704.7,703.5,702.4,701.6,700.2,698.8,697,694.6,692.7,690.6,688.4,686.4,683.7,681.8,679.9,678.2,676.7,674.9,673.2,671.9,670.3,668.3,666.6,664.6,662.7,661.2,659.6,658.1,656.7,655.3,654,652.8,651.5,650.7,649.6,648.7,647.9,646.4,645.4,643.6,642.9,641.7,641.1,640.2,639.2,638.6,637.7,637.3,636.9,636.6,636.6,636.2,635.8,635.6,635.5,635.5,635.3,635.2,635.1,635.2,635.3,635.3,635.6,635.8,635.9,636,636.1,636.5,636.8,637.2,637.3,637.5,637.9,638.5,639.4,640.2,640.9
6340.5,6256.8,6188.5,6133.6,6114,6091,6092.8,6103.1,6133.3,6152.4,6171,6163.9,6170.7,6160,6154.7,6150.3,6126.1,6109.2,6096.9,6066.6,6061.1,6048.7,6036.4,6029.9,6023.1,6023.4,6020.4,6039.6,6077.8,6093.5,6107.4,6142.7,6188.6,6205.1,6209.1,6237.3,6244.8,6224.2,6190,6136.2,6102.1,6056.7,6003.4,5978.4,5379.8,5343.8,5310.5,5304.8,5276.3,5276.5,5266,4108.6,4103.4,4102.6,4086,4080.8,3514.9,3497.7,2927.4,2916.3,2900,2297.2,2286.5,1711,1695.6,1099.6,1080.5,0,508.9,496.6,0,0,0,0,0,0,76.3,76.7,77.2,160.4,315.5,394.3,476.9,477.2,559.2,558.6,640.6,640.1,639.6,721.3,801.7,800.4,799.2,797.8,796.8,795.8,794.8,793.9,792.8,792.3,791.6,791.2,790.3,789.5,788.9,788.3,787.7,786.9,786,785.2,784.7,784,783.5,783.3,783.3,783.1,783.2,783.4,783.1,783.2,783.3,783.5,784.1,784.1,784.8,785.3,785.5,786.2,786.9,787.5,788.1,788.3,788.5,789.4,790,791.2,792.3,793.5,795.2,797.1,798.7,800.4,801.9,803.6,805.3,806.7,807.9,809.6,811,812.8,814.5,816.9,819.3,822.3,825,827.7,830.5,833.1,835.6,837.8,840.3,842.9,845.8,848.7,851.8,855,859.2,862.4,865.2,868.5,871.7,607.2,520,2921.1,3552,3567.4,3500.8,3509.6,3423.1,3451.6,3467.1,3496.4,3433.7,3461.4,3304.5,3411.6,3521.6,3365.5,3381.5,3383.2,3385.1,4041.7,4031,4666.5,4649.4,4631.6,4598.7,5207.5,5175.8,5173,5706.6,5712.3,6280.4,6288.7,6270.8,6311.8,6319.7,6349.1,6389.1,6405.2,6432.8,6463.7,6483.3,6490.2,6495.1,6516,6494.3,6507.1,6465.3,6425.2,6372.5,6307.6,6219.7,6154.8,6062.2,6006.6,5936.7,5911.8,5893.9,5876.9,5852.3,5862.4,5867.8,5848,5860,5844.8,5848.5,5851.9,5842.9,5838.2,5829.3,5840,5833.4,5832,5848.1,5863.4,5863.6,5917.4,5974.1,6043,6090.9,6163,6212.2,6281.3,6339,6384.7,6411.1,6449.9,6477.1,6511,6532.2,6539.1,6533,6533.7,6513.9,6501.2,6468.5,6435.4,6403.6,6377.8,6345.5,6305.5,6286.8,6292.6,6304.4,6310.1,6334.6,6339.3,6357.6,6390.5,6410.4,6443.1,6470.1,6497.1,6537.8,6559,6580.3,6587.2,6565.8,6537.6,6483.3,6430.1,6352.1,6269.7,6198.1,6138.2,6056.8,6000.5,5945.5,5880.8,5832.4,5778.8,5719.2,5645.7,5594,5509.1,5428.1,5364.7,5296.3,5199.6,5128.2,5067.5,5033.5,5000.2,5015.5,5052.1,5085.3,5140.8,5205.9,5272.8,5351.4,5388.6,5426.9,5431.9,5431.9,5431.9,5422,5417.4,5412.7,5412.7,5441.5,5441.7,5465.6,5470.6,5466,5470.9,5476.5,5462,5452.4,5424.2,5391.5,5350.5,5274.3,5209.3,5125.2,5015.8,4925.3,4830.2,4709.3,4596.2,4412.8,4190.1,3566,2266.5,3586.7,3451.3,3348.1,3275.3,3255.4,3264,3299,3380.3,3507.4,3694.8,0,0,0,4903.3,5188.9,5422.2,5631.3,5839.8,5337.9,2986,0,0,0,0,0,0,0,0,0,0,0,0,0,0,0,0,0,0,0,0,0,0,529,752.4,748.8,746.3,743.8,739.6,735.3,731.1,728.1,725.3,723.5,721.6,719.7,717.9,715.9,714.4,712.9,711.1,710,708.7,707.4,706.4,705.2,703.9,702.9,701.6,700.6,699.1,697,694.7,692.7,690.6,688.4,686.2,683.6,681.3,679.6,678.1,676.2,674.8,673.2,671.9,670.4,668.3,666.7,664.5,662.6,661,659.2,657.8,656.6,655,654,652.7,651.5,650.6,649.4,648.6,647.7,646.3,645.2,643.6,642.8,641.8,640.9,640.1,639.3,638.7,638,637.4,637.2,636.8,636.6,636.6,636.3,636,635.8,635.8,635.3,635.2,635.2,635.3,635.6,635.8,636,636,636.2,636.4,636.4,636.7,637.1,637.2,637.5,637.7,638,638.6,639.4,639.8,640.3
6373.6,6309.6,6239.6,6190.3,6165.5,6160.4,6166.5,6171.7,6216.2,6217.7,6236.5,6243.6,6250.7,6245.9,6247.2,6236.5,6200.5,6174.5,6145,6119.8,6100.4,6080.3,6066.2,6041.7,6038.9,6033.1,6035.2,6054.8,6083.1,6116.5,6140.7,6169.1,6188.8,6217.1,6217.5,6244.2,6240.8,6219.9,6192.9,6176.5,6132.7,5561.6,5504.6,5465.3,5415.2,5363,5340.4,5306.2,5289.8,5278.4,4718.3,4121.5,4116.5,4104.4,4093.6,4083,3531.4,2961.2,2949.9,2944.3,2340.7,2335.1,2324.3,1738.1,1716.5,1119.6,1099.8,530.9,517.5,0,0,0,0,0,0,0,151.5,228.6,313.5,314.6,391.7,474.7,475.3,475.8,558.2,558.1,640.5,640,639.7,803.1,801.6,800.4,799.2,797.9,797,795.8,794.8,793.9,793.1,792.5,792.1,791.5,790.7,789.9,789,788.1,787.4,786.6,785.5,784.8,784.3,783.4,783.3,782.8,782.9,783,783.1,783,783.1,783,783.3,783.8,784,784.3,784.6,785,785.4,786.4,786.8,787.5,787.9,788.3,788.8,789.6,790.2,791.3,792.5,793.8,795.3,797.1,798.9,800.7,801.9,803.2,805.1,806.3,807.5,809.1,810.6,812.4,814.3,816.8,819.5,822.4,825.3,827.6,830.6,833.1,835.2,837.6,839.9,842.4,845.1,848.3,851.5,855,859.4,862.8,865.9,869,872,696.5,430.1,2926.6,3476.1,3490.8,3505.6,3514.2,3434.6,3456,3471.4,3312,3339.9,3254.8,3282.8,3290,4038,3953.3,3975.4,3991.3,3985.7,3966.3,4551.2,5631.5,4568.2,4558.8,5145.5,5102.8,5096.3,5086.6,5084.1,6184.7,6195.8,6192.2,6202,6238.1,6246.2,6294.2,6337.2,6381.6,6418.9,6451.9,6470.4,6483.5,6495.3,6508.3,6514.1,6513.7,6478.9,6425,6378.6,6321.1,6233.2,6163.1,6081.2,6005.5,5952,5925.6,5895.3,5892.3,5863.5,5869.5,5874.5,5887.7,5892.3,5894.7,5900.4,5897.5,5882.7,5869.6,5885.9,5884.2,5884.4,5888.1,5888.3,5909.8,5930.8,5975.8,6068.3,6122.1,6182.3,6249.4,6313.7,6372.1,6425.1,6477.9,6511.9,6552.7,6567,6560,6595.3,6603.1,6596,6590.1,6591,6557.9,6531.8,6505.1,6499.5,6446.3,6401.2,6387.2,6373.5,6373,6385.8,6388.6,6401.2,6399.8,6431.9,6451.8,6471.4,6512.1,6538.6,6545.7,6573.2,6601.5,6608.2,6615.3,6572.9,6530.9,6483.7,6417.2,6346.2,6257.7,6190.9,6125.4,6044.4,5993.7,5938.2,5884.8,5834.2,5774.2,5703.5,5661.2,5605,5508,5422.5,5345.7,5274.5,5196.9,5113.2,5070.5,5040.6,5011.6,5015.4,5048,5077.1,5115.2,5188.5,5259.6,5328,5370.2,5403.1,5417.6,5412.9,5412.9,5412.9,5408.1,5398.7,5412.7,5412.7,5427.2,5441.3,5456,5456.1,5461.4,5452.2,5447.7,5424.3,5391.4,5351.1,5306.6,5240.9,5168.3,5077.1,4978.4,4881.7,4796.9,4676.2,4564.7,4388.9,4168.6,3587.1,2664.1,3593.5,3101.5,3374.1,3331.9,3329.8,3366.1,3437.2,3554.1,3735.1,3996.9,0,0,5057.1,5393.3,5665.8,5894.4,6105.7,6298.3,5048.3,634.9,0,0,0,0,0,0,0,0,0,0,0,0,0,0,0,0,0,0,0,0,0,0,605.1,753.5,750.2,747.4,745.2,741.5,736.8,733.1,730,727.1,724.9,722.7,720.5,718.5,716.6,714.8,713.2,711.3,710,708.7,707.6,706.6,705.5,704.2,703.2,701.9,700.9,699.3,697.2,694.7,692.6,690.3,688.2,686.1,683.4,681.2,679.2,677.6,676.1,674.7,673.1,671.7,670.3,668.2,666.3,664.1,662.5,660.6,659.1,657.5,656.1,654.9,653.7,652.6,651.2,650.5,649.4,648.5,647.4,646.4,645.2,643.8,642.7,642,640.9,640.3,639.5,638.7,638.2,637.8,637.5,637.3,636.9,636.9,636.5,636.3,636.1,635.9,635.9,635.7,635.6,635.8,635.8,636.1,636,636.1,636.3,636.5,636.7,637.1,637.3,637.5,637.7,638,638.4,638.9,639.3,639.7,640.3
6447.7,6362.6,6291.8,6234.1,6222.9,6191.6,6217.2,6219,6255.9,6276.6,6289.9,6318.5,6319.6,6310,6290.3,6279,6248.3,6204.8,6177.6,6152.5,6119.1,6092.4,6084.7,6056.9,6043.1,6043.2,6043.6,6065.2,6093.2,6110.1,6138.1,6166.4,6201.8,6207.9,6225.7,6232.5,6241.8,6242,6202.8,6188.8,6137.9,5579.9,5520.8,5467.9,5418.7,5382.9,5359.5,5321.2,5304.5,4144.5,4134.7,4131.2,4126.5,4115,4092.4,4087.5,4081.5,2978.3,2978.3,2955.4,2368.8,2357.5,2357.5,1759.9,1749.1,1140.4,559.8,549.8,0,0,0,0,0,0,75.4,150.7,226.9,311.1,312.6,313.8,314.9,473.8,474.6,475.1,557.5,640.3,640.5,723.2,722.6,722,802.1,800.5,799.2,797.8,797.1,796.1,795.1,794.2,793.3,792.7,792.1,791.7,790.9,789.9,789.2,788.1,787.2,786.3,785.2,784.6,783.8,783.2,782.8,782.8,782.8,782.7,782.9,783,783.3,783.3,783.6,784,784.3,784.3,784.7,785.5,785.8,786.6,787,787.3,788,788.4,789.2,789.7,790.7,791.5,792.6,794.1,795.8,797.5,798.9,800.6,802,803.1,804.8,806,807.2,808.8,810.3,812.2,814.2,816.8,819.5,822.2,825.5,827.8,830.5,832.8,835.2,837.2,840.1,842.1,844.7,848,851.4,854.9,858.8,863,866.3,869.6,694.6,607.2,1147.2,2938.8,3494.5,3596.2,3524,3525.3,3446.1,3460.7,3481.9,3407.5,3234.3,3345,3268.6,3903.2,3917.2,3924.4,3932.2,4342.4,5620.4,5578.2,5538.1,5538.3,5522.3,5541.3,5039.6,5037,5026.6,5011,5532.8,5596.3,6134.7,6136.5,6138.7,6176.8,6203.8,6246.2,6292.5,6348.9,6378.9,6430.9,6443.2,6489.8,6495.4,6515.3,6527.4,6506.5,6485.2,6451.8,6366.6,6326.9,6259.1,6163.4,6090.4,6011.2,5963.6,5928.7,5902.7,5894.1,5876.6,5894.7,5898.7,5907,5914.6,5916.8,5916.2,5920.6,5912.5,5911.2,5914.1,5923.8,5930.4,5941.4,5934.3,5968.7,6012.1,6076.8,6147.2,6208,6269.8,6334.2,6399.6,6465.2,6498.3,6560.3,6602.5,6616,6645.1,6645.1,6667.4,6675.2,6683.1,6662.1,6641.1,6643.6,6617,6596.4,6570.7,6544.3,6518.1,6482.3,6461.3,6473.7,6466.2,6485.1,6497.2,6508.1,6500.2,6513.4,6547.5,6574.7,6588.3,6623.2,6637.4,6644.1,6644.1,6622.4,6580.1,6524,6476.8,6411.3,6339.6,6251,6177.6,6124.2,6060.4,6003.9,5953.1,5880.9,5830.5,5766.5,5706,5653.6,5574.6,5494.7,5409.5,5351.1,5276.3,5195.4,5121.1,5061.2,5040.3,5003.4,5011.2,5031.7,5056.2,5085.5,5145.2,5215.3,5291.3,5324.1,5356.4,5365.8,5375.4,5371.2,5385.2,5380.2,5370.8,5375.5,5375.5,5403.4,5407.6,5412.4,5412.6,5422.5,5413.9,5405.4,5373.1,5355.7,5306.4,5262.8,5186.1,5124.3,5030.3,4942.5,4853.5,4749,4648.8,4533.9,4358.3,3762.1,3171,2659.4,3597.4,3111,3063,3411.7,3443.8,3510.5,3619.7,3781.4,0,0,0,5154,5509.2,5799.3,6037.7,6220.5,6362.4,6469,1290,641.5,0,0,0,0,0,0,0,0,0,0,0,0,0,0,0,0,0,0,0,0,76.2,227.7,605.2,753.6,750.9,748.5,746.3,743,738.3,734.8,731.8,729.3,726.8,724.1,722,719.6,717.5,715.3,713.6,711.9,710.5,708.9,707.6,706.6,705.5,704.5,703.2,702.1,701.2,699.5,697.4,694.7,692.7,690,687.7,685.6,682.8,680.8,678.7,677,675.6,674.5,673,671.4,669.8,668,666.1,663.9,662.3,660.3,658.7,657,655.8,654.4,653.3,652.4,651.1,650.4,649.4,648.4,647.4,646.3,645.2,643.7,642.6,642,640.8,640.3,639.7,639,638.5,638.1,638,637.5,637.4,637.2,637,636.6,636.5,636.4,636.3,636,636,636.1,636.2,636.2,636.4,636.6,636.5,636.9,637.1,637.4,637.5,637.8,638,638.3,638.8,639.1,639.5,639.9,640.6
