3478,3478,3498.67,1425.33,3520,2052.67,2032.33,3438.67,3409,0,0,0,0,0,0,0,0,0,0,0,0,0,915.667,912,909,1359,1352,1345,1336,1333,1327.33,1323.33,1319.67,1318.67,1319,1318,1318,1320,1323,1325,1326.67,1327.67,1329.67,1330.67,1328.33,1326.33,1326.33,1326.33,0,0,0,0,0,0,0,0,0,0,0,0,0,0,0,0,0,0,0,0,0,0,0,0,0,0,0,0,0,0,0,0,0,0,0,0,0,0,0,0,0,0,0,0,0,0,0,0,0,0,0,0,0,0,0,0,0,0,0,0,0,0,0,0,0,0,0,0,0,0,0,0,0,0,703.667,1059.67,1062,1065.33,1068,1070,1072,1075.33,1077.33,1080.33,1084,1087.33,1091.33,1094.67,1099.33,1103.33,1108,1111.33,1116,1119.33,1122,1125.33,1126,1128.67,1130,1131.33,1132.67,757,1138.33,1139.67,1142.67,1146.33,1148.33,384.333,0,0,0,0,0,0,0,0,0,0,0,0,0,0,0,0,0,0,0,0,0,0,0,0,0,0,0,195.667,195.333,195.333,195.667,195.667,196,196,196.333,196.667,197.333,197.333,197.333,377,197.667,376.667,377,376.667,376.333,554.333,554.333,554,554,554,554.333,357,554.333,357,554.333,554.333,555,554.667,554.333,554.667,554.667,356,355.667,355.667,355.667,355,355,355,354.333,354.333,353.667,353.667,353.333,353,353,352.333,351.667,351,350.333,350,349.333,348.667,348,347.667,347,347,346.333,346.333,346.333,346,346,346,346,346,346.333,346.667,346.667,347,347.333,347.667,348,348.667,349,349.667,349.667,350.333,351,547.333,548.333,549.333,353.667,552,553.333,554.333,555.667,557.667,559.333,560.333,561.667,563.667,565.667,567.667,570.333,572.333,575.333,577.667,579,581.333,390.333,586.333,588,197.667,197.333,395,595.667,597.333,399,0,0,0,0,0,237.667,240.333,242.667,491.333,494.333,497.333,500,501.333,503.667,505,506.333,507.667,508.667,509.333,510.667,511.667,513,514,514.667,516,517,518.333,519.667,520.667,521.667,523,524.667,526.667,528,529.333,531.667,533,534.667,270.333,0,272,0,0,0,884.667,1781,1781,1781,1784.67,1784.67,1781,1781,1781,1777.33,1769.33,1765.67,1758.33,1746.67,1735.67,1732,1718,1710.67,1700,1693,1689.67,1686.33,1682.67,1682.67,1679.33,1679.33,1679.33,1679.33,1679.33,1679.33,1679.33,1679.33,1675.67,1669,1662.33,1658.67,1652,1645.33,1638.67,1629.33,1619.33,1607,1600.67,2141.67,2132.33,2124.67,2109.67,2105.67,2098,2092.33,2088.33,2090,2085.67,2087.33,2084.67,2078.67,2068,2059.33,2049.67,2041.67,2033.67,2026,2010.33,2000.33,1992,1979.33,1972.33,1964,1958.67,1953.67,1946.67,1941,1936.67,1364,1362,1361.67,1364,1364,1364,1361.67,1915.33,1913.67,1910,1908.67,1357.33,1355,1352.67,1352.67,1348.33,1346,1341.33,1337,1330.67,1326.67,1320,1314,1309.67,1303.33,1293,1287,1281.33,1277,1271,1267,1836.33,1832.67,1830.67,1825.33,1825.33,1251.67,1253.67,1251.67,1251.67,1812,1810,1808.33,1808,1807.33,1805.67,1800,1796.33,1792.67,1789,1785.67,1778.67,1776.67,1770,1766,1759.33,1754,1747.67,1742.67,1739.33,1735.67,1730.33,1729,1725.67,1163,1161.33,1161.33,1159.67,1158,1156.67,1155,1150,1148.33,1147,1142,1138.67,1135.67,1132.67,1129.33
3379.67,3361,3361,3351.33,3379.67,3379.67,3370.67,3362,3316.33,0,0,0,0,0,0,0,0,0,0,0,0,914.667,912,910,907,905,1349.33,1342,1336,1331,1327.33,1322.67,1318.67,1318,1318,1317,1318,1318,1322,1323,1325,1326.67,1328.67,1327.67,1326.67,1324.33,1323.33,442.333,0,0,0,0,0,0,0,0,0,0,0,0,0,0,292.667,292,291.667,290.667,290,591,288,0,0,0,0,0,0,0,0,0,0,0,0,0,0,0,0,0,0,0,0,0,0,0,0,0,0,0,0,0,0,0,0,0,0,0,0,0,0,0,0,0,0,0,0,0,0,0,0,0,0,0,0,0,1057,1059,1061.33,1063.33,1065.33,1066.67,1069.33,1070.67,1073.33,1076.67,1079,1083.33,1086.67,1090,1094.67,1099.33,734.667,1106,1110,744,746,748.667,750.667,751.333,752.667,754,376.667,377.333,1132.67,1136,760.333,762.667,382.333,0,0,0,0,0,0,0,0,0,0,0,0,0,0,0,0,0,0,0,0,0,0,0,0,0,0,0,0,0,0,0,195.333,195.667,377.333,557.667,557.667,557.667,557.333,557,556.667,556,555.667,555,555,554.333,554.333,554,554,554,554,554,553.667,356.667,356.667,356,554,355.667,553.667,553.333,553,553,552.667,552,354,353.667,353.667,353.333,353.333,353.333,353,353,352.333,352.333,351.667,351.667,351.667,351,350.333,350,349.667,349.333,348.333,347.667,347.333,347,346.333,345.667,345.667,345.333,345.333,345,345,345,345.333,345.333,345.667,345.667,346,346,346.667,347,347.333,347.667,348.333,348.667,349,349.667,350.333,350.333,351.333,352,352.667,353.667,552,553.333,554.667,556,557.667,559.333,561,562.667,565,566.667,569,570.667,573.333,576.333,578,197,197.333,391,197.667,197.667,197.667,197.333,594.333,595,197.333,197.333,0,0,0,0,0,238.667,484.333,490,494.333,497.333,499.667,501.333,503.333,505,507,507.667,509,509.667,511,511.333,512.667,513.667,514.333,515.667,517,518,519,520.333,521.333,522.333,524.333,526,528,529.333,531.333,533,534.667,536,271,539,0,0,0,884.667,1769.33,1769.33,1769.33,1773.33,1773.33,1773.33,1773.33,1777,1773.33,1769.33,1762,1758.33,1746.67,1735.67,1728.33,1718,1707,1700,1689.67,1686.33,1679,1679.33,1676,1679.33,1676,1676,1676,1676,1679.33,1676,1675.67,1672.33,1669,1662.33,1658.67,1652,1648.67,1642,1635.33,1626,1613,1603.67,1594.67,2130.67,2123,2112.67,2108.67,2101,2095,2091.33,2090,2085.67,2085.67,2085.67,2077.33,2069,2059,2051,2043,2032.33,2022.33,2009,1999,1986.67,1976.33,1968.33,1960.33,1957,1950.33,1942.33,1937.67,1933.33,1932.67,1362,1361.67,1361.67,1364,1364,1364,1908,1906,1361.67,1361.67,1357.33,1357.33,1355,1350.67,1350.67,1348,1343.67,1335,1330.67,1326.67,1320,1314,1307.67,1299.33,1293,1287.33,1281.33,1275,1844,1840.33,1836.33,1832.33,1832.33,1825.33,1827,1824,1820.33,1815,1812,1810,1808,1806.33,1804.33,1804.33,1800.67,1796.67,1793.33,1790.67,1787.33,1782.33,1779,1773.33,1768.33,1762.67,1756,1751,1744.33,1739.33,1736,1730.33,1727,1724,1722.33,1719,1161.33,1161.33,1161.33,1159.67,1158,1156.67,1153.33,1150,1150,1145.33,1142,1140.33,1137.33,1132.67
3389.33,3351.33,3360.67,3342,3360.67,3389.33,3379.67,3333,3297,0,0,0,0,0,0,0,0,0,0,0,0,456,909,907,905,903,900,896.667,1335,1330.33,1326.33,1321.67,1319,1317,1316,1317,1315.33,1317.33,1319.33,1321,1324,1324.67,1326.67,1326.67,1324.67,1321.33,883.667,440.333,0,0,0,0,0,0,0,0,0,0,0,0,0,293.667,598,304,595.667,594,592.333,590.667,589,287.333,0,0,0,0,0,0,0,0,0,0,0,0,0,0,0,0,0,0,0,0,0,0,0,0,0,0,0,0,0,0,0,0,0,0,0,0,216.667,433.333,0,431.667,431,430,429.333,213.667,213.333,0,0,0,0,0,0,0,1055.67,1057.67,1059.67,1061.33,1062.33,1064,1066,1068,1070.67,1073.33,1076.33,1080.33,1083.33,1086.67,1090,1094,1098.67,736,738.667,741.333,743.333,746.667,748,748.667,749.333,751.333,752.667,754,754,756,757.333,379.333,0,0,0,0,0,0,0,0,0,0,0,0,0,0,0,0,0,0,0,0,0,0,0,0,0,0,0,195.333,182.333,363.333,362.667,362.333,558.333,362,361.667,361,557.333,557.667,557,556.333,359,555.667,555,555.333,554.667,554.333,554,553.667,356.333,356,553,553.333,356,355.667,355.333,355,354.667,354.333,552.333,552,552.333,551.333,551,352.667,352.333,352.333,352.333,352,352,351.333,351.333,351,351,350.333,350.333,350.333,350.333,350,349.667,349.333,348.667,348.333,347.667,347.333,346.333,345.667,345.333,345,345,344.333,344.333,344.333,344.333,344.333,344.333,344.667,345,345,345,345.333,345.667,346.333,347,347,347.667,347.667,348.333,348.667,349.333,350,350.667,547,548.333,549.333,354.333,552.333,553.667,555,556.667,558.667,559.667,562,564,565.667,568,569.667,572.333,575,576.667,197,197.333,197.333,198,197.667,197.667,197.333,197,197,197.333,197.333,0,0,0,0,0,0,0,486.667,492.667,495.667,498.667,501,503.333,504.667,506.333,507.667,508.667,509.333,510.667,511.333,512.667,513.333,514.333,515.333,516.333,517.667,519,520,520.667,522,523.333,525.667,527.667,528.667,531,532.333,534.333,269.667,270.333,271,271.667,0,0,1758.33,877.333,1762,1762,1765.67,1769.67,1769.67,1773.33,1773.33,1773.33,1773.33,1765.67,1762,1750.67,1739.33,1728.33,1718,1707,1700,1689.67,1682.67,1679,1675.67,1672.33,1675.67,1672.33,1672.33,1672.33,1672.33,1672.33,1672.33,1672.33,1669,1665.67,1662,1658.67,1655.33,1648.67,1642,1635.33,1626,1616.33,1603.67,1594.33,1582.33,2126,2115.67,2107,2099.67,2095.67,2092.67,2088.67,2085.67,2082.67,2082.67,2077.33,2069,2056.33,2051,2043,2032.33,2022.33,2011.67,1996.33,1986.33,1976.67,1970.67,1962.67,1955,1950.33,1947.33,1944,1939.33,1936.33,1936.33,1366.33,1364,1364,1364,1364,1364,1908.33,1366.33,1361.67,1361.67,1357.33,1355,1353,1352.67,1348,1343.67,1337.33,1330.67,1326.67,1320,1314,1307.67,1299.33,1295,1287.33,1283.33,1855.67,1849.33,1845.33,1841.67,1837.67,1835.67,1830.33,1828.33,1827,1823.33,1822,1814.67,1813,1809.33,1242.33,1807.67,1803.67,1801.67,1796.33,1792.67,1789,1785.33,1780.67,1777,1770.33,1766.33,1759.67,1754.33,1747.67,1742.67,1737.67,1732.33,1728.67,1724,1721,1719.33,1717.67,1161.33,1161.33,1161.33,1161.33,1159.67,1158.33,1156.67,1155,1151.67,1150,1146.67,1143.67,1140.33,1135.67
3390,3380,3370.67,3361.33,3410,3410,3399.33,3380,1387,0,0,0,0,0,0,0,0,0,0,0,0,455,907,905,903,1346.33,1341.67,1337,1333.33,1329.33,1325.33,1321.67,1318,1318,1316.33,1316.33,1315.33,1315.33,1318.33,1319.33,1322,1323.67,1324.67,1324.67,1321.67,882.667,881.667,0,0,0,0,0,0,0,0,0,0,0,0,0,293.667,293.333,597.333,595.667,594.667,594,591.667,589.667,587.667,585.333,584,296.333,295.333,295,295,0,0,0,0,0,0,0,0,0,0,0,0,0,0,0,0,0,0,0,0,0,0,0,0,0,0,0,0,0,435.333,653.333,652.333,650.667,650,649,647.667,646.333,644.667,644,642.333,641.667,427.667,0,0,0,0,0,1054.33,1055.67,1057.67,1059.67,1061,1063.33,1064.67,1066,1069.33,1073,1075.33,1079,1081,1085.33,1088,727.333,731.333,366,736.667,369.333,370.667,372,372,372.667,373.333,373.333,374,374.667,0,0,0,0,0,0,0,0,0,0,0,0,0,0,0,0,0,0,0,0,0,0,0,0,371,370.333,369.667,368.667,367.333,366.333,365,364.333,363.333,559.333,559,361.667,558.333,361,360.667,557.667,557.333,557.333,557,556.333,555.667,555,357,554.333,554.333,554,553.333,552.667,553,553,355.333,355,355,354.667,354.333,552.667,553,552.333,551.667,551.333,550.667,550.333,351.333,351,351,350.667,350.667,350.333,350,350,350,349.667,349.667,349.333,349,349,349,349,348.667,348,347.333,347,346.667,345.667,345,344.667,344.333,344,344,343.667,343.667,343.667,343.667,343.667,343.667,344,344.333,344.333,345,345,345,345.667,346,346.333,346.667,347,347.667,348,348.667,349.333,349.667,350.667,351.333,352.333,353.667,551.333,552.667,553.667,555.667,557.667,559,561,562.333,564,566.333,568.333,570.667,573,574.667,196.667,197.333,197.333,197.667,0,0,0,197,197,197.333,197.333,0,0,432.667,225,231.333,234,241.333,485.667,492,495.333,498.667,500.333,503.333,504.667,506.333,507.667,508.333,509.667,510.333,511.333,512.333,513.333,514,515.333,516.333,517.667,518.667,519.667,520.667,521.667,523,524.667,526.667,528.333,530,532,533.333,535.333,536,537.667,538.667,0,0,0,1754.67,1758.33,1758.33,1762,1762,1769.67,1769.67,1773.33,1773.33,1773.33,1769.33,1762,1754.67,1746.67,1735.67,1724.67,1718,1703.33,1693,1686,1682.67,1679,1679,1672.33,1675.67,1672.33,1672.33,1672.33,1675.67,2184.33,2184.33,1672.33,2177.67,2177.67,2174,1655.33,1652,1642,1635.33,1626,1613,1603.67,1594.33,1582.33,1566.67,2120.33,2111.67,2104.33,2098.67,2095.67,2090.33,2085.67,2084.33,2084.33,2079,2069,2057.67,2052.33,2047,2033.67,2023.67,2010.33,1998,1989.67,1977.33,1974,1966.33,1961,1954.33,1949,1946.67,1941.67,1943.33,1941,1939.33,1371,1371,1370.67,1368.33,1368.33,1368.33,1370.67,1364,1364,1359.33,1357.33,1355,1352.67,1348,1343.67,1337.33,1330.67,1326.67,1320,1314,1307.67,1299.33,1295,1289.33,1865,1859,1853,1848.67,1846.67,1843,1839.33,1253.67,1253.67,1830.33,1826.67,1823,1818,1816.33,1244,1242.33,1809,1805,1801.67,1796,1794.33,1788.67,1785.33,1780,1777,1769.67,1764.67,1756,1752.67,1746,1739.33,1736,1728.67,1727,1725.33,1724,1722.33,1161.67,1161.33,1160,1161.33,1161.33,1159.67,1161.33,1158.33,1156.67,1153.33,1153.33,1148.33,1145,1142,1139
1359.33,1359.33,3432.67,2052.67,3466.67,3475.67,3484.67,1359.33,0,0,0,0,0,0,0,0,0,0,0,0,0,455,907,905,903,902,1340.67,1335.33,1330.33,1328.33,1325.67,1320.67,1318,1317.33,1316.33,1315.33,1315.33,1315.33,1315.33,1317.33,1321,1322,1323.67,1322.67,885.667,880,0,0,0,0,0,0,0,0,0,0,0,0,0,0,292.667,292.333,596.333,595,594,593.333,591,589.333,587,585,583.333,295.667,295.333,295,294.667,0,0,0,0,0,0,0,0,0,0,0,0,0,0,0,0,0,0,0,0,0,0,0,0,0,0,0,435.333,654.333,653.333,652,651.333,650,649.333,648,646.667,645.667,644,643,641.333,640.667,640,639.667,638.667,638.333,0,0,1052.67,1053.67,1055.67,1057.67,1060,1061.67,1063,1065.33,1068.67,1071,1075.33,1077,1081,1082.67,1086.67,726,0,0,367.333,0,0,0,0,0,0,0,0,0,0,0,0,0,0,0,0,0,0,0,0,0,0,0,0,0,0,0,0,0,0,372.333,371.667,371.333,370.333,369.667,368.667,367.333,366.667,365.333,561.667,363.333,559.667,559.333,559,558.333,558.333,558.333,558,557.333,557.333,556.667,556.333,555.333,555,554.667,554,554,553.667,553,553,552,552,552,354.333,354.333,353.667,552.333,353,353,552,551,550.333,550,549.333,549.333,548.333,349.667,349.333,349.333,349.333,349,348.667,348.667,348.333,348.333,348.333,347.667,347.667,347.667,347.667,347.667,347.333,346.667,346.333,345.667,345,344.667,344,343.333,343,343,343,342.667,343,343,343,343,343,343.333,343.333,344,344,344.333,344.667,345,345.333,345.333,346,346.333,347,542.333,543.333,544,544.667,545.333,546,547.333,548.667,550,551.333,553,554.333,556.333,557.667,559.333,561,562.667,564.667,566,568,570,196.333,196.667,197,197.333,0,0,0,0,0,0,0,196.667,0,0,216.667,446,462,470.333,0,244.667,491.667,495.667,499,500.333,503,504.667,506.333,507.333,508.333,509.333,510.333,511,512.333,513.333,514,515,516,517,518.333,519,519.667,521,522,524.333,526,527.333,529.667,531.333,533,534.667,535.667,537,267.667,0,0,0,1754.67,1750.67,1758.33,1758.33,1762,1762,1769.67,1773.33,1773.33,1773.33,1769.33,1765.67,1762,1754.67,1739.33,1732,1718,1707,1700,1693,1686,1682.67,1679,1675.67,1675.67,1675.67,1675.67,1675.67,1675.67,1672.33,2184.33,2184.33,2177.67,2175.33,2176.33,1655.33,1652,1642,1635.33,1626,1613,1603.67,1594.33,1579.33,1566.67,2126.67,2115,2106.33,2100.33,2095,2092,2086.33,2084.67,2084.67,2080.33,2074.67,2063.67,2058,2050,2039.33,2031.33,2018.67,2007.33,1997.33,1985.33,1982,1972.33,1971.67,1962.33,1960,1955.33,1953,1950.33,1950.33,1379.67,1947.67,1377.67,1375.33,1375.33,1375.33,1375.33,1373,1933,1927.33,1366.33,1361.67,1359.67,1355,1348,1343.67,1337.33,1333,1326.67,1320,1314,1307.67,1301.33,1297.33,1875.67,1870,1864,1860,1853.67,1849.67,1847.67,1846,1838.67,1255.67,1253.67,1833.67,1830,1826.33,1822.67,1244,1813.67,1811.67,1806.33,1804.33,1799.67,1795.67,1790.67,1786.67,1781.67,1776.67,1769.67,1764.67,1759,1752.33,1746,1739.33,1735.67,1732,1728.67,1727,1728.67,1163,1163,1163,1163,1163,1163,1161.33,1161.67,1160,1158.33,1158.33,1153.33,1151.67,1148.33,1145,1142
0,3382.67,2052.67,0,1341.67,3488.67,3480,0,0,0,0,0,0,0,0,0,0,0,0,0,456,908,906,904,903,901,899.333,896.667,1330.33,1327.67,891.667,889.667,889.667,1316.33,1315.33,1314.33,1312.33,1313.33,1315.33,887.667,888.667,888.667,0,0,0,0,0,0,0,0,0,0,0,0,0,0,0,0,0,0,292.667,292.333,596.333,595,594,593.333,591,589.333,587,585,581.667,295.667,295.333,295,294.667,0,0,0,0,0,0,0,0,0,0,0,0,0,0,0,0,0,0,0,0,0,0,0,0,0,0,654.333,653.667,652.333,652,651.333,650.667,649.333,648.333,647.667,645.667,645,643.667,642.333,640.333,639.667,638.667,638.667,638.333,638.333,638.333,0,348.667,1053,1054.33,1056.33,1059,1060,1061,1064,1067.33,1070.33,1073.67,1076.33,1079,1082,1084.67,1088.67,727.333,364.667,0,0,0,0,0,0,0,0,0,0,0,0,0,0,0,0,0,0,0,0,0,0,0,0,0,186.667,373,372.333,372,372,371.667,371.667,370.333,370.333,369.333,369,368,366.667,366,364.667,561,560.333,560,559.667,558.667,558.667,558.333,558,557.667,557.333,557,556.333,555.667,555.333,554.667,554,553.667,553.333,552.333,552.333,551.667,551.333,550.667,551,353.333,353,353,550.667,551,551,550.333,549.667,549,548.667,548.333,548,547.333,546.333,348,348,347.667,347.333,347.333,347.333,347.333,347,347,347,346.333,346.333,346.333,346.333,345.667,345.333,344.667,344.333,343.667,343.333,343,342.333,342,342,341.667,342,342,342,342.333,342.333,342.667,342.667,343.333,343.667,343.667,344,344,344.333,344.667,345,345.333,345.667,346.333,346.667,542.667,543,543.667,544.333,544.667,546,547.333,549.333,550,551.333,553,555,556,558,559.333,561,562.333,564.333,566,568.667,196.333,196.333,197,197.333,0,0,0,0,0,0,0,0,0,0,214.333,446,226.667,0,0,0,492.667,249,499.667,501.333,503.333,505,506.333,507.333,508.333,509,510.333,511.333,512.333,513,514,514.667,515.667,517,518,518.667,519.667,520.667,521.333,523,525.333,526.667,528.667,530.333,532,533.333,534.333,266.667,267,267.667,0,0,873.333,1747,1754.33,1758.33,1758.33,1762,1765.67,1773.33,1773.33,1769.33,1773.33,1773.33,1769.33,1762,1750.67,1739.33,1724.67,1714.33,1707,1696.67,1689.33,1682.67,1679.33,1682.67,1675.67,1679,1675.67,1679,1675.67,1672.33,1672.33,1669,1669,1662,1662,1658.67,1652,1642,1635.33,1626,1613,1603.67,1591.33,1579.33,1566.67,1552.33,1543.33,1537.67,2103.33,2098,2093.67,2089.33,2088,2083.67,2081,2073.33,2065.33,2059.67,2053.33,2045.33,2037.33,2029,2016,2005.67,1993.33,1992.33,1982.67,1406,1401.33,1396.33,1391.67,1959.67,1958,1386.67,1386.67,1384.33,1382,1382.33,1380,1380.33,1380.33,1375.33,1373,1370.67,1366.33,1364,1359.67,1355,1350.33,1343.67,1339.33,1333,1326.67,1320,1314,1307.67,1301.33,1297.33,1881.33,1873.67,1869.67,1865.67,1273,1269,1265,1849.33,1261.33,1257.67,1255.67,1253.67,1834.67,1249.67,1249.67,1245.67,1242.33,1238.33,1236.33,1231,1800.67,1797,1222,1218,1783.33,1776.67,1769.67,1764.33,1759,1754,1747.33,1742.33,1738.67,1733.33,1169.33,1166.33,1163,1163,1161.33,1163,1163,1163,1163,1161.33,1163,1161.67,1160,1158.33,1155,1153.33,1150,1146.67,1142
0,0,0,1324.33,1316,0,0,0,0,0,0,0,0,0,0,0,0,0,0,0,0,454,905,903,902,900.333,899.333,896.667,894.667,892.667,891.667,889.667,889.667,888.667,1313.67,886.667,885.667,885.667,885.667,0,0,0,0,0,0,0,0,0,0,0,0,0,0,0,0,0,0,0,0,0,292.667,292,596.333,595.333,593.667,592.667,590.667,589,585,583,580.667,295.667,295.333,295,294.667,0,0,0,0,0,0,0,0,0,0,0,0,0,0,0,0,0,0,0,0,0,0,0,0,0,653.667,652.667,652,651.667,651.333,651,649.333,648.667,647.333,646,645,643.333,642,640.333,640,639,638.333,638.333,638,638,638.333,638,425,0,349.667,703.667,1057.67,1059.33,1061,1062.33,1066,1069.67,1073.67,1076,1077.67,1081,1083.33,1086,364,0,0,0,0,0,0,0,0,0,0,0,0,0,0,0,0,0,0,0,0,0,0,187.667,187.333,374,373.333,372.667,372,371.667,371.333,371,370.667,370.667,370,369.333,368.667,367.667,367.333,366,365,363.667,560.333,560,559.667,559.333,558.667,558.333,558.333,557.667,557.667,557,357.667,555.667,555,554,553.667,553.333,552.667,551.667,551.667,551,550.333,549.667,549.667,549.333,352.333,351.667,351.667,549,350.333,549.667,549,548.333,548,547.333,547.333,547,546.333,347.333,347.333,347,346.667,346.667,346.667,346,345.667,345.667,345.333,345.333,345,345,345,344.667,344.333,343.667,343.667,343,342.333,342,341.333,341.333,340.667,340.667,340.667,341,341.333,341.333,341.667,341.667,342,342.333,342.667,343,343.333,343.333,343.667,344,344,344.333,344.667,345,345.333,346,346.667,347.333,348,348.667,349.667,351,546.333,548,549,550,551.333,553.333,554.333,556,557.333,558.667,560.667,562.333,564,195.333,196,196.333,0,0,0,0,0,0,0,0,0,0,0,0,0,449,228,231.667,242.333,487,494.333,498,500.667,502,503.667,505,506.333,507.333,508.333,509.333,510.333,511,512.333,513,514,514.667,515.667,517,518,519,519.667,520.667,521.333,522.667,524,525.667,527.333,529,530.333,531.667,532.333,533,533.667,266.333,0,0,0,0,0,877.333,1754.67,1758.33,1762,1765.67,1769.33,1773.33,1773.33,1777.33,1773.33,1769.33,1758.33,1746.67,1735.67,1724.67,1714.33,1703.33,1693,1689.67,1686,1682.67,1679.33,1679,1679,1679,1675.67,1675.67,1675.67,2181.67,2179.67,2177.33,1662,1658.67,1652,1642,1635.33,1626,1613,1600.67,1588.33,2157.67,2143.67,2135,2121.67,2114.33,2104,2095.67,2088.33,2088.33,2086.67,2086.67,2082.67,2077,2068.67,2063,2060.33,2051,2045.67,2034.33,2021.67,2014,2006.33,1999,1994.33,1986.67,1977.67,1973,1969,1967.33,1962.67,1961,1960,1957.67,1386.67,1384.33,1385,1382.67,1382.67,1380.33,1375.33,1370.67,1368.33,1364,1362,1357.33,1350.33,1343.67,1339.33,1333,1326.67,1322,1314,1309.67,1303.33,1890.67,1884.67,1879.33,1875.33,1869.33,1865.33,1861,1859,1855,1851.33,1848,1846,1844,1838,1836.33,1830.67,1827.33,1242.33,1818.33,1814.67,1807.67,1802.33,1798.67,1793.67,1788.33,1781.67,1776.33,1771.33,1766,1762.67,1755.67,1750.67,1747.33,1741.67,1738.33,1737,1166.33,1164.67,1163,1161.33,1161.33,1163,1163,1163,1161.67,1163.33,1160,1161.67,1160,1156.67,1155,1150,1147,1143.67
0,0,0,0,0,0,0,0,0,0,0,0,0,0,0,0,0,0,0,0,0,0,904,902,901,899.333,898.667,896.667,894.667,892.667,891.667,889.667,889.667,888.667,887.667,885.667,442.333,441.333,442.333,0,0,0,0,0,0,0,0,0,0,0,0,0,0,0,0,0,0,0,0,0,292.333,292,291,290,288.333,288,287,286.333,584,581.667,580.333,295.333,295,295,294.667,0,0,0,0,0,0,0,0,0,0,0,0,0,0,0,0,0,0,0,0,0,0,0,435.333,652.333,651.667,651.333,651,651,650,649.333,648,647.667,646,644.667,643.333,642,641,639.667,638.667,638.333,637.667,637.667,637.667,637.667,637.333,637,636.667,212.333,0,703.667,705,706.667,707.667,708.333,710.333,712.667,714.667,717,718.333,719.667,0,0,0,0,0,0,0,0,0,0,0,0,0,0,0,0,0,0,0,0,0,0,0,0,187.667,187.333,187,373.667,373.333,372.333,371.667,371.333,371,370.667,370,369.667,369.333,368,368,367.333,366,365.333,364.333,363.333,560.333,559.667,559.333,559,558.667,558.333,557.667,557,557,357.333,556,555.333,554.667,553.667,553,552.667,551.667,551.333,550.667,550,549.333,549,548.667,351.333,548.333,350.333,547.667,548,548.333,548.667,548,547,547,546.667,546.333,546.667,546,545.333,346,346,345.667,345.333,345,345,345,344.333,344.333,344,343.667,343.667,343.667,343.333,342.667,342.667,342.333,341.667,341.333,340.667,340.333,340,340,340,340,340,340.333,340.667,341,341,341.667,341.667,342,342.667,343,343.333,343.333,343.333,343.667,344,344.333,344.333,345,345.333,541,541.667,542.333,542.667,543.667,544.667,546,353,548.333,550,551,552.333,553.333,555.333,556.333,557.333,559,560.667,562,195,195.333,196,0,0,0,0,0,0,0,0,0,0,0,0,0,222,0,0,243.333,0,495.333,499,502.333,503.333,504.333,505.333,506.667,507.667,508.333,509,510.333,511.333,512,513,514,514.667,515.667,517,518.333,519,519.333,520.667,521,522.333,523.667,525.333,526.333,528,529.333,530.333,530.667,531.333,265.667,0,0,0,0,0,0,0,1743,1750.67,1754.33,1758.33,1758.33,1765.67,1765.67,1773.33,1773.33,1769.33,1762,1754.67,1743,1732,1721.33,1710.67,1696.67,1689.33,1686,1679.33,1679.33,1682.67,1682.67,1682.67,2193.67,2190,2188.67,2181.67,2183,2178.67,2182.33,2179.67,2176.33,1642,1635.33,1622.67,1613,2177.33,2166.67,2156,2145.33,2136.67,2123.33,2114.67,2107.33,2097.33,2090,2090,2088.33,2088.33,2084,2078.33,2070,2070,2063.33,2059.67,2049,2038.67,2032.33,2025,2015,2009.67,1998.33,1994.33,1985,1980.33,1974,1969.67,1968,1965.67,1966,1962.67,1962,1965,1966,1387.33,1387.33,1974.33,1972.67,1373,1370.67,1366,1361.67,1359.33,1352.67,1346,1339.33,1335,1328.67,1322,1909.33,1905,1901,1898.33,1890.67,1884.67,1879,1875,1871,1867,1864.33,1860.33,1858.67,1854.67,1851.33,1849.33,1845.33,1840,1834,1830.33,1825.33,1821.33,1814.67,1809.33,1804,1798.67,1791.67,1788,1781.67,1776.33,1771.33,1765.67,1762.33,1759,1752,1748.33,1743.33,1742,1742,1741.67,1739.67,1739.67,1743,1743,1744.67,1163,1163,1161.67,1163.33,1161.67,1160,1158.33,1158.33,1153.33,1151.67,1147,1143.67
0,0,0,0,0,0,0,0,0,0,0,0,0,0,0,0,0,0,0,0,0,0,0,902,450,449.333,897.667,896.667,895.667,893.667,891.667,890.667,889.667,889.667,886.667,885.667,441.333,441.333,441.333,0,0,0,0,0,0,0,0,0,0,0,0,0,0,0,0,0,0,0,0,0,292.667,292,291,290,288,287.333,286.667,285.333,284.667,0,0,0,0,0,295,0,0,0,0,0,0,0,0,0,0,0,0,0,0,0,0,0,0,219.667,437.667,436,0,434.333,651,650.333,650,649.333,649.333,648,648.667,647.667,646.667,645.333,644.333,643,641.667,640.333,639.333,638.333,638,637.333,636.667,637,637,637,636.667,636.667,636,635,0,0,0,0,0,0,0,0,0,0,0,0,0,0,0,0,0,0,0,0,0,400,200,198.667,0,0,196,388.333,0,0,0,0,0,0,0,187.667,375,0,373.667,373.333,372.667,372,371.333,370.667,370.333,369.667,369.333,368.667,368,367.333,366.667,366,365,364,363,362.333,558.333,558,557.667,557.667,557.667,557,556.333,556.333,556,555.667,555.333,554.667,553.667,552.333,552,551.333,551,550,549.667,548.667,351.667,351,547,547,547,349.333,546,348.333,348,546.667,546.333,546,545.333,545.333,545,545,545,345.333,345,345,345,344.333,344.333,344,344,343.333,343,343,342.333,342.333,342.333,342,341.333,341,341,340.333,340,339.667,339.333,339,339,339,339,339.333,339.667,339.667,340.333,340.667,341,341.333,341.667,342,342.333,342.667,343,343.333,343.333,343.333,343.667,344,344.333,539.667,540.333,541,541.667,542.333,543,544,545.333,546.333,547.333,548.667,549.667,551,552.333,553.667,555,555.667,556.667,558.333,377,0,194,0,0,0,0,0,0,0,0,0,0,0,0,0,0,0,0,0,245,247.333,0,501,503.333,504,505,506,507,508.333,509,509.667,510.667,511.333,512.333,513,514,515,515.667,516.667,517.667,518.667,519.333,519.667,520.667,521.333,522.667,524,525.333,526.667,528,528.667,529,265,529.667,529.667,265,0,0,0,0,0,869.667,1743,1747,1750.67,1750.67,1750.67,1758.33,1765.67,1769.67,1765.67,1765.67,1754.67,1746.67,2308,2300.67,2285,2270.33,2263.67,2256.33,1682.67,1686,1686,1686,2207.67,2199.67,2192.67,2186.67,2185.33,2180.67,2184.33,2181.67,2183.67,2179,2185.67,2185.67,2183.67,2184.67,2179,2165.33,2154.33,2144,2136.67,2122.33,2116.33,2109,2099,2091.67,2091.67,2090,2090,2085.67,2080,2071.67,2073.33,2066.67,2061.33,2055,2047.33,2036.67,2026.67,2021.67,2016.67,2007.67,2001,1994.33,1985,1979.67,1978,1973,1971.33,1970.67,1970,1966.67,1969.67,1972.33,1974.67,1983.33,1985.67,1983.67,1982.67,1984,1977.33,1364,1359.33,1354.67,1946.67,1339.33,1932.33,1925.67,1917.67,1913.33,1909.33,1904.67,1900.67,1896.33,1894.33,1886.33,1882.33,1876.67,1874.33,1870.33,1866,1860.33,1858.33,1854.67,1851,1849,1845.33,1839.67,1834,1830.33,1823,1814.67,1811,1804,1800.33,1795.33,1788,1783.33,1779.67,1773,1767.33,1762.33,1757.33,1757.33,1753.33,1748.33,1745,1745,1746.67,1745,1743,1744.67,1743,1743,1746,1746.33,1163.33,1746.33,1746,1744.33,1742.67,1156.67,1733.33,1728.67,1722,1715.33
0,0,0,0,0,0,0,0,0,0,0,0,0,0,0,0,0,0,0,0,0,0,0,0,0,0,896.667,896.667,895.667,446.333,445.333,445.333,444.333,443.333,442.333,0,0,0,0,0,0,0,0,0,0,0,0,0,305.333,303.667,151,150.333,150,149.333,0,0,0,0,149.333,149.333,149.667,149.667,149.667,0,0,0,0,0,0,0,0,0,229,458.333,458.333,229.333,229,0,228.667,0,0,0,0,0,0,0,0,0,0,0,222.333,221.333,439.667,437.667,435.667,434.333,650.333,650,649,648.333,648,647.333,647.333,647.333,645.667,644.667,644,643,641.667,641,640,638.667,638,637.333,636.667,636.333,636,636.333,636,636,635,635.333,634.667,633.333,632,418.333,416.333,414,206,205.333,205.333,409,408.333,408,0,0,0,406.667,405.667,405.333,405,404,403,402,400,398,199,393.667,195.333,390.667,389,387.333,385.667,191.333,0,0,0,188.333,375.333,375.333,374.333,374,373.333,372.667,372,371.333,370.667,370,369.333,369,368.333,367.667,367,366,365.333,364.667,363.333,362.333,362,361,558,557.333,359.333,557.667,357.667,557,556.333,555.667,356.333,555.333,355.333,553.667,553.333,552.333,551.333,551,550,549.333,351,350.333,350,349.667,349,546,545.667,545,347.667,347,347,545.667,545.667,545,544.667,544.333,544.667,544.667,544.333,344.667,344.333,344.333,344,343.667,343.333,343,342.667,342,342,342,341.333,341,341,340.667,340.333,339.667,339.667,339,339,338.667,338.333,338.333,338.333,338.333,338.333,338.667,338.667,339.333,339.667,340,340.667,340.667,341.333,341.667,342,342.333,342.333,342.333,342.667,343,343,343.333,343.667,344.333,345,345.333,346,541.333,542,542.667,544,545.667,546.667,547.333,548.667,549.667,551,552,553.333,554.333,555.333,556.333,193,0,0,0,0,0,0,0,0,0,0,0,0,0,0,0,0,0,0,0,248.333,250.333,501.667,503,504,504.333,505.333,506.333,507,508,508.667,509.333,510.667,511.333,512,513,513.667,514.667,515,516.333,517.333,518,518.667,519.667,520.333,520.667,521.667,522.667,524,525.333,526.333,527,527.667,528,264,528,0,0,0,0,0,0,1728.33,1739.33,1743,1743,1747,1750.67,1750.67,1758.33,1765.67,1769.33,1765.67,1762,2321,2315.33,2299,2291.67,2276,2262,2254.67,2250,1686,1686,1682.67,1682.67,2205,2196.33,2192.67,2184.33,2185.67,2185.67,2187.67,2185,2185.33,2187,2187,2185,2181.67,2175.67,2165.33,2151.33,2142.67,2133.67,2122.33,2116.33,2109,2099,2097.33,2091.67,2091.67,2090,2084.33,2078.67,2073.33,2072.33,2068.33,2065.67,2059.33,2051.67,2043.67,2036,2026.67,2021.67,2017.33,2004.33,1997.67,1991.33,1987.33,1981.33,1976.33,1976,1973.67,1974.67,1975.33,1976,1978.67,1982.67,1986.67,1993.67,1992.33,1991,1988,1983.33,1366.33,1361.67,1956.67,1348.33,1939,1934.33,1927.67,1922,1917.67,1913.33,1908.67,1904.67,1902.67,1898.67,1894,1890,1884,1880.33,1874.33,1870.33,1864.33,1862.33,1856.67,1854.67,1851,1845.33,1839.67,1836,1830.33,1825,1816.33,1811,1804,1798.67,1793.33,1788,1783.33,1779.67,1773,1767.33,1764,1762.33,1759,1755,1749.67,1748.33,1746.67,1745,1743.33,1743,1743,1739.67,1741.33,1161.67,1160,1161.67,1741.33,1739.67,1158,1736.33,1734.67,1730.33,1723.67,1718.67,1712.33
0,0,0,0,0,0,0,0,0,0,0,0,0,0,0,0,0,0,0,0,0,0,0,0,0,0,0,0,0,0,0,0,0,0,313,156.667,0,0,156.667,156.667,156.333,309,153,463,461.667,306.667,459.667,458.667,456.667,454.667,302.333,301.333,300.333,448.667,447,446,445.333,445,445,445,445.333,149.333,149.667,149.667,0,0,0,0,0,0,228,228,457,457,457.333,457.333,228.667,228,228,0,227.667,227,453.667,453.333,453.333,0,0,0,0,0,442.667,440.667,0,435.667,651,649.667,648.667,648.333,646.667,646.333,645,645,644.667,643.667,643.333,642.333,641.333,640.333,639.667,638.667,638,637,636.333,635.333,635.333,635,635,635.333,634.667,634.667,634.333,633.667,633.333,632,418.667,417.333,415.333,413.333,206,205.333,409.667,409.333,408,0,0,0,0,203,405.333,404.333,403.333,402.333,401.333,399.667,398,396.333,394.333,195.333,391,389,387.667,386.333,384.333,191,0,0,0,376,374.667,374,373.333,373.333,372.333,371.667,370.667,370.333,369.667,369,368.333,367.667,367,366.333,365.333,364.667,364,363,362.333,361.333,360.667,359.667,558.333,557.667,358,357.333,557.333,356.333,556.333,556,555.333,554.667,353.667,553.667,552.333,551,550.333,549.667,549,350,350,349.333,348.667,348.333,347.667,347.333,544.333,347,543.667,346,345.667,345.333,545,345,544.333,543.667,544,544.333,543.667,543.333,343.667,343.667,343.333,343,342.333,342.333,341.667,341.667,341.333,340.667,340.333,340.333,340,339.333,339.333,339,338.333,338,338,337.667,337.333,337.667,337.667,337.667,337.667,338,338.667,338.667,339.333,339.333,340,340.667,341,341.333,341.667,341.667,341.667,342,342,342.333,342.667,343,343,343.667,344,345,540,540.667,541,542.333,543.333,544.333,545.667,546.333,547.333,548,549.333,550.667,552,553,553.667,554.667,192,191.333,0,0,0,0,0,0,0,0,0,0,0,0,0,0,0,0,0,495,496.333,500,502.333,503.333,504,504.333,505.333,506.333,507.333,507.667,508.667,509.333,510.333,511,512,513,513.333,514.333,515,516,516.667,517.333,518.333,519,519.667,520.333,521,521.667,522.667,524,524.333,525,525.333,526.667,526.667,526.667,527.333,527.667,0,0,0,0,0,1732,1735.67,1739.33,1739.33,1747,1750.67,1758.33,1765.67,1769.33,1769.33,1762,1750.67,2315.33,2306.33,2293.67,2276,2262,2253.33,2248.33,2243.67,1682.67,1682.67,1679.33,1679.33,2199,2190,2189,2183.33,2183.67,2187.67,2186.33,2183.33,2185,2187,2185,2181.67,2174,2160.67,2149.67,2142.67,2133.67,2122.33,2113.67,2109,2101.67,2099,2094.67,2091.67,2091.67,2086,2080.33,2075,2074,2072.67,2070,2063.67,2058.33,2048,2041.33,2036,2029.33,2021,2011.67,2004,1997,1992.67,1986,1979.67,1979.67,1982.33,1981.67,1980,1981,1986,1989.33,1993.67,1996,1995,1991.33,1991,1986.33,1368.67,1364,1357,1948.67,1941,1936.67,1932,1926,1922,1919.67,1915.67,1910.67,1906.67,1901,1898.33,1894.33,1888,1882,1878.33,1872.33,1868,1860.33,1856.67,1852.67,1851,1843.33,1840,1836,1830.33,1823.33,1818,1809.33,1804,1800.33,1795.33,1788,1785,1779.67,1773,1769,1767.33,1764,1760.67,1758.33,1753,1751.67,1746.67,1746.67,1745,1741.33,1739.67,1739.67,1738.33,1738.33,1738.33,1738.33,1736.33,1736.33,1733,1731.33,1730,1725.33,1720.33,1715.33,1709.33
0,0,0,0,0,0,0,0,0,0,0,0,0,0,0,0,0,0,0,0,0,0,0,0,0,0,0,0,153,0,0,0,155,155.333,0,155.667,0,0,0,0,308.333,462.667,462,461.333,460.667,459.333,458.667,457.333,455.667,454,452.333,451,449.333,447.667,445.667,444.667,444.333,444,444.333,444.667,444.667,445.333,297.333,149.667,0,0,0,0,0,227.333,454.333,454.667,455.333,455.333,455.333,455.333,455.333,455.333,455,453.667,226.667,452.667,452.667,452,451.667,450.667,449,446.667,444.667,442.667,440.667,439,436.333,434.333,649,648.333,647,646.667,645,644,643.333,642,642.333,641,640.333,639.667,639,638,637.333,636.667,636,635.667,635,634.333,634.333,634,633.667,633.667,634,633.667,633,632.667,632,418.667,417.333,416,414.333,413.333,411.667,410.333,409.333,408.667,407.667,407.333,203.333,0,202.333,404,403,402.333,401.333,401,399.333,398.333,396.333,394.667,195.667,391.333,389.667,388,386.667,384.667,382.667,381,0,189,376,375,374,373.333,372.667,372.333,371.667,371,370,369.333,368.667,367.667,367,366.333,365.667,365,364,363.333,362.333,362,361.333,360.333,359.667,358.667,358,557.667,356.667,356.667,356.333,355.667,556,555,354,554,553,552.333,551,550.333,549.667,548.667,349.333,348.667,348.667,348,347.333,544.333,346.333,346.333,345.667,345.333,345,345,345,344.333,344.333,344.333,344,543,543.333,543.333,543,343.333,343,343,342.333,342,341.667,341.667,341.333,341,340.667,340.333,340,340,339.333,339,338.333,338,337.667,337,337,337,336.667,336.667,337,337,337.333,338,338.333,338.667,339,339,340,340,340.667,341,341.333,341.667,341.667,341.667,341.667,342,342.333,342.333,342.667,343,343.333,344.333,345,346.333,347.333,348.667,350,351.667,353.333,354.333,356,357,358.333,359.333,360.333,361.333,552.333,553.667,191,0,0,0,0,241.667,241.333,240.667,240.667,239.667,0,0,0,0,0,0,0,0,0,499.667,501,503.333,504.333,504.667,505,505,505.667,506.333,507.333,508,508.333,509.333,510,510.667,511.667,512.333,513,514,514.667,515.333,516.333,517,517.667,518.333,519,519.667,520.333,521,522,522.667,523.667,524.333,524.667,524.667,525,525.333,526.667,527.333,263.333,0,265.667,0,0,0,1728.67,1732,1735.67,1739.33,1747,1754.33,1769.67,1773.33,1769.67,1762,1758.33,1750.67,2313.67,2297.33,2279.67,2264,2257,2250.33,2239,2233,1682.67,1679.33,1675.67,1675.67,2194,2188,2187.33,2186.33,2187,2184.33,2182.67,2189.67,2185.67,2186.67,2178.67,2171,2160.67,2146.67,2141,2132,2123.67,2115,2110.33,2104.33,2100,2094.67,2094.67,2091.67,2086,2080.33,2076.67,2075.67,2072.67,2071.67,2063.67,2058.33,2051.67,2043.67,2039.67,2032.67,2021.67,2013.67,2007,2002.67,1995.67,1989.67,1987,1987,1987.67,1986,1986.67,1987.67,1990,1994.33,1996,1396.33,1394,1996,1382.33,1375.33,1371,1969.67,1959.67,1951,1942.67,1940.67,1934.33,1930.33,1926.33,1921.67,1917.67,1915,1911.33,1907,1900.67,1898.33,1892.33,1886,1880,1876.33,1872,1864.33,1858.33,1854.67,1851.33,1845.67,1840,1836,1830.67,1825.33,1818.33,1811.33,1802.33,1798.67,1795.33,1790.33,1783.33,1781.33,1776.33,1772.67,1771,1765.67,1762,1760,1756.33,1754.67,1750,1750,1748.33,1741.33,1739.67,1739.67,1738.33,1736.67,1735,1734.67,1733,1731.33,1729.67,1726.67,1723.67,1720.33,1714,1714,1707.67
0,0,0,0,0,0,0,0,155.333,0,0,0,0,153,304.333,304,304,0,0,152.667,0,0,0,0,0,152.667,152.667,304.667,305.667,306.333,153.667,154.333,309,309.667,310.333,310.667,310.667,311,310.667,310.333,462.667,462,461,460.333,459.333,458.667,457.667,456.333,454.667,453.333,451.333,450,448,446.333,444.667,443.667,443.333,443,443.667,443.333,444.333,444.667,445.333,446,149.333,0,0,226,226.667,452.667,453.333,453.667,453.667,454,454.667,454.333,454.333,453.667,453.333,453,452.333,451.667,451.333,451.333,450.333,449.333,448,445.667,443.667,441.667,439.667,437.667,435.333,649.333,648,646.667,645.333,644,643.667,641.667,640.333,640,639.333,638.333,637.667,637.667,636.667,636,635.333,634.667,634.333,633.333,633.667,633.333,633,632.667,632.667,633,633,632.333,631.667,631,418.667,629.333,416.333,415,413.667,412.333,411.667,410.333,409.333,408.667,407.667,406.667,406,404.667,403.333,402.667,401.333,400.333,399.333,398.667,397.667,396.333,394.667,196,391.667,390,388.667,386.667,385,383.667,381.667,380,379,376.667,375.333,374.333,373.333,372.667,372,371.667,371,370,369.333,368.667,367.667,366.667,365.667,365,364.333,363.333,363,362,361.333,360.667,360,359.333,358.333,357.667,357,356.667,356,355.667,355,354.667,555,554.333,553.333,553,351.667,551,350.667,549.333,548.667,348.667,348,347.333,347,346.667,346,345.333,543,344.667,344.667,344.333,344.333,344,344,344,343.667,343.333,343.333,343.333,542.667,542.667,542,343,342.333,342,342,342,341.333,341.333,341,340.667,340.333,340,339.667,339.333,339,338.667,338.333,337.667,337.333,337,337,336.667,336.667,336.667,336.667,337,337.667,338,338,339,339,339.667,339.667,340.333,340.667,341,341.333,341.333,341.333,341.333,341.333,341.333,341.667,342,342.333,342.333,343,343.667,344.333,345.667,347,348.333,349.667,351.333,353,354,355.667,356.667,547.667,358.667,359.333,549.667,550.667,551.333,0,0,0,0,241,240.667,240,239.667,239.667,0,238,0,0,0,0,0,0,0,0,498.667,501.667,503.667,504.333,504.333,504.667,504.667,505.333,506.333,507,507.333,508.333,508.667,509.667,510.333,511,512,512.667,513.333,514,515,516,516.333,517.333,518,518.333,519.667,520,520.333,521.333,522.333,523,523.667,524,524.667,525.333,525.333,527.333,528,264.667,0,0,0,0,0,0,1721.33,1728.67,1728.67,1735.67,1747,1762,1765.67,1766,1762,1754.67,1750.67,2310,2301,2278.33,2264,2253.33,2247,2243.67,2234.33,2226.67,1679.33,1675.67,1672.33,1672.33,2187.33,2190,2185.67,2186.33,2185.33,2185.67,2187.67,2185.67,2184.67,2180.33,2171,2163.67,2148.33,2141,2132,2123.67,2113.33,2110.33,2105.67,2100,2094.67,2094.67,2091.67,2090.67,2084.67,2079.33,2075.67,2071.67,2069,2063.67,2059.33,2054.33,2047.33,2043,2034.67,2027.67,2014.33,2010.33,2003.67,1999.67,1997,1992,1993.33,1990,1992,1997.33,1996,1995.67,1997.67,1403.33,1398.67,1394,1994.33,1384.33,1377.67,1371,1970,1963.67,1957.33,1947,1942.67,1936.67,1930.33,1930.33,1926.33,1924,1917.33,1913.33,1911.33,1904.67,1900.33,1896.33,1890.33,1884,1875.67,1872.33,1866.33,1860.33,1854.67,1851.33,1846,1840,1838,1830.67,1824,1820.33,1811.33,1806,1802.67,1797,1792.33,1787,1783.33,1778,1774.67,1772.67,1770.33,1767,1763.67,1759.67,1758,1753.33,1750,1748.33,1746.67,1741.33,1739.67,1738,1734.67,1733,1731.33,1731.33,1729.67,1728.33,1726.67,1723.33,1718.67,1712.33,1709.33,1709.33
0,0,0,0,0,0,0,0,0,154.333,154.333,153.667,153.333,153,304.667,304.667,304.667,304.667,0,0,0,0,0,0,305.333,305.333,305,305.333,305.667,306.333,153.667,0,308.333,309,309.667,310.333,310.333,310.667,310,461.667,460.667,460,460,459,457.667,456.667,455,453.667,452,450.333,449,447.333,445.667,444,442.667,442.667,442.333,442,442.667,443.333,443.333,444.333,445,446,149.333,0,0,450,451,451.667,452,452.667,453,453.333,453.333,453.333,453.333,452.333,452.667,451.667,451.333,451.333,450.667,450.333,450,449.333,447,445,442.667,440.667,438.667,436.333,649.333,647,645.667,644,643,641.667,640.333,639.333,638.667,637.667,637,636.333,636,634.667,634.667,633.667,632.667,632.667,632.333,632,631.667,631.333,631.667,631.333,631.333,631.333,631,630.667,630.333,629.667,629,628,415,413.667,413,412,410.667,410.333,409.333,408.333,407,406.333,405,403.667,201.333,400.667,399.667,398.333,398,0,0,395,393.333,391.667,390,389,387.333,385.333,384,382.333,380.667,379,377.667,376,374.667,373.333,372.667,372,371.333,371,370.333,369.333,368.667,367.667,366.667,365.667,365,363.667,363,362.667,362,361,360.667,359.333,358.667,358,357.667,357,356.333,558,557.333,556.667,556,353.667,554,553,552,551.333,551,549.667,549.333,549.333,348.333,347.667,347,346.333,345.667,545.333,345,543.333,344.333,344,344,343.333,343.333,343,343,343,343,342.667,342.667,541.667,342.667,541.667,541.333,342.333,342,342,342,341.333,341.333,341,340.667,340.667,340.333,339.667,339.333,339.333,338.667,338.333,337.667,337.333,337.333,337,336.667,336.667,336.667,336.667,337,337.333,337.667,338,338.667,339,339.333,339.667,340,340.333,340.667,340.667,340.667,341,341,341.333,341.333,536.333,341.333,341.333,341.667,535.667,535.667,536,537,537.667,539,540,540.667,541.667,543,543.667,545,545.667,547,547.667,548.333,549,549.667,189.333,0,0,0,0,240,239.667,479.333,239,238.667,238,237,235.667,0,0,0,0,0,0,0,496.667,500.333,503.667,503.667,504.333,504.333,504.333,505.333,505.667,506.667,507.333,508,508.667,509.333,510,794.333,795.333,796,797,513.667,514.333,515.667,516.333,517,518,518.333,519,519.667,520.333,521,521.667,522.333,523,523.333,523.667,524.667,526,527.333,528.667,529.333,531.667,266.667,0,0,0,0,0,862.333,1714,1721.33,1735.67,1750.67,1758,1758.33,1750.67,2323.33,2314,1743,2293.67,2274.67,2257,2248.33,2248.33,2245.33,2237.33,2225,2218.67,2205,1669,1672.33,1665.67,2188.33,2186.33,2187,2184.67,2189.67,1638.67,2188.67,2183,2180.33,2168,2158.67,2151.33,2142.33,2133.33,2124.67,2114.67,2111.67,2104,2098.33,2095.67,2094.67,2091.67,2086,2082,2079.33,2075.67,2073,2067.33,2062,2057.67,2053.67,2046.67,2039.67,2033,2024.67,2020.33,2013.67,2007.33,2004.67,1999.33,1999.67,1998.33,1996.67,1999,2001.33,2000,1998,2002.67,2002.67,1999,1394,1995,1990,1981.33,1977,1970.67,1962,1957.33,1951,1946.67,1940.33,1937,1932.67,1930.67,1926,1919.67,1916,1914,1907.33,1905,1898.33,1890.33,1884,1876,1870.33,1868.33,1860.67,1854.67,1851.33,1845.67,1838.33,1834.67,1829.33,1824,1818.67,1813.33,1808,1802.67,1797.67,1792.33,1788.67,1783.33,1779.67,1776.33,1775.67,1770.33,1770.33,1768.67,1763,1758,1755,1753.33,1748.33,1743.33,1743,1738,1736.33,1734.67,1731.67,1731.33,1728,1725.33,1723.67,1722,1719,1714,1712.33,1709.33,1706
0,0,154,154.333,0,0,154.667,154.667,154.667,154.333,154,305.333,455.667,455.667,304.667,304.667,305,305,0,0,0,0,0,0,0,152.667,153,153,153,306.333,307,307.667,308.333,309.333,309.667,310.333,310.333,310.667,310,460.667,459.333,458.667,458,457,456.333,454,453.333,451.667,449.333,448.333,446.333,444.667,443.667,442.333,441.667,441.667,441.333,441.667,441.667,442.333,442.667,443.667,444,445,445.333,0,0,449.333,450,450.333,451,451.333,451.667,451.333,452,452,451.667,450.667,450.667,450.333,450.333,450.333,449.667,449.667,449,448.333,446.667,444.333,441.333,439.333,437.333,434.667,646.333,644,642.667,641.333,640,639,638.333,637,636.333,635.333,635,633.667,633,632.667,631.667,630.667,630.667,630.333,630.333,630.667,630.333,630.333,630.333,630.333,630,630,630,629,628.667,628,626.667,625.667,413.667,412.667,411.333,410.333,409.333,409,408.333,407.333,405.667,404.333,403.333,201,400.333,398.667,397.667,396.333,198,197.667,196.333,392.333,390.667,389.667,388.333,387,385.333,383.667,382.333,380.667,379.333,377.667,376.333,375,373.667,372.667,372,371.333,370.667,370,369.333,368,367.333,366.667,365.667,364.667,363.667,363,362.333,361.667,360.667,360,359.333,358.667,358,357.333,560,559,558,557,354.667,555.667,555,554,352.667,552,551.333,350.667,550,549.333,548.667,348,347.333,346.667,346,345.333,345,344.333,543.667,542.333,343.333,343,342.667,342.667,342.667,342.333,342.333,342.333,542,542,541.333,541,541,342,541,342,342,341.667,341.333,341,341,341,340.667,340,340,339.667,339.667,338.667,338.333,338,337.667,337.333,337.333,337,337,336.667,336.667,336.667,337,337.667,338,338,338.667,339,339.333,339.667,340,340,340,340.333,340.333,340.333,340.667,340.667,340.667,535.667,341,341,535,535,535,535.333,536,537,538,539,539.667,541.333,542.667,543.667,544.333,545.333,546,546.667,547.333,548.333,549,0,0,0,0,239,478.667,478.333,477.667,238,238,237.333,473,235,233.333,0,0,0,0,0,0,248.667,250.333,503,503.667,504,504,504,504.667,505.667,506.333,507,507.667,508.333,509,793.333,794,795,795.667,796.333,797,514,515,515.667,516.667,517.667,518.333,519,519.667,520.333,520.667,521.667,522.667,523,523.333,524,524.667,527,528,529.333,530.667,532.333,557.333,0,0,290.667,573,292.333,293.333,294,295,296.333,298.333,0,0,877.333,1746.67,1743,1735.67,1728.33,2269.33,2255.33,2248.33,2247,2245.33,2234,2224,2219.67,2210.67,2203.67,1669,1662,1658.67,2190,2186,2185.67,2186,1632.33,1622.67,2183.33,2178.67,2168,2158.67,2152.67,2140.67,2131.67,2126,2115.67,2113,2104,2101.33,2098.67,2097.33,2088.67,2086,2082,2076.67,2074,2070.33,2064.67,2060.33,2056,2052,2047.67,2039.33,2035,2030.67,2024,2017.33,2010.67,2009.67,2007,2005.67,2004,2004.67,2005.33,2005.33,2006,2004.67,2005,2001,1401,1994.33,1387,1384.33,1979.67,1975.33,1970.67,1962,1955.33,1951,1948.67,1945,1941,1934.67,1931,1928.67,1924.67,1920.33,1912,1909.67,1903.33,1896.67,1890.33,1884,1876,1870,1866.67,1860.67,1853.33,1849.67,1842,1836.67,1833.33,1829.67,1826,1820.67,1815.33,1806.33,1802.67,1799.67,1792.33,1788.67,1785,1783,1781,1777.33,1772,1770.33,1768.67,1767,1761.33,1759.67,1756.67,1751.67,1170,1741.33,1739.33,1734.67,1733,1730,1730,1723.67,1722,1722,1717,1714,1710.67,1707.67,1706,1702.67
152.333,304,305.333,153,153.667,306.333,154.333,154.333,307,306.333,456.667,456.667,456,455.667,455.667,455.667,456,305,305,305,305.667,306,306,306,305.667,306,306,305.667,305.667,306.333,306.667,307.667,308,308.667,309.333,309.667,310,458.667,458.667,458.667,458.333,457.667,457,455.667,453.333,451.667,450.667,448.667,447,445.333,444.333,442.333,441.667,441,440.667,440.667,440.333,441,441,441.333,442,443,443.667,444.667,444.667,0,224.667,448.667,448.667,449,449.667,450,449.667,450,450,450,449.667,449,449,448.667,449,448.667,449,448.667,448,447,445.333,443,440.667,438.667,436,433.333,644.667,642.333,640.667,639,638.333,637,636.333,635,634,633.333,632.667,631.667,631,630.333,629.333,628.667,628.667,628.333,628.667,628.667,628.333,628.667,628.333,629,629.333,628.667,628,628,627.333,626.333,625,624,622.667,411,410.333,409.333,408.667,408,407,406,404.333,403,402,400.667,199.333,397.333,395.333,394.333,393,392.333,391,389.667,388.333,387.333,385.667,385,383,381.667,380.333,379,378,376.333,375.333,374,372.667,372,371,370,369.333,368.667,368,367,366.333,365.667,364.333,363.667,363,362.333,361.667,360.667,360,359.333,358.667,358,357.333,356.667,356.333,558.667,557.333,556.333,555.667,554.667,352.667,552.667,551.667,351,350.667,549.667,349,548.333,547.667,347.333,346.333,547.667,547,546.333,344,343.333,543,342.667,342.667,342.667,342.333,342.333,342,342,342.333,342,342,542,341.667,540.667,341.667,341.667,541,342,342,341.333,341.333,341,341,341,340.333,340,340,339.333,339,338.667,338.333,338,337.667,337.333,337.333,337,337,337,337,337.333,337.333,337.667,338.333,338.667,339,339.333,339.333,340,339.667,340,339.667,340,340,340,340,340.333,340.333,340.333,340.667,535,534.667,534,534.333,535,535.667,536.667,537.667,538.333,539.333,540.333,542,543.333,544.333,545.333,546,546.667,547,547.667,548,0,0,0,0,237,475,475,709.667,709.333,708.333,706.333,704.333,701.667,699,465.667,464,467,471.333,0,0,0,250,502.667,503,504,504,504,504.333,505.333,505.667,507,507.333,507.667,508.667,792.667,793.667,794.333,795.333,795.667,796.667,797.667,514.667,515.333,516.333,517.667,518,519.333,520,520.667,521,522,522.667,523.667,523.667,524.333,525.333,527,529,530.667,532,823.667,827.333,831.667,0,276.667,561.667,861,867.667,874,881,593.667,298.667,301,302.667,0,0,0,0,0,851.667,1686,1679.33,2238.67,2233.67,2232.33,2222,2215.67,2211.33,2203.67,2198,1655.33,1652,1648.67,2186.33,2186,2187,1626,1619.33,1610,2179,2169.67,2158.67,2152.67,2144,2134.67,2128.67,2115.67,2113,2104,2101.33,2095.67,2097.33,2088.67,2085,2082,2079.33,2074,2068.67,2063,2061.33,2054.33,2050.33,2048.67,2043,2038.67,2031.67,2027.67,2022.33,2017.33,2015,2013.67,2014.33,2014.67,2015.33,2014,2012.33,2010,2006.67,2005,2002,1996,1394,1985.33,1982.67,1976,1971.33,1969,1962,1957.33,1955.33,1953,1946.67,1941,1937,1933.33,1929,1924.33,1918.67,1912.33,1906,1903.33,1894.67,1888.33,1884,1876,1872,1866.33,1861,1853.67,1847.67,1844,1838.33,1833.33,1830,1826.33,1821,1815.33,1810,1804.33,1799.67,1795.67,1790.33,1788.67,1784.33,1782.67,1781,1777,1773.67,1772,1768.67,1764.67,1759.67,1758,1175,1173,1169.33,1739.33,1738,1733,1731.67,1728.33,1723.67,1720.33,1718.67,1717,1712.33,1710.67,1706,1704.33,1704.33
152,303.667,302.667,152.667,456.333,457.333,457.667,457.667,457.667,457.333,456.667,456.667,456,455.667,455.333,455,455,455,305,305,305.667,306,306,306,305.667,305.667,306,305.667,305.667,306,306.667,307.333,307.667,308.333,309,309.667,309.667,309.333,309.333,308.667,308.333,307.333,453.333,450.667,448.333,445.667,445.667,295.667,443,442,294,439.667,439.333,439.333,439.667,439.667,439.333,440,440.333,441,441.333,442.333,443,444,148.333,594.667,446.667,447,447.667,447.333,447.667,448,448,447.667,447.667,447.667,447.333,447,447.333,447.333,447.333,447.333,447.333,446.667,446,445.333,443,440.667,438.667,436.667,434,645,642,639.667,638.333,637,636.333,635,634.333,633,632,631,630.667,629.667,629.333,628.333,627.333,626.667,626.333,626.333,626.667,626.667,626.667,627,627.333,627.333,627.333,627.667,627.333,626.333,625.667,624.667,624,622.667,410.667,409.667,409.333,408.333,408,406.667,405.667,404.667,403.333,401.667,400,398,396.333,395,393.333,392,390.667,390,388.667,387.667,386,384.667,384,382.667,381.333,380,379,377.667,376.333,375,374,373,372,370.667,370,369,368.333,367.333,366.667,365.667,365,364.333,363.667,363,362.333,361.333,360.667,360,359.333,358.667,358,357.333,357,560,356,557.667,556.667,555.333,554.667,352.667,552.667,551.667,550.333,550,349.333,348.667,547.667,347.333,346.667,346,546.667,546.667,546.333,546,544.667,543.667,542.333,342.333,342,342,342,341.667,341.667,341.667,341.667,342,541.667,541.667,541,540.667,540.667,341.667,540.667,341.333,341.333,341.667,341,341,341,341,340.667,340,339.667,339.333,339,338.667,338.333,338,338,337.667,337.333,337.333,337.333,337,337.333,337.333,337.667,338.333,338.333,339,339,339.333,339.667,543,543,543.333,339.667,339.667,339.667,339.667,340,340,340,340,535,534.667,535,534.667,534,534.333,535.333,536,537,538.333,539,540,541,542.667,543.667,544.333,545,545.333,546,547.333,359.333,0,0,0,235.333,235.333,706,706,706,705.333,705.333,702.667,700.667,698,696,694.333,462.333,463.333,466,0,0,0,0,502,502.333,502.667,503,503.667,504,504.667,505.667,506.333,506.667,507.333,508,792.333,793,793.667,794.667,795.667,796.333,797.333,514,515,516,517,518,519.333,520,520.667,521.333,522.333,523,524,524.333,525,526.667,528,529.667,820.667,823.333,825,828.333,833,838.333,554.667,853.333,860.667,866.667,873.667,881.333,890,897,602.667,606.333,610,306,307.333,308.333,308.667,308.333,0,0,841.333,1672.33,1668.67,1668.67,1665.33,1658.67,1658.67,1658.67,1655.33,1648.67,1642,1635.67,2185.67,2185.33,1626,1616,1607,2180.67,2168.33,2160.33,2151.33,2145.67,2134.67,2125.67,2117.33,2113,2104,2101.33,2097.33,2097.33,2091.67,2087.67,2085,2079.33,2074,2071.33,2061.33,2059.67,2055.33,2053.67,2048,2044,2037,2035.67,2030.33,2030.33,2029,2025.33,2024.67,2025,2021.33,2024,2024.67,2018.33,2017,2011.33,2007.67,2004.33,1996,1989,1983.67,1979,1976,1971.33,1964.33,1962,1957.33,1955.33,1953,1944.33,1940.33,1936.67,1933.33,1926.67,1920.67,1916.33,1910.33,1902,1899.33,1894.67,1886.33,1882,1878.33,1872,1864.67,1859.33,1855.67,1848,1842.33,1837,1831.33,1829.67,1826.33,1821,1815.33,1810,1806.33,1804.67,1800.67,1793.33,1790,1788,1784.33,1784.33,1779,1775.33,1772,1770.33,1766.67,1761.33,1758,1755,1749.67,1746.33,1741,1739.67,1734.67,1730,1726.67,1722,1718.67,1718.67,1715.33,1709.33,1709,1706,1704.33,1702.67
303.333,454.667,455,455.333,455.333,456,456.333,456.333,456.667,456.333,456,456,455.667,455.333,455,454.667,454.333,454,305,305,305.667,305.667,306,306,305.667,305.667,305.667,305.333,305.333,305.333,305.667,153,306.333,153.333,307.667,308,296,296.667,297,144,144,293,296.333,148.333,292.667,292,0,439.667,439,438.333,437.667,437,291.333,291.333,438,438.333,438.333,439,439.333,440.333,441,442,148,0,148.333,594,445.667,445.667,446,445.667,445.667,446,446,445.667,445.667,445.667,445.333,445.333,445.333,445.333,445.667,445.667,445.667,445,444,443.333,441,439.333,436.667,434.667,432,642.667,639.667,638,636.333,635,635,633.333,632.333,631.333,630.667,629.667,629,628,627.333,626.667,626.333,625.667,625.667,625.333,625.667,625.667,625.667,625.667,626.333,627,626.333,626.333,626,625.333,624.333,623.667,622.333,621,409.333,408.333,407.667,407.333,406,405.333,404,403,401,399,397.333,395.667,393.667,392.333,390.333,389,388,387.667,386.667,385.333,384,382.667,381.667,380.667,380,378.667,377,376,375,373.667,372.667,371.667,370.667,370,369.333,368,367.333,366.333,365.667,364.667,364,363,362.667,362,361.333,360.667,360,359.333,358.667,358,561.333,560.667,356,559.333,558.667,557,556,555,352.333,552.667,350.667,550.667,549.333,548.667,348.667,547.667,547,346.333,345.667,546.667,546.333,546,545.333,545.333,544.333,342.333,341.667,341.667,341.333,341.333,341.333,341.333,341,341.333,341.333,341.667,341.667,341.667,541,540.667,540.667,540.667,341.667,341.333,341.333,341.333,341,341,341,340.667,340.333,340,340,339.667,339.333,339,338.667,338.333,338,338,337.667,337.667,337.667,337.667,338,338,338.333,338.333,339.333,339.333,339.333,339.333,339.333,542.667,542.333,542.667,542.333,339.333,339.333,339.333,538.667,339.333,339.667,536,535,534.667,534.333,534.333,534,534.667,535,535.667,536.667,537.667,538.333,539.333,540.333,541.667,543,544,544.333,545,545.667,357.667,0,0,0,234,234,469.333,702.667,702.333,703,702.667,702.333,699.333,697.667,694.333,692.667,690.667,459.667,459,459.667,234,0,0,0,248.667,498.667,501.333,502.667,503,503.333,504.333,505,505.667,506,506.667,507,791.667,792.333,793.333,794.333,795,796,797,514,514.667,515.667,517,518,519.333,520,520.667,521.667,522.333,523.333,524.667,525,526.667,527.333,528.667,530.333,821.667,824,825.667,829.667,833.667,839,845.667,562,860.333,866.667,873.667,881.333,890,896.333,903.667,909,914,611.667,614.667,306.667,306.667,306.667,306,305,0,0,0,1665.33,1658.67,1655.33,1655.33,2199.67,2196,1642,1635.67,1629,2185.33,2185,1616.33,1613,1600.67,2176,2168.33,2160.67,2151.33,2145.67,2136.33,2127.33,2120.33,2114.67,2107,2103,2100,2099,2093.33,2087.67,2085,2079.33,2075,2069.67,2065.33,2060.67,2059,2053.33,2049,2044.67,2042,2038,2038,2037,2036,2032.33,2032.67,2036.33,2034.33,2032.33,2033,2027,2021.33,2015.67,2010,2000.33,1992,1985,1979.33,1975,1969.67,1967,1964.33,1959.67,1957.33,1954.67,1951,1944.33,1940.33,1936.67,1337.33,1924.67,1920.33,1910.33,1904,1901.67,1897,1890.33,1882.33,1878.67,1874.67,1870.33,1862.67,1857.33,1851.67,1846,1842.33,1835.33,1831.67,1828.33,1822.67,1821,1817.33,1813.67,1809.67,1806,1802.67,1798.67,1795,1791.67,1789.33,1785.67,1780.67,1777.33,1775.33,1772,1768,1763,1758.33,1756.67,1753.33,1748.33,1744.33,1741.33,1738,1731.33,1728,1723.67,1720.33,1717,1714,1711,1707.67,1706,1702.67,1702.67
453.667,454,454.667,455,454.667,455.667,456,456,305.333,305,305,456.333,456,455.333,454.667,454.333,454.667,305,305,453.333,305.667,452.667,452,306,306,450,305.667,305.333,447,445.667,139,138.333,138.333,138.667,140.333,0,140.667,141.333,142.333,142.333,142.333,142.333,143,285.333,285.333,286.333,144,288.333,436,435.667,435.667,290.333,290,290,436.667,437.333,437.667,438.333,438.667,439.667,440.667,293.333,0,0,222,592.667,444,444.333,444.667,444.667,444.667,444.333,444.333,444,444,444,444.333,444.333,444.333,444,444,444,444,443.333,442.667,442,440,438,435.667,433.333,430.667,641,638.333,636.667,635.333,634.333,633.333,633,631.333,630.667,629,628.667,627.667,626.667,626.333,625.667,625.333,624.667,624.667,624.667,624,624,624.333,624.333,625,625.667,625.333,624.667,624,624,623,622,620.333,619,407.667,406.333,406.333,405.333,404,403.333,402.333,400.333,398.667,397,395,393.333,391.333,389.667,388.333,387.333,386.333,385.667,384.667,383.667,382,381.667,380.333,379.667,378.333,376.667,376,374.667,373.667,372.667,372,370.667,370,369,368,367.333,366.333,365.333,365,364,363.333,362.667,362.333,361.333,360.667,360,359.333,358.667,358,561.333,560.667,560,559.667,559,354.667,556,555.333,352.667,552.667,552,550.667,549.333,548,547.667,547.333,347.333,346.667,345.667,344.667,546.667,546,545.667,545,342.333,341.667,543.667,341.333,341.333,341.333,341,341,341,341,341,341.333,341,541.333,341,541,540.667,540.333,541,341.333,341.333,341.333,341,341,341,341,340.667,340.333,340,170.667,339.667,339.333,170,170,169.667,169.667,169.333,169,169,0,0,169.333,169.333,338.333,338.667,339,339.667,339.667,339.667,542,541.667,541.667,541.667,541.667,541,540.667,339,338.667,339,537,535.667,535,534.667,534,534,534.333,534.333,535,535.333,536,537,538,539,539.667,541,542.333,543,544,355.333,356,357,0,0,0,233,698.667,699,699.333,700,700,699.333,698.667,696.667,694.333,692,689.333,687,457.333,226.333,225.667,0,225.667,0,0,245.667,495.333,499.667,502.667,503,503.667,504,505,505.667,506,506.667,507,507.667,792.333,793,794.333,795,796,797,514,514.667,515.667,517,518,519,520.333,520.667,521.667,523,524,525,526,527.333,528.333,529.667,531,822.667,824.333,826.667,830.333,835,839.667,845.333,852.667,859.667,866,873,881.333,889,896,902,907,912.333,916.667,920.333,922,923,921.667,921,304,302.667,301.333,300.667,0,1662,1655.33,1655.33,2201,1648.67,1639,1629,1622.67,2181.67,2185,1610,1603.67,1594.33,2170,2164,2159.33,2149.67,2144,2138,2129,2122,2116,2111.67,2105.67,2101.67,2099,2093.33,2093.33,2087.67,2080.67,2077.67,2073.33,2063.67,2059,2057.67,2054.33,2047.33,2047.33,2043.33,2040.67,2044.67,2043.67,2041.67,2040.33,2043.67,2044.33,2040.33,2040.67,2034.67,2031.33,2025.33,2015.33,1415.67,1406,1990.33,1983.33,1977.67,1973.33,1968,1963,1962.33,1959.67,1955,1952.67,1948.67,1944.33,1938.33,1934.33,1930,1922,1916,1910,1903.67,1895,1891,1886.33,1880.67,1874.67,1870.33,1868.33,1862.67,1857.33,1851.67,1846,1839,1835.33,1833.67,1830.33,1824.67,1821,1817.33,1815.33,1813.67,1809.67,1806,1800.33,1800.33,1794.67,1789.67,1789,1784,1779,1775.33,1773.67,1768.33,1765,1763,1758.33,1755,1748.33,1746,1741.33,1738,1734.67,1729.67,1725,1722,1717,1715.67,1711,1706,1704.33,1704.33,1703
453.333,453.667,454,454.667,304,304.333,455.667,455.667,305,456,456,456.333,455.667,455.667,455,454.667,455,305.333,305.333,305.667,306,306,306,0,0,144.333,143,142,0,0,0,0,0,0,138.667,138.667,139,139.333,140,140.333,280.667,140.667,280.667,141.333,0,0,0,288,288,290,144.333,289,289,289,435.667,436.333,437.333,438.333,438.333,439,440,292.667,0,148.667,148.667,592.667,443.667,443.333,443.667,443.333,443.667,443.333,443,442.667,442.667,442.667,442.667,443,443,442.667,442.667,442.667,442.667,442,441.333,440.667,438.667,436,434.333,432,429.667,639,636.333,635.333,634,632.667,632,631,630,629,628.333,627,626.667,625.333,625.333,625,624.333,624,623.667,623.333,623.333,623.333,623.667,623.333,624,624,623.667,623.333,623,622,621,620,618.667,617,405.667,404.667,404,403.333,402.333,401.333,399.667,398.333,396.333,394.667,392.667,391,389.333,388,386.667,385.333,385,384.333,383.333,382.333,381,380.333,379.333,378.333,377,375.667,374.667,373.667,372.667,372,370.667,370,369.333,368.333,367.333,366.333,365.667,364.667,364,363.333,362.667,362.333,361.667,360.667,360,359,358.667,358,357.333,560.667,560.333,559.667,559,558.333,557.333,555.667,554.667,553,351.333,551,550,548.667,548,547.667,347,346.333,345.333,345,546.667,546,545.667,545.667,545.333,341.667,341.333,341,543.667,340.667,340.667,340.667,340.333,340.333,340.667,340.333,340.667,340.667,542,341,541.333,541,541,541.333,341.333,341,341.333,340.667,341,341,340.667,340.333,340.333,340,339.333,170.333,339.333,339,170,169.667,169.667,169.667,169.333,169.333,169.333,169.667,169.667,169.667,169.667,373.333,339.333,339.333,542.333,541.667,541.333,541.333,541,540.667,338,540.667,540,540,338,338.333,537,536,535.333,534.333,534,534,534.333,534.667,534.667,535.333,535.667,536.333,346,347.333,539.333,540.667,352,542.333,353.667,542.667,355.333,0,0,0,231.667,695,695.333,696,696.333,697,697,696.333,695,693.333,691,689,686,683.333,680,452.667,0,0,0,212,211,243.333,492.333,499,502.667,503.333,503.667,504.333,505,505.667,506,506.667,507.333,507.667,508.667,793.333,510.333,795,795.667,512.667,513.667,514.667,515.667,516.667,518,519,520,520.667,522,523,524,525.333,527,528,529.333,530,531.667,823.667,825.667,827.667,830.333,835.333,839.333,845.333,851.333,858.667,865.333,872.667,880.667,888.333,895,901.333,906,911,915.667,918.667,919.333,920,920.333,919.667,917.333,915.667,607.667,300,0,0,824.333,1655.33,1652,1642,1632.33,1625.67,1619.67,2180.33,2180,1600.67,1597.67,2173,2167,2160.67,2155.67,2148.33,2142.67,2136.67,2131,2122.33,2117.67,2112,2107.33,2103.33,2100.67,2096.33,2093.33,2086,2083.33,2076,2071.67,2064.67,2057.67,2056,2054.33,2047.33,2047.33,2047.33,2044.67,2049,2050.67,2048.33,2049,2049.67,2047.67,2048.33,2042.33,2036.67,2033,2023,2013.67,1413.33,1991.67,1986.33,1979.33,1976,1969.33,1964.33,1963,1962.33,1957.33,1953,1951,1946.33,1942,1940,1931.67,1929.33,1923.67,1913.67,1907.33,1899.33,1894.67,1888.67,1882.67,1880.67,1872.67,1868.33,1864.67,1860.67,1857.33,1849.67,1844,1839,1837.33,1832,1828.33,1826.67,1821,1821,1817,1815.33,1811.33,1807.67,1805.67,1802,1798.33,1793,1791,1785.67,1780.67,1777.33,1773.67,1771.33,1766.33,1763,1761.33,1756.67,1751.67,1749.33,1744.33,1741.33,1734.67,1729.67,1725,1721.67,1717.33,1714.33,1711,1707.67,1704.67,1703,1701.33
453.333,302.667,303.667,303.667,304,304,304.333,304.667,305,305,152.333,0,0,0,0,0,0,0,300,147.333,0,0,0,0,0,145,0,0,0,0,0,0,0,0,0,139.333,140.333,279.333,281,423.667,282,141,283.667,0,0,0,144,430.333,430.667,286.333,144,288.667,432.667,144,435,436.333,436.667,437.667,438.333,291.333,291.667,291.667,0,221,591.667,591.667,442.667,442.667,442.667,442.667,442.667,442.333,442,442,441.667,441.333,441.333,441.333,441.667,441.667,441.667,441.667,441.333,440.667,440,439.333,437.333,435.333,433.333,431,428.667,637.667,636,634,632.333,631.333,630.667,630,629,628.333,626.667,626.333,625.333,625,625,624,623.667,623,623,622.333,622,622.333,622,622.333,623,622.667,622.333,621.667,621,620.333,619.333,618,616.667,615,613.667,402.667,402,400.667,400,398.667,397.667,396,394.333,392.667,390.667,389.333,388,386.333,385,384.333,383.333,382.667,381.667,381,380,379,378,377,375.667,375,373.667,373,372,371.333,370.333,369.667,368.333,367.667,366.667,365.667,365,364,363.333,362.667,362,361.667,361,360,359.333,562,358,357.333,561,560.333,559.667,559.333,558.667,558,557,556,554,553,552,550.667,550,548.667,548,347,346.333,345.667,345,547,343.667,546,546,546,545,341.333,340.667,340.667,340.667,544.667,340.333,340.333,340,340,542.333,543.333,340.333,340.333,542.333,542,542,541.667,541,541.667,541.667,341,340.667,340.667,340.667,340.667,340.667,340.333,340,340,339.667,339.667,339.333,339.667,339.333,170,170,169.667,169.667,169.667,339,339.333,169.667,169.667,374.333,543.667,543.333,543,542.333,541.667,541,540.333,540.333,338,540,337.333,539.333,539.333,538.667,337.333,337.667,536.333,535.667,534.667,534,534.333,534,534.667,534.667,535,535.667,536,345.667,538,538.667,349.333,350.667,352,352.667,353.667,177.333,0,0,460.667,692,692,693,693.333,693.667,693.333,693,692.333,691.333,689.333,686.667,684,681.667,679,675.333,671,446.667,0,0,212.333,211.333,210.667,244,499,503,503,504,504.667,505.333,505.667,506.333,507,507.333,508,508.667,509.333,510.333,510.667,511.667,512.667,513.333,514.667,515.667,516.667,518,519.333,520,520.667,522,523,524.333,525.333,527.333,528,529.333,530.667,532.333,823.667,825.667,827.667,830.333,834.333,839,844,850,856.667,862.667,871,879.667,887.667,895.333,901.333,905.667,909.667,913.667,916.667,917.667,918.667,917.667,917,914.667,913.333,911.667,908.333,906,298,296.667,0,0,1635.67,1629,1616.33,1613.33,2178.33,2175.67,1594.67,1591.33,1582,2160.67,2157.67,2151.33,2148.33,2142.67,2137,2131,2123.67,2119.33,2113.67,2109,2106,2100.67,2096.33,2091.67,2087,2080,2072.67,2072.67,2063.33,2058.67,2054.33,2052.67,2050,2050,2051.67,2050.67,2052.33,2055.33,2056,2055,2053,2053.33,2049.33,2044.33,2038.33,1440.33,1433,1423,2002,1992.33,1982.33,1975.33,1974.33,1969.33,1964.33,1961.33,1960.67,1955.33,1951,1948.67,1946.33,1940,1935.33,1931,1927.33,1921,1913,1907,1898.67,1892.67,1886.33,1880.67,1874.67,1874.67,1870.33,1864.67,1857,1853.67,1847.67,1844.33,1839,1834,1830.33,1830.33,1826.67,1824.67,1824.67,1820.67,1818.67,1815,1813,1810.67,1807.33,1801.67,1796.67,1792.67,1787.67,1784,1779,1775.67,1771.67,1768.33,1763,1761.33,1758,1751.67,1749.33,1746,1741.33,1734.67,1729.67,1728.33,1721.67,1718.67,1716,1711,1708,1703,1701.33,1699.67
453,453,453.667,453.667,454,454.667,454.667,455,0,151.667,0,0,0,0,0,0,0,0,147.333,146.667,146.333,0,0,0,0,0,0,0,0,0,0,0,0,0,0,0,0,139.333,140.667,281.667,141,282.333,140.333,0,0,283.333,284,284.667,288,288.333,286,143.667,288.333,288.667,435,436.333,437,437.667,438,290.667,145.333,440,148.667,590.333,590.333,590.333,441.333,441.333,441.333,441.333,441,440.667,440.667,440.667,440.667,440.333,440.667,440.667,440.667,440.667,440.667,440.667,440.333,439.333,439,438,436,434.333,432,430.333,427.667,636.667,634.667,633,631.667,630.333,629.333,628.667,628.333,626.667,626.333,625.333,625,624,623.667,623.333,622.333,622,621.667,621.667,621.333,621.667,621.333,621.333,621.333,621,620.667,620.333,619.333,618.333,617.667,615.667,614.667,613,401.667,400.667,399.667,398.667,397.667,396.667,395.333,394,392.333,390.333,389,387.667,386.333,385,384.333,383,382.333,381.667,381,379.667,379,378,376.667,376,375,374,373,372.333,371.667,370.333,369.667,369,367.667,367,366,365,364.333,363.333,362.667,362,361.333,360.667,359.667,359.333,358.667,358,357.333,561.333,561,560.333,559.667,559.333,558,557.333,556.667,555,554,552.667,551.667,550.667,550,549.333,347,346.333,345.667,345.333,344.333,547.333,547,546.333,546,545.333,545.333,340.667,340.667,340.333,340.333,340,340,340,340,339.667,339.667,544.667,339.667,340,543.333,542.667,542.667,542.333,542,542.333,541.667,340.667,340.667,340.333,340.667,340,340.333,340,340,339.667,339.333,339.667,339.333,170,339.333,339,170,170,169.667,339,339,339,339.333,169.667,339.333,339.333,544,543,542.333,541.333,540.333,540,539.333,539.333,336.667,539.333,538.667,538.667,538.333,538,336.667,337,536,535.667,535,535,535,535,535.667,535.333,343,344,345,346.333,347.667,349,350,351.333,352,352.667,177,0,0,689,689,690,691,690.333,690.667,690.667,690,689,687.333,685.333,682,680.333,677,673.667,670.333,666.333,662,658,657,436,212,211.333,245.333,498.667,503,503.333,503.667,504.667,505,505.333,506.333,507,507.667,508,508.667,509.667,510.333,511,511.667,512.333,513.667,514.667,515.667,516.667,518.333,519.667,520,521,522.333,523,524.333,525.333,527.333,528,529.333,530.333,532.333,823.333,825.333,826.667,829,832.667,837,842.333,848.333,854.667,861,869.333,878,885.667,893.333,898.333,904,908,912,914,916,916,915.333,914.333,913.333,912,909,906.333,904.333,901.667,599,295.667,294.667,0,1619.67,1606.67,1600.67,1594.67,2163.33,1585,1579,1573,2153.67,2150.33,2147.33,2144.33,2138.67,2132.67,2129.67,2124,2122.33,2114.67,2110.67,2106.33,2103.33,2096,2091.67,2082.67,2081,2074,2067,2061.67,2054.33,2052.67,2052.67,2050,2047.33,2049,2049.67,2051,2057,2055,2055.67,2056,2050,2051,2043.33,2035.67,2026.33,1430.67,2007,1999.67,1989.67,1980.33,1975.33,1970.67,1967.67,1964.67,1959.67,1959,1953.67,1949.33,1946.67,1944.33,1937.67,1935.33,1931,1927,1920.33,1914.67,1906.33,1898.33,1894.33,1888,1880.33,1876.67,1872.67,1866.67,1862.67,1857,1851.67,1846,1842.33,1837.67,1834,1828.33,1826.67,1825,1823,1826.67,1824.33,1822.33,1818.33,1816.67,1812.67,1809,1803.67,1798.33,1792.67,1787.67,1782.33,1779,1777.33,1774,1768.33,1766.67,1761.33,1756.67,1753.33,1751,1746,1743,1738,1731.33,1726.67,1722,1718.67,1717.33,1711.33,1704.67,1703,1699.67,1698.33
150.333,150.333,0,302,301.667,301.667,150.333,0,0,0,0,0,0,0,0,0,0,0,146.667,146,145.333,0,0,0,0,0,146.333,146,146,143.333,0,0,0,0,0,141,141,430.667,429.333,0,0,0,286,287,427,287.667,144.333,145,289,431.333,286.667,288.667,289,435.333,436,437,437.333,438.333,290.333,438.667,439,439.333,149,369.333,590,440.667,440.667,440.667,440.667,440.333,440.333,439.667,439.667,439.667,439.667,440,439.667,439.667,439.667,439.667,439.667,439.333,439,438.333,437.667,436.333,434.667,433.333,431,429,427,635.667,634,631.667,630.333,629.667,628.667,628,627,626.333,625.333,625,623.667,623.667,623.333,622.333,622,621.333,621,620.667,620.333,620.333,620,620,619.667,619.667,619,618.333,618,617,615.667,614,613,611.333,400,398.667,397.667,396.667,395.667,394.667,393,392.333,390.333,388.667,387.667,386.333,385.333,384.333,383,382.333,381.333,380.667,380,379,378,377,376,375,374,373.333,372.333,371.667,371,370.333,369,368.333,367.667,366.333,365.667,364.333,363.667,362.667,362,361.333,360.333,359.667,359,358.667,358,357.333,356.333,561.333,560.667,560,559.667,559,558.333,557.333,556.333,555.333,554.333,553.333,552.333,551.333,551,347.333,346.333,346,345.333,344.667,344,548,548,547.333,546,545.667,340.667,545.333,340.333,340,546.667,339.667,339.333,339.333,339.333,339,339.333,339.333,339.333,544.667,543.667,543,543.333,542.667,542.333,340.333,542.333,541.333,340.333,340.667,340,340,340,339.667,339.667,339.333,339.333,339.333,339.333,339.333,339.333,339,339,339.333,339,339.333,339,339,339.333,339,339,545,544,543.333,542,541,540,539.333,538.667,538.667,538.667,538.333,538.333,538.333,538.667,538.333,335.667,336,337,537,537,536.333,339.333,340.333,537,537,343,343.667,344.667,345.667,347,348,349.333,350.667,351.333,352,176.667,0,685.667,687,687.333,688.667,688.333,688.333,688.333,687.667,687,685.667,683.667,681.667,678.333,676,673.333,669.667,666,661.667,657.667,653.667,652,655.333,212,211,210.333,498.667,502.667,503.333,503.667,504.333,505,505.333,506,507,507.667,508,509,509.667,510.333,511,511.667,512.667,513.333,514.667,515.333,516.667,518,519,520,520.667,522,523,524,525.333,527.333,528,529,530.333,531.667,822.667,824.333,826,828.333,831.333,836,840,845.333,852,859,866.333,874.667,882.333,890.333,896.333,901.333,905,909,912,913.333,913.333,913,912.667,910.333,909.667,907.667,905.333,901.667,899.333,897,893.333,294,293.333,292.333,1600.67,1594.67,1585,2154,1576,1570.33,1567.33,1561,2148,2145,2142.33,2139.33,2133.33,2130.33,2124.67,2121,2116.33,2112,2108,2103.33,2096,2090,2085.67,2076.67,2072.33,2065.33,2057,2052.67,2050,2047.33,2047.33,2046.33,2048,2044.33,2050,2055,2050.33,2050.67,2050,2051,2046,1448.33,2033,2023.67,2014.33,2007,1999.67,1989.67,1980.33,1975.33,1972.67,1967.67,1964.67,1958,1957.33,1954.33,1947.67,1947.33,1942.67,1940,1935.33,1931,1927,1920.33,1916.33,1908,1900,1896,1888,1882,1876.67,1872.67,1864.67,1861,1855.33,1853.33,1848,1842.33,1839.33,1834,1830.33,1826.67,1827,1823,1826.67,1826,1824,1822,1819.67,1816,1810.33,1805.67,1800,1796.67,1791,1787.67,1782.33,1777.33,1774,1770,1766.67,1761.33,1756.67,1753.33,1749.67,1744.67,1741.67,1736.67,1733.33,1727,1723.67,1717.33,1714,1711.33,1706.33,1701.67,1701.67,1696.67
0,151,151,151,151,150.333,150.333,0,0,0,0,0,0,0,0,0,0,0,149.667,149.667,149.667,149.333,146,0,146.333,0,0,150.333,299.333,442.333,296.333,0,151,151,299,441.333,437.667,436,434,289,288.333,145,288,288.667,140.667,287,145.667,290,290.333,433.333,433.667,433.333,289,435.333,436.333,437,437.333,437.667,438,438.667,293.667,439.333,149,588.333,588.333,439.333,439.333,439.333,439.333,439.333,439.333,439,439,439,439,439,439,439,439,439,439,438.333,438,437.333,436.333,435,433.333,432,430.333,428.333,426,634.667,632.667,631.333,630,628.667,627.667,627,626.333,625,624.667,623.667,623.333,622.333,622,622,621.333,621,620.333,620,619.667,619.333,619,619,619,619,618,617.667,616.333,616,614.333,612.667,611.667,610.333,609,397.333,396.333,606.333,394,392.667,391.333,390.333,389,387.667,598.333,385.333,384.667,383,382,381.333,380.667,379.667,379,378.333,377,376,375,374.333,373.667,372.667,372,371.333,370.667,369.667,368.667,368,367,366,365,364,363,362.333,361.667,360.667,360.333,359.333,358.333,563.667,357.333,563.333,356,355.333,560.667,354,559.667,559,558,557,556,555.333,554.667,553.667,553,552.333,347.333,346.667,345.667,345.333,550.667,549.667,548.667,548,547.667,546.667,545.667,340.333,340.333,340,339.667,339.333,339.333,339.333,339,338.667,338.333,548,338.667,338.667,338.667,545.667,545,544,543.667,543,542.667,543,542.333,541.667,340,340,340,339.667,340,339.667,339.333,339.333,339.333,339.333,339.333,339,339.333,339.333,339.333,339.333,339.333,339.333,339.333,339.333,339.333,339.333,546,544.667,543.667,373.333,541.333,540.333,539.333,538.667,538.333,538.333,335,334.667,537.667,538,538.667,538.333,538.333,335.667,336,538.333,537.667,537.333,538,340,341,341.667,342.333,343.667,344.333,345.667,346.333,347.667,348.667,349.333,350.667,0,0,0,684.667,685.333,685.667,686,686,685.667,685,684.333,683.333,681.333,680,678,675,672.667,669.667,666.667,662.667,658.667,654.333,650.333,647.667,646.667,425.333,423.333,210,708,503,503.667,504,504.333,504.667,505.333,506,506.667,507.333,508,508.667,509.667,510,511,511.667,512.667,513.667,514.667,515.333,516.667,518,519,520,520.667,521.667,522.667,524,524.667,526.667,527.667,528.667,530,531.333,822.333,824,825.333,827.667,830,834,837.667,843.333,850,856,863.667,871.333,879,886.667,892.333,897.333,900.667,904.667,907.333,908.667,909.667,910,909.333,909,907,905.333,903,900.333,897.667,894,890.667,888,884,292.333,291,0,783.333,1573,1567.33,1564.33,1558,1555,2143.67,2141,2138,2136.67,2133.67,2130.67,2128,2121.67,2117.33,2111,2106.33,2100.33,2094.33,2090,2081,2075,2068,2062.67,2055.33,2050,2050,2046.33,2046.33,2047,2045.67,2049,2049.67,2051.67,2050,1461.33,1458.67,2046.67,2040,1443,2025.33,2019,2011.33,2004.67,1999.67,1987.33,1982.33,1977.67,1972.67,1970,1963,1958,1957.33,1952.67,1949.67,1945.67,1942.67,1940,1935.33,1931,1929,1922.33,1916.33,1912,1904,1897.33,1889.67,1883.67,1880,1874.67,1866.67,1862.67,1857.33,1851.33,1848,1842.33,1257.67,1255.67,1253.67,1826.67,1827,1825,1828.33,1827.67,1825.33,1823.33,1823,1819.67,1231,1224,1801.67,1216.67,1794.67,1787.67,1784,1779,1775.67,1770.33,1768.33,1764.67,1759.67,1753.33,1751.33,1744.67,1741.67,1736.67,1730,1727,1720.33,1717.33,1714,1708,1704.67,1701.67,1700,1696.67
0,0,0,0,0,0,0,0,0,0,0,0,0,0,0,0,0,0,0,0,145.333,145.333,146.667,0,0,0,0,145.667,292.667,144.667,293.333,298,147.333,146.667,146.667,145.667,144.667,287.667,288.333,287,431.333,288.333,431,289.333,431.333,144,289.667,290.333,144.333,290,433.667,434,434.333,435,435.333,436.333,289,437.333,292.667,292.667,293.667,148.667,149,587.667,439,439,438.667,439,439,438.667,438.333,438.333,438.333,438.333,438.333,438.333,438.667,438.333,438.333,438,437.667,437.667,436.667,436,435,433.667,432.333,431,429,427.333,425.667,634,632.333,631,629.667,628,627,626.667,626,625,623.667,623.333,623,622,622,621.667,620.333,620,620,619.333,618.667,619,618.333,618.333,618,617.667,616.667,615.667,615.333,614,612.667,611.333,610.333,608.667,607.667,396,606.333,605.667,604.667,391.333,602.667,601.333,600.667,599.333,597.667,384.333,594.333,382,592.333,591.333,379.333,378.667,378,377,376.333,375.333,374.333,373.667,373,372.333,371.667,370.667,370,369.333,368.667,367.333,366.667,365.667,364.667,363.667,362.667,361.667,361,360.333,359.667,358.667,357.667,357.333,564,356.333,562.333,354.333,560.667,560.333,559.333,558.333,557.667,556.667,555.667,555.333,555,554.667,348,347.333,346.667,553.333,553,344.667,551.667,550.333,548.667,548.333,341.667,341,340.667,340.333,340,339.667,339.333,339,338.667,338.667,338.333,338.333,548.333,548.667,547.667,547.667,547,546.333,545.333,544.667,544.333,543.333,542.667,542.667,339.333,339.333,339.333,339.667,339.667,339.667,339.667,339.667,339.333,339.333,339.333,339.333,339.333,339,339.333,339.333,339.333,339.333,339.333,339.333,339.333,339.333,339.333,339.333,545.333,545,374.333,542.333,541,540.333,539,538.667,538,537.333,334.333,537.667,538,538.333,538.667,538.667,538.667,538.667,335.333,336.333,539.333,539.667,338.667,339.667,340.333,341.667,342.333,343,344.333,345,346,347,348,348.667,349.333,0,176,0,683,682.333,683,683.333,683,682.333,682,681.333,680,678.333,676.333,674.333,672.333,669.333,666,662.667,659,655.667,652,648,645,641.667,638,635.667,210,460,503,503.333,504,504.333,505,505,505.667,506.667,507.333,508,508.667,509,509.667,511,512,512.667,513.333,514.667,515.667,516.667,518,519.333,520,520.667,521.333,522.667,523.333,524.667,525.333,527.333,528.333,529.333,820,821.667,823.667,824.667,826.667,828.667,831.667,835.333,841,846.667,852.667,859.333,867,875.333,882.333,888.333,892.667,896.333,900.333,903.667,905,906,906.333,906,905.333,904,902.333,900.667,897.667,894.667,891.333,889,885.333,881.667,879,875.333,290.333,0,0,2138,2139.67,2140.33,1549,1546.33,2135.67,2138.33,2132.67,2131.33,2128.67,2124,2122.33,2120.67,2114.67,2105,2102,2093.33,2090,2079.67,2072.33,2068,2058,2055.33,2051.67,2046.33,2046.33,2042.67,2043,2044,2044.67,2045.33,2047.67,2044.33,2045,1450.67,2041.67,1443,1438,2025.33,2018,2009,2006.67,1999.33,1991.67,1987,1981.67,1974.33,1970,1967.67,1960.33,1955.67,1952.67,1948,1945.67,1942.67,1942,1935.33,1935.33,1931,1924.67,1918.33,1914,1908,1904,1893.33,1887.67,1880,1874.67,1868.67,1866.67,1859,1853.33,1849.67,1844.33,1839.67,1836,1832,1830.33,1828.67,1828.67,1832,1831.67,1829,1827,1823,1821.33,1815.67,1812,1805,1803,1798.33,1793,1787.33,1782.33,1777.33,1773.67,1768.67,1764.67,1759.67,1753,1749.67,1747.67,1743.33,1736.67,1730,1727,1720.33,1717,1711,1708,1704.67,1700,1696.67,1695.33
0,0,0,0,150.333,150.333,298,297.333,149.667,149.667,149.667,149.667,149.333,148.667,148.333,147.667,0,0,145.667,145,288.667,0,0,0,145.333,145.333,145.667,291.333,292,291.333,292.667,293.667,293,148.667,294,291.667,291.333,290.667,290.333,290,289,289,286.333,432,290,289.667,289.667,289.667,289.667,289.333,289,288,287.667,434.667,287.333,287.667,288,288,144,288.333,144.333,0,218.667,438.333,437.667,438,438,438.333,438.333,438,438,437.667,437.667,437.667,437.667,437.667,437.667,437.333,437.333,437,436.667,436.333,435.667,435,434.333,433,431.667,430.333,428.667,427,425,633.667,632.333,630,629,628,627,626.333,625.333,624.333,623.667,622.333,622,621.333,621.667,621.333,620,619.667,619,619,618.667,618.333,618.333,617.667,616.667,616.667,616,614.667,613.667,612.333,611.667,610.333,609,608,607.333,606.333,605.667,392.667,391.667,603,601.667,601.333,600.333,599,597,384,382.667,593,592.333,591,591,378.333,377,376.667,375.333,374.667,374,373,372.333,371.667,371.333,370.667,370,369,368,367.333,366.333,365.333,364,363.333,362.333,361.667,360.333,359.667,359,358.333,357,356.667,356.333,355.667,562,561.667,560.667,560,559,558.667,557.333,556.333,555.667,555.333,555,348.333,347.667,346.667,346,554.333,554,553.333,552.667,551.667,549.667,341.667,341,341,340.333,339.667,339.667,339.333,338.667,338.667,547,338,549,549,549.333,549.667,548.667,337.667,548,547,546,544.667,544.333,543.333,543.333,543,338.667,339,339,339.333,339.667,339.333,339.333,339.333,339.333,339.333,339.333,339.333,339.333,339.333,339.333,339.333,339.333,339.667,339.667,339.667,547,547,546.667,546.667,545.667,545.333,544,542.667,541.333,540,539,538,537.667,334,537.333,537.333,537.333,537.667,538.667,538,539,539,540,540.667,336.667,541,542,339.333,340.333,341.333,342.333,343,344,344.667,345.667,346.333,347,348,174.667,0,0,0,680.333,679.667,680.333,680.333,679.667,679,679,677.667,676,674.667,673,670.667,668.667,665.667,662.667,659.333,656,653,649.333,645.667,642.333,639.667,637.333,635,210,209,502.667,503,503.667,504,504.333,504.667,505.333,506,506.667,507.333,508,508.667,509.667,510.667,511.333,512.333,513.333,514.333,515.333,516.667,518,519,519.667,520.333,521.333,522.333,523,524,525,526.667,527.333,528.667,819.333,821,821.667,823.333,825,827,830,833.333,838.333,844,849.333,856,862.667,870.667,878.333,884.667,889.333,892.333,896,899.333,901,903.333,903,903,902.333,900.667,899.333,896.667,894.667,892,888.667,885.667,882.667,880,876.667,873.667,870,289.667,289.667,1546.33,2132.67,2133.67,2137,1537.67,2134.33,2131.33,2133,2133,2132.33,2127.33,2125.67,2116.67,2113.33,2106.67,2098,2093.33,2084.33,2077,2072.33,2059.67,2059.67,2051.67,2050.67,2048,2041.67,2043,2041.33,2042,2043,1458.67,1453.33,1450.67,1448.33,2043.33,1443,1438,2024.67,2020.67,2015.67,2010.67,2008.33,1998.67,1993.33,1986.33,1984,1979.33,1973.67,1971.33,1965,1958,1955,1948,1945.67,1945,1942,1940,1937.33,1932.67,1926.33,1924,1920,1913.67,1906,1899.33,1891.33,1885.67,1880,1872.33,1866.67,1861,1855.33,1849.67,1846,1839.67,1838,1257.67,1253.67,1253.67,1253.67,1253.67,1250,1248,1244,1828.67,1827,1821,1813.67,1808.67,1806.67,1801.33,1796.33,1791.33,1784,1780.67,1775.33,1773.67,1766.67,1761.33,1756.33,1753,1747.67,1741.67,1736.67,1731.67,1725.33,1720.33,1717,1712.33,1708,1703,1700,1696.67,1695.33
297.667,298.333,297.667,298,297.667,297.333,296.667,296,295,144.667,144.333,0,0,143,143.667,291,0,0,143.667,143.333,143.333,0,0,0,145.333,289,144,290.333,290.667,291.333,292.333,293,293.667,147.333,293.333,293,292.667,291.667,291.333,290.333,289.667,144,289.333,289.333,289.333,289.333,289.333,289.333,289,289,288.333,287.333,286.667,286.333,286.333,286.667,287,287.333,287.333,287.667,144,0,437,437,437.333,437.333,437.333,437.333,437.667,437.333,437.333,437,437,437,436.667,437,437,436.667,436.333,436.333,435.667,435.333,435,434.333,433.667,432.667,431.333,429.667,428.333,636.667,635,633.333,632,630.667,629,628,627,626,625.333,624.333,623.667,623,622.333,621.667,621.333,620.667,619.667,619,619,618,618.333,617.667,617,616.667,616.333,615.667,614.333,614,613,612,610.667,609.333,608.333,607.667,606.667,395,393.667,392.333,603.333,390,601.667,600.333,599.667,598.333,597,383.667,594.667,593,592.667,379.667,591,590.333,377,376,588,374,373.333,372.667,372,371,370.667,370,369.333,368.667,367.667,367,366,365.333,364,363,362.333,361.333,360.333,359.333,358.333,357.667,564.333,564.667,355.667,355,562.667,561.667,560.667,560,559.667,558.667,557.667,556.667,350,556,348.333,556,555.667,556,556,345,555.333,554.333,553.667,342.333,341.667,341,341,340.333,340,339.667,339,338.667,338.667,338,338,337.333,337.333,337,337,550,549.333,337,548,547.333,546.333,545.333,544.667,543.667,543,543,542.333,338.333,338.667,339,339,339.333,339.333,339.333,339.333,339.333,339.333,339.333,339.333,339.333,339.333,339.667,339.667,339.667,339.667,339.667,547,547,546.667,338.667,338.667,545.333,544.333,542.667,541.333,540.667,539,334.667,334,333.667,333.667,537,537.333,537.333,538,538.333,538.667,539.333,540,541,542,543,543.667,544.667,340,341,342,342.667,344,344.667,345.667,346,347,347.667,0,0,0,452.667,676.667,676.667,677,676.333,676.333,676,675,674,672.333,671,669.667,667.667,665.333,662.667,660,656.333,653,650.333,646.667,643,640.333,638,635.333,633.333,209.667,0,502,502.667,503.333,503.333,504,504.333,505,505.333,506,507,507.667,508.333,509.333,509.667,511,512,512.667,514,515,516.333,517.667,518.333,519.333,520,521,521.667,522.667,523.667,524.333,526,526.667,527.667,818,819.333,821,822.333,823.333,825.333,827.667,831,836,841,846.333,853,859.333,866.333,874.333,881,885,889.333,893,895.667,898.667,900.333,900.333,899.667,899.333,898,896,894,892,888.667,886.667,883,880,877.333,874.667,871.667,869,866,289,0,0,1532,2127,2128.67,2133,2135,2133.67,2131,2131,2128,2129.33,2120,2116.67,2107.67,2099.67,2092,2081.67,2072.67,2067,2059.67,2056,2049.67,2045.67,2045.67,2039.33,2036.33,2041.33,2041.67,1453.33,1450.67,1448.33,1443,1440.67,2037.33,2033,2026.33,2023.67,2017.33,2014.67,2012.33,2007.67,2005,1997.67,1994.33,1988,1983.33,1976,1971.33,1966.67,1962,1957.33,1954.33,1947.67,1945,1942,1940,1937.33,1937,1932.67,1928,1922,1915.67,1909.67,1907.67,1897.33,1889.33,1883.67,1878,1872.33,1864.67,1859,1851.33,1848,1843.33,1838,1257.67,1257.67,1257.67,1255.67,1253.67,1249.67,1249.67,1246,1835.67,1832,1825,1822.67,1817.67,1813.67,1806.67,1801.33,1794.67,1789.33,1784,1779,1773.67,1770.33,1761.67,1756.33,1753,1748,1743,1736.67,1733.33,1726.67,1723.67,1718.67,1712.33,1709.33,1706.33,1701.33,1698.33,1693.67
296,147.333,296.667,296.333,296.333,296,146,0,0,0,0,0,0,0,0,0,0,143.333,142.667,286.333,143.333,286,143.667,0,0,143.667,0,0,0,0,0,0,0,144.667,0,290,145,144,143.667,287.333,431.333,430.667,430.333,288.333,430.667,431,287.667,143.333,143.333,287.333,286.667,286,285.333,285.333,285.333,285.333,286,286,143,291.333,143.333,148.333,585,585.333,436.333,436.333,436.667,436.667,436.667,436.667,436.333,436.333,436.333,436.333,436.333,436.333,436.333,435.667,435.333,435.333,435.333,435,434,434,433,432,431,429.333,427.667,426.333,425,633.333,632,630.333,629,628,626.667,625.667,625.333,624.333,623.667,622.667,622,621.667,620.667,620,619.667,619,618.333,618,617.667,617,617,616.333,615.667,615,614,613.333,612.333,611.333,610,609,608,606.667,606.333,394.667,393,603.667,390.667,601.667,601,600,599,598.333,596.667,383.333,594.667,381.667,380.333,379.667,591,589.667,589,588,375,373.667,373,372,371.667,371,370.333,369.333,368.667,368.333,367.333,366.333,365.667,365,363.667,362.667,362,361,359.667,359,358,357,356.333,564.667,564,354.667,562,561.667,353,560.667,559.667,558.667,350.333,557,556.333,556.333,556.667,347.333,556.333,556.333,556,556,343.667,343,553.667,342.333,341.667,341,340.333,340,339.667,339.333,339,338.667,338,337.667,337.333,337,336.667,336.667,548.667,336.333,548.667,548.333,547.667,547.333,546.667,545,544.667,544.667,543.667,543.333,337.333,338,338.333,338.667,339,339,339.333,339.333,339.333,339.333,339.333,339.667,339.333,339.667,339.667,339.667,339.667,339.667,339.667,339.667,339.333,546.333,546.333,338.667,338.333,338,337.667,336.667,336,335,540.333,539.333,538.667,538,333.667,537.333,537.667,538,538.333,538.333,538.667,539.667,540.333,541.667,542.667,336.667,544.667,338.667,339.667,340.667,342,342.667,344,344.667,345.333,345.667,346.333,347,0,0,450.667,450.333,674.333,673.333,673.333,673.333,673,671.667,671.333,670.333,668.667,667.667,666,664,662,660,657.333,654,650.667,647.667,644.667,641,638.333,636,634,631.667,419.333,0,251,501.667,502.333,502.667,503.333,503.667,504.333,505,505.333,506.333,507.333,508,508.667,509.333,510.333,511.333,512.333,513.667,514.333,515.667,517,518.333,519,519.667,520.333,521,522.333,523,524,524.667,525.333,815.667,817.333,818.667,819.333,821,822.333,824,825.667,829,833.333,838.667,844,850.333,856,862.667,871,878,882.333,886,890,893,895,898,897.667,897.333,897.333,895.333,893.667,891,889,887,884.333,881,878,875,873.333,870,868,864.333,862,574.667,0,595,2125.67,2127.33,2132,2133.67,2137.33,2134.67,2133.33,2133.33,2131.67,2125.33,2121.67,2112.67,2102,2094,2086.67,2077.67,2068.67,2061.67,2058,2054.33,2050.67,2047,2046.33,2042.67,2042.33,1453.33,1451,1448.33,2041.67,1440.67,2036,1435.67,2031.33,2027.33,2023,2020.67,2016.67,2016.67,2011.67,2008.33,2006,2001,1994,1989,1980,1977,1970.33,1966,1961.33,1956.67,1951.33,1949,1944.33,1942,1941.33,1937,1934.33,1930,1923.67,1921.67,1915.33,1909.33,1905,1897,1891.33,1883.33,1878,1277,1273,1269,1267,1263.33,1261.33,1259.33,1257.67,1257.67,1255.67,1255.67,1251.67,1249.67,1249.67,1844,1840.67,1835.33,1829.67,1824.67,1819,1812,1804.67,1798.33,1792.67,1784.33,1782.33,1775.33,1768.67,1763.33,1756.33,1754.67,1749.67,1744.67,1743,1736.67,1731.67,1725,1722,1715.33,1712.33,1709.33,1701.33,1696.67,1693.67
294.333,149.333,0,0,0,0,0,0,0,0,0,0,0,0,0,0,142,286,285,284.333,284,284.333,284.667,284.667,285,285,285.667,143,0,286,287,287.667,287.667,0,0,143.333,432,431,286.333,286.667,429.333,428.667,428.667,286.667,429,286.333,286.333,0,143,286,285.333,284.667,283.667,283.667,283.667,283.667,284.333,284.333,284.333,142.667,284.667,0,435.667,435.667,435.667,435.667,435.667,435.667,435.667,435.667,435.667,435.667,435.667,435.333,435.333,435.333,435.333,435.333,435,435,434.667,434,434,433,432.667,431.333,430.667,429.333,428,426.333,425,633.333,631.667,630.333,629.333,627.667,626.667,626,625.333,624.333,623.667,622.667,621.667,621.333,620.333,619.333,618.667,618,617.333,616.667,616.333,616.333,615.667,615,615,614,613.667,613,611.667,611,609.667,608.333,607,606.667,605.667,394.333,604,391.333,602,601,600,599.667,598.667,597.667,596.333,383.333,595,594,380.667,379.667,591,590.667,589.333,588,587,373.667,372.667,372,371,370.333,369.667,369.333,368.333,367.667,367,366.333,365.667,364.667,363.667,362.667,361.667,360.667,359.667,358.667,357.667,356.667,564.667,564.333,354.667,563,562,561.333,560.667,351.667,351,350.333,350,557,556.333,556.333,347.333,347,346.333,556.333,556.333,556.333,343.667,343,342.333,341.667,341.333,341,340.333,340,339.667,339,338.667,338,337.667,337.333,336.667,336.667,336.333,548.333,548.667,335.667,548.333,548,547.667,547,546.333,545.333,544.667,544.667,544,336.667,337,337.333,338,338.333,339,339,339.333,339.333,339.667,339.667,339.667,339.667,339.667,339.667,339.667,339.667,339.667,339.667,339.667,339.667,339.333,546.333,339,338.667,338.333,338.333,337.667,337,336.333,335.667,335,334.667,334.333,333.667,333.333,333.333,537.667,538.333,538.667,538.667,539.333,539.333,540.333,541.333,542.667,544,337.333,546.667,339.333,340.667,341.667,342.667,343.333,344.333,344.667,345.333,345.667,0,0,224.667,448.333,448,671,670.667,670.333,669.667,669.333,668.667,667.333,667.333,665.333,664.333,663,661,659.333,657.333,654.667,651.667,648.333,646,642.333,639,637,635,633,631,629.333,0,0,0,0,501.667,502.333,502.667,503.667,504.333,504.667,505.333,506.333,506.667,508,508.667,509.667,510.667,512,513,514.333,515.667,517,517.667,518.667,519.667,520,521,521.667,522.667,523.333,524.333,524.667,814.667,816,817.333,818.667,819.667,821.333,823,825,828,831.667,837.333,841.667,847.667,852.333,859.333,867,874,879,883,887,890,892.333,895,895.333,894.667,894,892.667,891,889.333,886.333,884.333,881,877.333,875.333,872.667,869.667,868,865,863,860.667,858.667,856,0,0,2131,2131,2137.33,2136.33,2135,2137,2137,2134.33,2132.33,2126,2118,2111.67,2101,2093,2084,2077,2068.33,2063.67,2059.67,2054.33,2051,2047.33,2048.33,1453.33,1450.67,1446,1443.33,1441,1438.33,1433.33,2039,2037,2032.67,2032.67,2031,2024,2021.67,2021.33,2019,2011.67,2004.33,2000.33,1993.33,1985.67,1981,1974.33,1967.67,1963,1960,1953,1951,1950.33,1943.67,1941.33,1938.67,1936.33,1934.33,1927.67,1320,1313.67,1309.67,1909,1902.67,1896.67,1892.67,1885.33,1279,1275,1269,1269,1265.33,1261.33,1259.33,1259.33,1259.33,1257.33,1255.33,1253.67,1249.67,1247.67,1247.67,1245.67,1842.33,1835,1829.67,1824.33,1819,1810,1803,1793,1787.67,1782.67,1777,1772,1767,1760,1754.67,1749.67,1748.33,1743,1738.33,1731.67,1726.67,1720.33,1715.33,1711,1707.67,1704.67,1696.67,1692.33
293.333,149,145.333,0,0,0,0,0,0,0,0,0,0,0,0,142,287.333,286,284.667,284,0,284,284,284.333,284.667,284.333,0,285,143,285,286,286.333,143,144,144.333,0,0,428.667,428.333,428,427,426.667,427,427.333,285,285,142.333,0,284.667,284.333,284,283.333,282.667,282.333,282.333,282.667,283,283,142,0,430,0,435.333,435,435,435,435,435,435,435,435,435,434.667,434.667,434.667,435,434.667,434.333,434.333,434,434,433.333,432.667,432.667,432,431.333,430.333,429.333,428,426.667,425,633.333,632,630.667,629.333,628.333,627,626,625.333,624.333,623.667,623,622,621,620,619,618.333,617.667,617,616,616,616,615.333,615,614.667,613.333,613,612,610.667,609.667,609,607.667,606.667,605.667,604.667,604,603,602,601.333,600.667,600,599.333,598.667,597.667,596.333,383.333,382.667,382,380.667,379.667,591.667,590.667,589.333,588.333,374.667,373,372.333,371.333,370.667,369.667,369,368.667,368,367,366.333,365.667,365,364.333,363.333,362,361.333,360.333,359.667,358.333,357.333,356.667,355.667,564,354.333,353.667,562,561.333,352,560,559,350,349.667,557,348.333,348,557.333,347,346.333,345.333,557,556.667,343.667,343,342.333,341.667,341,340.667,340.333,339.667,339.667,339,338.333,338,337.333,336.667,336.667,336,335.333,335.333,548.333,335,548,547.667,547,547,546,544.667,544.333,544,335.667,336.333,336.333,337,337.667,338,338.667,339,339.333,339.667,339.667,339.667,339.667,340,339.667,339.667,339.667,339.667,339.667,339.667,339.667,339.667,339.333,339,338.667,338.333,169.667,169.667,169.333,168.667,336.333,335.667,335,335,334.667,334.333,538.667,538.667,538.333,538.333,538.667,539,539.667,540,541,541.667,543,544,545.333,338,339.333,340.333,341.667,342.667,343,344,344.667,345,345.667,0,0,223.333,446,445.333,668.333,667.667,667,666.667,665.667,665,664.333,663.333,662.333,661.667,660,658.333,656.667,654.667,652.667,650,647,643.667,641,637.667,636,634.333,632.333,630.667,209.333,0,498.667,499.333,500,500.333,501.667,502,503,503.667,504,504.667,505.333,506,506.667,507.333,508.667,510,511.333,512.333,513.667,515,516.333,517.333,518.667,519.333,520,520.333,521.333,522.333,523.333,524,524.333,525,815,816.333,818.333,819,820.333,822.333,824.333,827,831,835.667,840.333,845.333,849.333,856,863,870.333,875,879,883.667,886.667,889.333,892,892.667,892.667,891.333,890,888.333,886,884.333,881,878,875,872.333,870,867.667,864.667,863,860.333,858.333,856,853.667,566.333,0,0,2132,2138,2140,2138.67,1526,2139.67,2139.67,2138,2131.33,2122.33,2117,1509.33,2098.67,2092.67,2085.33,2078.33,2072,2065.67,2063,2059.67,2057.67,1456,1453.33,1445.67,1445.67,1443.33,1440.67,1436,2048.67,2044.67,2045,2041,2040.67,2036.33,2031.67,2030,2027.67,2022.67,2020,2012.67,2004,1997,1989.33,1984.67,1975.67,1971.33,1966.67,1962,1956.67,1952.67,1952,1945.33,1943,1940.67,1938.33,1936,1929.33,1925.33,1921,1920.67,1916.67,1906.33,1900.33,1896.33,1892.33,1279,1275,1271,1269,1265.33,1261.33,1257.33,1259.33,1257.33,1257.33,1255.33,1253.33,1249.67,1249.67,1860.67,1857,1847.67,1840.33,1833,1827.67,1822.67,1813.67,1806.67,1796.33,1789.67,1786,1779,1775.33,1767,1761.67,1758.33,1753,1749.67,1744.67,1740,1733.33,1726.67,1723.33,1718.67,1712.33,1709.33,1706,1700,1695.33
145,145.333,145,0,0,0,0,0,0,0,0,0,0,0,0,0,144,143.333,284,283,0,0,281.333,281,281.333,140.333,0,283.333,283.667,283.333,283.333,284,284.333,284.333,0,0,142.333,285.333,426.333,426,425.667,425.667,284,284,284,0,0,141.333,283.333,282.333,282,281.333,281,280.333,280.333,280.667,281,281,141.333,141.333,280.667,0,434,434.333,434.333,434.333,434,434.333,434,434,434,434,434,434,434,434,434,434,434,433.333,433,432.667,432.667,432,431.333,431.333,430,429,427.667,426.333,425,633.333,632,630.667,630,628.333,627.667,626.333,625.667,625.333,623.667,622.667,621.667,621,620,618.667,618,617,616.333,616,615.667,615.333,615.333,614.667,614,613.333,613,611.333,611,609.667,608,607,605.667,604.333,603.333,602.667,601.667,601.333,600.667,599.667,599.333,599.333,598.333,598,596.333,596,595.667,595,594,593,591.667,590.667,589.667,588.333,374.333,373,372,371,370.333,369.667,368.667,368,367.333,366.667,366,365.333,364.667,363.667,363,362,361.333,360.333,359,358,357,356.333,355.333,354.667,563,562.333,561.667,560.667,560.333,559.333,559,558.667,349.333,348.667,556.667,556.667,557.667,557.333,557,556.667,557,556.667,343.667,343,342.333,341.667,341,340.667,340.333,339.667,339,338.667,338,337.667,337,336.667,336,335.333,335.333,334.667,548,548,547.667,334.333,546.667,546.333,545.333,544.667,544,335,543.333,335.333,336,336.333,337,337.667,338.333,338.667,339,339.667,339.667,339.667,340,339.667,339.667,339.667,340,339.667,339.667,339.667,339.667,339.667,339.333,338.667,338.333,338.333,338,337.667,337.667,337,336.333,336,335.333,335,335,539.667,539.667,539,539,539,539.333,539.333,540,540,541,541.667,543,544,545.333,338,339.333,340.333,341.667,342.333,343,343.667,344.333,344.667,172.667,0,0,222,443.333,443.333,665,664.333,663.667,663,662.333,662.333,661,660,659,658.333,657.333,656,654.667,652.667,650.667,648,645,642,640,637,635.667,633.667,632,630,209.333,249,497.667,498.333,499.333,499.667,500.667,501,502,503,503.667,504,505,505.333,506,506.667,508,509.333,510.667,511.667,513,514.333,515.667,517.333,518,519.333,520,520.333,521.333,522,523,523.667,524.333,813,814.667,816,817,818,820,821.333,823.667,826.333,830,833.667,837.667,566.667,847,852.333,859.333,865.667,871.333,876,879.667,883.333,886,888.667,890.333,890.667,889.667,887.667,885.333,883.667,881,878,875.333,872.667,869.667,867.333,865,862.667,861.333,858,856.667,854.667,851,565,282.333,0,611,2141.67,2143.67,2148.33,1529,2149,2148.33,2140.33,2138.67,2132.33,2124,1509.33,1503.67,2104,2092,2086.67,2081.33,2075,2072,2068.33,2066.67,1456,1453.67,1448.67,1448.67,1446,1446,2061,2059.33,2055,2053.33,2051,2051,2047,2044.67,2040.33,2037.67,2031,2023.67,2018.67,2009.67,2002.67,1992.67,1985.67,1979,1973,1966,1963,1958.33,1954.33,1951.67,1947.33,1945,1940.67,1938.33,1934,1933.33,1929,1925,1922.67,1916.67,1912.33,1908,1903.67,1899.67,1281.33,1277,1271,1267.33,1263.33,1259.33,1257.33,1257.33,1257.33,1255.33,1255.33,1251.33,1249.67,1248,1868,1860.33,1853,1845.67,1838.33,1831.33,1824.33,1815.33,1806.67,1799.67,1793,1786,1782.67,1775.33,1767,1761.67,1760,1753,1751.33,1746,1739.67,1735,1730,1723.33,1720.33,1714,1712.33,1707.67,1701.33,1697
