3815.5,3803.7,3817.9,3817.9,3820.3,3832.3,3849.2,3868.6,3890.6,3910.7,3928,3930.4,3933,3927.8,3923,3898.3,3868.6,3854,3837.3,3818.4,1884.9,1493.3,714.1,317.4,285.1,0,245.3,2157.7,2153.4,2153.8,2161.8,2172.3,2177.7,2193.2,2218.4,2241.5,2264.5,2285.5,2311.2,2326.9,2347.2,2359.7,2374.5,2384.6,2392,2401.4,2411.1,2420.3,2427.9,2434.7,2438.5,2439.4,2442.4,2441.5,2436.7,2430,2419.5,2406.2,2389.5,2371.1,2357,2340.2,2320.8,2302.7,2281.9,2260.3,2236.5,2220.6,2206.3,2197.9,2188,2182.5,2178.8,2182.4,2186.3,2194.4,2201.2,2203.3,2201.3,2200.6,2194.5,2188.5,2177.4,2168.1,2151.6,2135.4,2118.2,2103,2087.9,2066.6,2052.4,2041,2030,2023.7,2020.4,2016.3,2012.9,2012.1,2013.9,2015.9,2017.9,2020.7,2023.6,2021,2017.6,2013,2008.5,2003.2,1998.9,1992.4,1983.4,1973.8,1966.9,1960.1,1954.7,1949.6,1942.1,1934.8,1928.8,1923.7,1918.7,1915.8,1914,1913.4,1913.7,1916.5,1921.3,1925.9,1934.7,1939.8,1947.5,1954.9,1962.9,1966.1,1972.2,1972.9,1974.4,1974.5,1974.5,797.4,211.6,212.3,212.3,790.3,1931.9,1929.2,1929.8,1929.8,1929.6,1927.6,1925.6,1920.9,1920.1,1919.2,1921.6,1929.7,1939,1948.4,1957,1965.6,1978.7,1989.7,1996,1994.3,1989.1,1982.5,1978,1971.8,1971.7,1971.1,1978.6,1988.3,2006.4,2026.3,2049.5,2069,2091.6,2111.9,2129.2,2141.9,2150.9,2154.7,2160.7,2162.3,2163.9,2165.6,2166.4,2164.9,2164.4,2162.4,2159.7,2155.6,2152.2,2149,2144,2138.6,2132.9,2127.1,2121.3,2114.6,2109.1,2101.3,2100.2,2096.7,2090.9,2086.4,2079.5,2073.5,2067.1,2060.5,2053.5,2046.1,2039.5,2031.6,2028.2,2027.1,2028.5,2029.3,2029.1,2029.6,1823.1,1420.1,1418.1,1412.9,1412.4,1407,1400.9,1390.8,763.8,561.8,154,147.3,451.8,1034.5,1412.5,1111.8,1102.2,1234.3,1223.4,1354.8,1346.8,1338.1,1330.1,1323.6,1181.2,1311.9,1308.5,1305.6,1301.9,1299.2,1298.2,1296.2,1295.9,1295.2,1295,1293.7,1293.1,1293,1291.5,1290,1288.3,1287.1,1286.6,1284.9,1283.6,1283,1282.1,1282.5,1283.1,1283.9,1284.2,1284.6,1285.3,1286.2,1287.3,1288.1,1287.9,1287.9,1288.2,1288.8,1289.8,1290.7,1291.6,1291.3,1292.2,1293.3,1294.7,1296.2,1299.4,1301.1,1302.6,1305.4,1308.6,1311.9,1314.5,1317.6,1320.4,1323.1,1326.1,1329.7,1332.7,1335.7,1339.3,1342.6,1346.2,1349.1,1352.5,1355.1,1359,1362.6,1365.6,1368.9,1372.5,1375.9,1378.3,1381,1384,1387,1389.4,1390.3,1393,1395.7,1399.3,1403.6,1406.6,1409.9,1413.7,1418.3,1422.7,1430.6,1439.3,1450.8,1462.8,1477.5,1498.3,1523.1,1553.7,1585.4,1618.5,1649.4,1679.6,1709,1733.4,1750.4,1763.2,1767.8,1772,1772,1771.9,1768.3,1763.7,1757.9,1753,1746.6,1741.2,1733.3,1726.2,1715.4,1704.6,1689.9,1671.6,1651.5,1627.5,1606,1582.7,1561.8,1543.3,1529.3,1517.2,1507.5,1498.9,1491.3,1485.5,1479.6,1474.4,1468.7,1463.7,1460.4,1457.4,1453.7,1452,1450.2,1450.5,1450.8,1452.3,1455,1456.4,1458.8,1461.1,1463.5,1464.4,1467.7,1469.4,1470.4,1474,1477.5,887.2,152.1,0,0,0,246.3,247.3,755.1,1005.6,1008.6,1012.7,1014.8,1014.8,1265.1,1010.7,1008.5,1525,2558.3,2565.2,2046.2,2317.1,2588.8,2599.8,2601.3,2606.6,2605.5,2334.1,2331.2,2323.9,2579,2565.4,2553.1,2538,2524.3,2513.1,2503.6,2494.3,2490.5,2482.7,2475.7,2469.8,2459.1,2440.1,2416.9,2398.4,2374.9,2348.6,2322.3,2298.9,2276.7,2258.3,2237.5,2220.7,2204.8,2188.5,2175.3,2163.1,2154,2144.1,2133.8,2126.2,2118.8,2116.7,2116,2111.8,2105.4,2096.7,2087,2074.3,2059.5,2042.7,2023.9,2001,1979,1960.2,1942,1923.1,1907.2,1897.4,1886.1,1879,1875,1496.8,559.9,372.1,184.4,183.8,555.3,553.1,735.9,549.9,548.2
3839.4,3834.6,3837,3837,3846.7,3853.9,3866,3888,3910.5,3932.9,3953.1,3958.3,3958.3,3960.9,3958.4,3933.1,3898.2,3878.5,3864,3839.9,3813.9,1138,353.9,320.7,286.4,0,679.2,661.4,2130.3,2135.3,2144.1,2156.1,2164.5,2183.5,2209.4,2233.3,2260.3,2284.6,2308.4,2325.8,2339.1,2351.7,2367,2373.5,2380.1,2387.3,2395.7,2401.3,2408.2,2413.1,2414.9,2415.7,2418.6,2417.6,2410.2,2405.8,2397.6,2382.6,2367.3,2350.3,2336.4,2320.1,2304.6,2288,2264.7,2245.1,2224.2,2207.6,2197.2,2189.6,2178.8,2173,2170.3,2171.5,2171.6,2180.7,2185,2185.1,2184.2,2181.8,2178.1,2172.9,2161.1,2153.9,2140.2,2126.2,2112.6,2097.3,2081.7,2066.3,2049,2035.3,2024.2,2014.8,2008,2004.6,2001.7,1999,1998.3,1998.9,2000.3,2005.7,2005.7,2003.6,2000.4,1996,1992.3,1990.5,1988.5,1986,1977.7,1971.3,1966.6,1960.2,1954.5,1949.1,1941.1,1935.4,1928.8,1923.2,1919,1915.7,1911,1911.5,1913,1917.1,1922,1927.7,1935.4,1941.1,1948.7,1956.1,1964.1,1967.3,1972.2,1972.2,1973.6,1973,1974.4,796.6,210.2,210.9,210.9,210.9,1930.3,1928,1928,1927,1925.7,1925,1925.9,1922.5,1919.9,1920.7,1922,1930.8,1941.6,1950.9,1960,1969.3,1982.7,1993.5,1999.4,1997.6,1994.7,1988.2,1984,1977.4,1976.2,1979.3,1985.7,1997.3,2017.1,2035,2058.4,2078,2099.8,2119.1,2134.5,2145.8,2152.4,2155.4,2157.9,2160,2160.1,2160.8,2160.3,2155.3,2151.1,2147.7,2143.6,2139,2135.6,2132.4,2123.6,2117.7,2111.1,2105.6,2097.7,2090.2,2082.3,2078.3,2074.9,2074.5,2069.5,2065.7,2059.9,2055.1,2048.9,2044,2037.3,2029.9,2024.7,2016,2012.8,2010.2,2015.1,2013,2012.4,2009.7,2004.9,1803.8,1405,1402.8,1399.5,1392,1388.9,1373.4,385.4,196.1,181.7,145.9,894.1,857.3,1393.9,1242.1,1235.7,1364.9,1357.7,1349.8,1341.3,1334.6,1327.3,1321.1,1314.8,1310.6,1306.9,1304.2,1301.3,1299,1297,1295.9,1295.5,1295.1,1294.6,1293.2,1293,1292.8,1291.4,1289.5,1288.3,1287.2,1286.1,1284.7,1283.6,1282.1,1281.6,1282.5,1282.8,1283.6,1284.4,1284.6,1285.3,1285.9,1287.5,1288.1,1287.9,1287.9,1288.4,1288.8,1289.8,1290.4,1291.6,1291,1292.2,1293.3,1294.8,1295.9,1298.8,1301.1,1302.3,1304.4,1307.8,1311,1314.5,1317.4,1319.5,1322,1324.9,1328.2,1331.2,1334.2,1337.5,1341.1,1344.4,1347.7,1351.3,1354.6,1357.8,1361.4,1365,1368.2,1372.2,1375.6,1378,1380.7,1383.7,1386.7,1388.2,1390.6,1393,1394.8,1397.8,1402,1405.4,1408.1,1412.3,1416.7,994.8,1142.6,1439.1,1450,1462.4,1477.1,1497.7,1522.4,1552.9,1585,1617.4,1649.4,1679.1,1709.4,1733.5,1751.5,1765.8,1771.9,1775,1775.5,1775.5,1770.3,1765.7,1762,1756.5,1749.6,1741.7,1734.4,1725.8,1715.4,1704.5,1690.5,1672.6,1651.4,1628.9,1605.6,1584.3,1562.6,1543.3,1528.6,1514.7,1504.1,1495.3,1488.2,1481.4,1474.8,1468.7,1463.9,1460.3,1457.8,1454.4,1451.7,1451.7,1451.4,1451.5,1453.6,1455.7,1457.9,1459.9,1462.1,1464.8,1467.3,1469.3,1471.1,1473,1475.3,1477.3,1183.9,153.6,0,0,243.4,246.3,739,995.3,1000.3,1005.6,1007.6,1010.7,1012.7,1011.7,1762.7,2274.7,2530.1,2536.9,2543.2,2550.1,2553.9,2561,2569.5,2575.8,2578,2577,2575.9,2573.4,2306.5,2305.2,2557.2,2551.4,2541.7,2530,2520.6,2509.2,2503.2,2492.9,2484.8,2478.1,2467.2,2460.2,2447.2,2428.5,2407.6,2386.8,2365.7,2339.3,2312.9,2292.9,2268.2,2249.2,2231,2214.3,2197.8,2182.3,2170.6,2158.4,2151.8,2141.9,2132.4,2126.2,2119.5,2117.4,2116,2112.5,2106.1,2098.8,2089.8,2078.1,2063.8,2048.7,2028.2,2005.6,1984.2,1964.5,1943.8,1926.8,1908.3,1898,1887.9,1881.3,1499.4,187.7,0,0,0,0,369.8,554.8,553.1,367.6,180.6
3878,3868.4,3858.6,3861.1,3870.7,3880.6,3892.7,3912.7,3932.8,3965.7,3981.2,3989.1,3994.4,3994.4,3989.3,3958.6,3928.2,3900.7,3885.8,3859.3,3835.5,1145.1,1102.5,325.8,0,0,0,652.6,2110.4,2115.9,2127.6,2140.1,2152,2171.8,2197.2,2224.2,2252,2278.6,2301.5,2316.9,2330.2,2340.8,2355.3,2358,2365.3,2368.1,2375.7,2382,2387.5,2392.3,2393.7,2394.8,2393.9,2395,2391.4,2385.3,2372.7,2360.8,2345.1,2329.3,2315.7,2298.2,2285.7,2268.3,2248,2227.9,2209,2198.4,2186.7,2181.8,2170.3,2164.1,2160.6,2160.3,2157.3,2165,2168.8,2169.4,2167.2,2166,2162.6,2158.4,2150.3,2143.8,2131.3,2118.2,2104.4,2089.9,2073.7,2057.3,2041.1,2029.5,2017.8,2006.3,2000,1995.9,1991.8,1986.5,1985.6,1984.9,1984.7,1984.7,1986.8,1986.2,1983.1,1980.6,1978.1,1974.8,1973.6,1973.8,1970.7,1965.6,1961.4,1957.8,1954.1,1949.8,1943.7,1936.7,1931.9,1923.8,1918.9,1913.9,1912.1,1910,1912.4,1917.7,1922.5,1928.9,1935.3,1942.5,1951.8,1957.3,1964.1,1967.3,1971.5,1971.5,1972.9,1972.9,1971.1,208.7,209.5,209.5,209.5,209.5,781.6,1929,1929.7,1928.4,1927.6,1925.1,1924.3,1921.1,1919.6,1921.8,1923.7,1932,1940.9,1950.3,1958.7,1971.1,1983.4,1993.4,2001.3,2001.3,1998,1991.6,1988.4,1983.3,1982.5,1985.7,1995.3,2004.5,2023.1,2043.2,2061.7,2082.4,2101.2,2117.6,2130,2139.7,2143.5,2147.3,2148.7,2149.5,2148.7,2145.9,2145.2,2140.5,2136.3,2133,2126,2120.8,2117,2113.2,2107,2099.1,2091.2,2084.3,2077.1,2069.8,2059.2,2051.6,2049.8,2048,2045.7,2043.4,2040.6,2034.3,2029.4,2024.7,2019.9,2014.1,2008.1,2002.4,1997.9,1997.4,1997.9,1998,1996.1,1993.7,1988.1,1786.9,1397,1393.3,1390.2,1382.5,1370.6,1154.9,388.8,0,149.1,144.2,578.4,1252.7,1381.3,1374.3,1367.5,1360.6,1352.8,1346.1,1338.9,1332.4,1325.8,1319.7,1314.2,1309.5,1306.4,1303,1299.8,1298.1,1296.6,1295,1294.3,1293.3,1294.1,1292.7,1292.2,1292,1290.4,1288.6,1287.5,1286.1,1285.4,1284.4,1283,1282.1,1281.6,1282.2,1283.1,1283.6,1284.6,1284.9,1285.6,1285.9,1287.5,1288.1,1287.9,1288.2,1288.5,1288.8,1289.6,1290.7,1291.6,1291.3,1292.2,1293.6,1294.6,1295.7,1298.2,1300.3,1301.7,1303.9,1306.5,1309.8,1312.7,1315.7,1318.3,1320.6,1323.7,1327,1330,1333,1336.3,1339,1342.6,1346.7,1349.1,1353.1,1356.6,1360.2,1363.8,1367.6,1370.7,1373.4,1376.2,1379.5,1382.8,1385.5,1387.6,1389.4,1392.2,1394.5,1396.9,1401.1,1404.2,1406.9,1411.3,1416.3,1421.8,1141.3,1438.1,1450.4,1462.7,1477.2,1498,1521.9,1552.9,1586.8,1619.1,1649.9,1679.5,1710.6,1734.8,1753.5,1767.4,1774,1776,1778,1778,1773,1767.2,1763.6,1757.6,1751.5,1743.2,1735.4,1726.7,1717.8,1706.5,1693.7,1676.7,1655.9,1632.1,1125.7,1587.9,1566.6,1546.1,1530.6,1515.4,1503.1,1493.5,1485.9,1479.3,1472.2,1467,1460.8,1456.4,1454.5,1453.3,1451.1,1452,1452.1,1453.7,1455.6,1459,1461.3,1463.8,1466.1,1469.5,1471.5,1473.1,1474.7,1475.9,1184.6,445.1,0,240.6,482.1,960.4,966.9,977.5,988.2,995.3,1001.3,1004.5,1005.5,1008.7,1258,1755.5,2509.5,2515.8,2516.8,2523,2528.6,2535,2536.6,2543.4,2546.1,2548.7,2547.8,2548,2548.1,2542.6,2540.2,2278.2,2534.4,2531.3,2524.9,2517.5,2512.5,2505.4,2495.5,2488.2,2478.3,2470.4,2456.3,2449.3,2434.9,2416.2,2397.1,2377.7,2353.7,2330.2,2305,2284.3,2263.2,2245,2225.4,2209.5,2194,2179.3,2167.5,2157.7,2149.6,2139.7,2131.6,2125.4,2120.9,2118.1,2117.4,2113.9,2107.5,2100.9,2092,2081,2067,2050.1,2030.9,2009.7,1988.2,1969.7,1947.4,1930,1911.2,1899,1889.1,1878.6,373.2,0,0,0,0,0,0,0,183.3,545.5,724
3912.7,3900.3,3895.3,3897.8,3902.6,3910,3917.6,3935.2,3955.6,3978.6,3999.3,4007.3,4007.3,4004.9,3999.8,3976.5,3938.2,3913.2,3888.3,3871.4,3844.9,1523.3,1108.6,0,0,0,0,427.3,2088.4,2096.2,2107.7,2122.2,2134.7,2155.6,2184.8,2209.9,2238.7,2269.3,2288.7,2305.1,2315.3,2324.9,2335.6,2339.3,2344,2347.7,1635.2,2358.4,2363.3,2367.2,2369.8,2370.1,2373.2,2368.8,2367.3,2361.3,2353.7,2341.5,2326.1,2308.1,2293.1,2277.3,2262.2,2245.8,2227.7,2210.7,2196.9,2185.4,2178.3,2167.9,2162.7,2151.3,2146.5,2144.6,2141.5,2145.3,2152.6,2153.5,2150.9,2151.2,2147.8,2145.1,2138.8,2132.6,2117.3,2105,2092.4,2078.5,2064.1,2048.4,2033.5,2021.2,2008.1,1999.8,1992.3,1985.5,1980.1,1976.2,1974.3,1972.9,1968.4,1968.3,1968.3,1967.7,1964.6,1962.7,1961.5,1960.2,1957.8,1957.3,1956.3,1954.5,1952.8,1951.8,1950,1946.9,1943.1,1938.4,1934.4,1927.6,1922.1,1916.5,1911.5,1910,1914.2,1918.9,1924.1,1928.9,1936,1943.2,1952.4,1957.3,1961.7,1964.3,1966.1,1968.5,1967.3,1968,792.6,207.3,208.7,208.7,208.7,208.7,208.7,1926.9,1927.2,1925.8,1924.5,1923.7,1922.4,1920.8,1919.4,1921.5,1923.6,1929.6,1938.5,1948.4,1958.6,1969.3,1980.8,1993.3,2000.6,2000.6,1999.3,1995.3,1992.7,1989,1990.3,1994.6,2001.3,2012.4,2029,2046.6,2062.3,2079.4,2096.1,2110.5,2119,2125.5,2127.8,2127.9,2129.9,2128.6,2127.3,2123.6,2121.9,2119.1,2113,2109.9,2103.7,2100.1,2095.6,2092,2084.2,2076,2064.8,2059.1,2051.6,2043.1,2032.3,2025.9,2022.3,2021.9,2018.9,2017.2,2014.4,2010.7,2008.2,2005.4,2002.1,1995.7,1990.4,1986.1,1984.3,1981.7,1981.8,1982.6,1982.6,1978.4,1973.3,1776.9,1388.5,1385.5,1381.7,1372.8,1181,971.1,578.1,347.3,146.6,142.5,706.2,1242.6,1375.4,1368.8,1363.8,1356.9,1349.9,1343.4,1337.4,1330.3,1324.7,1185.8,1314.1,1309.4,1306,1303.3,1300,1296.6,1295.2,1294.6,1293.5,1293.1,1292.8,1291.8,1291.6,1291.4,1289.5,1288.1,1286.4,1285.6,1285.2,1283.9,1283,1282.1,1281.3,1281.9,1282.8,1283.8,1284.9,1285.2,1285.6,1286.5,1287.8,1288.3,1288.2,1288.2,1288.5,1288.8,1289.6,1290.4,1291.6,1291.3,1292.5,1293.3,1294.4,1295.7,1297.3,1299.7,1301.1,1303.4,1306.3,1309,1311.8,1314.8,1317.4,1319.8,1322,1325.5,1328.5,1331.2,1334.2,1338.4,1341.4,1345,1348.4,1351.7,1354.6,1358.7,1361.7,1365.3,1369,1372.7,1375.6,1378.3,1381.9,1384.9,1386.7,1388.8,1391.2,1393.4,1396.3,1399.6,1403.3,1406.3,1410.6,1416.3,1421.9,1429,1438.5,1449.5,1463.4,1478.6,1499.2,1523.8,1554.9,1588.9,1622.1,1654.1,1684.7,1713.9,1738.6,1757.2,1770.4,1776,1778.5,1781,1779,1776,1770.3,1765.7,1759.5,1751.9,1744.7,1736.8,1729,1719.8,1710,1698,1681.2,1660.6,1638.3,1615.2,1592.4,1570.2,1549.7,1531.4,1515.7,1502.3,1491.7,1484.1,1477.5,1470.8,1465.5,1460,1456.8,1454.1,1453.3,1452.7,1453.4,1454.7,1456.3,1459,1462,1464.1,1467.6,1470.1,1473.6,1476,1476.3,1478.7,892.3,0,0,957.6,962.3,966,967.9,973.6,980.4,989.2,996.3,1001.3,1004.5,1990.6,1500.1,2246.2,2495.4,2503.4,2509.6,2512.7,2515.9,2518,2520.2,2520.8,2523.2,2524.8,2522.9,2520,2514.8,2513.5,2511.5,2512.7,2507.2,2506.3,2507.1,2506,2502.2,2503.4,2497.6,2489.6,2482.5,2474.6,2464.6,2448.6,2437.8,2423.1,2405.8,2385.2,2367.5,2345.6,2320.6,2298,2277.5,2259.1,2242.5,2223,2207.1,2192.5,2178.5,2166.8,2157,2149.5,2141.2,2130,2126.2,2121.6,2120.2,2118.1,2113.9,2109.6,2102.3,2094.1,2082.4,2069.2,2052.3,2034.3,2013.8,1993,1973,1951.9,1934.3,1915.5,1901.8,1892.1,1882.8,1311.9,0,0,0,0,0,0,0,0,0,716.6
3952.8,3937.7,3932.6,3927.5,3935.2,3935.1,3942.6,3952.8,3970.7,3991.4,4009.8,4022.9,4020.3,4020.5,4015.6,3989.4,3945.7,3928,3905.8,3886,3856.8,1530.2,1509.1,0,0,0,0,422.1,2063.1,2070.7,2085.3,2104.7,2117,2139.2,1948.7,2191,2222.6,2249.3,2273,2287.2,2299.2,2307.9,2314.9,2317.3,2321,2324.8,2333.2,2338.5,2343,2346.7,2350.1,2349.3,2348.8,2348.3,2344.1,2335.8,2328.7,2316.9,2301.4,2284.9,2269.9,2254.8,2239.5,2224.6,2206.3,2188.6,2175.4,2165.1,2155.3,2151.4,2141.3,2137.5,2133.7,2131.2,2128.6,2134.9,2135.3,2136.3,2135.7,2135.7,2131.8,2127.6,2121.1,2117.3,2105.8,2091,2078.5,2065.5,2052,2038,2026.1,2018.1,2005.6,1997.5,1987.6,1981.7,1978.7,1972,1971.3,1967.8,1965.1,1963.2,1960.7,1958.9,1956.5,1952.5,1949.4,1947.1,1943.7,1943.2,1941,1939.2,1938.7,1938.1,1936.4,1934.8,1934.7,1931.5,1928.6,1923.5,1919.2,1914.2,1912,1911.2,1914.2,1917.1,1924.1,1929.5,1937.4,1944.7,1950,1955.5,1960.5,1961.2,1961.9,1961.3,1960.1,1960.7,787.7,207.3,207.3,207.3,208,207.3,207.3,777.6,1926.2,1925.5,1924.3,1923.6,1921.5,1920.2,1918.1,1918.6,1920.8,1925.3,1934.7,1942.9,1954.4,1964.9,1978.1,1988.3,1996,1999.3,2001.3,1998.6,1996,1996.1,1998.5,2003.2,2009,2019,2032.3,2047.3,2061,2073.9,2085.8,2094,2101.2,2104.8,2104.1,2104.8,2104.8,2101,2101.7,2096.7,2092.7,2089.5,2087.1,2083.3,2078.3,2072.7,2070.5,2065.4,2058.6,2049,2039.3,2031,2023.5,1809.3,1800.5,1998.1,1995.1,1992.8,1991.4,1991.1,1990.3,1987.5,1986.1,1984.7,1982.2,1977.7,1974.4,1972,1968.9,1967,1968.5,1969.1,1967.3,1962.8,1957.4,1764.5,1570.4,1378.7,1374.2,1366.5,965.6,787,198,195.5,0,280.9,828.9,1101.7,1370.6,1365.6,1361.4,1354.3,1348.6,1341.8,1201.5,1196.4,1191.2,1318.2,1181.1,1309.4,1305.4,1302.3,1298.9,1296,1294.3,1294,1293,1292.5,1292.2,1291.1,1290.6,1290.1,1288.9,1287.5,1286.2,1285.4,1285.1,1283.9,1283.3,1282.1,1281.8,1281.9,1283.3,1284.3,1284.9,1285.9,1286.7,1287.3,1287.8,1288.3,1288.4,1287.9,1288.8,1289.1,1289.3,1290.8,1291.6,1291.9,1292.8,1293,1294.4,1295,1297.3,1300,1300.8,1303.1,1305.7,1308.1,1311.5,1313.9,1316.5,1319,1321.2,1324,1327,1330.3,1333.3,1336,1340.5,1343.8,1347.2,1349.9,1353.7,1357.2,1360.5,1364.4,1368.3,1371.4,1374.7,1376.8,1380.1,1383.7,1385.5,1388.2,1390.9,1393.1,1396.3,1399.6,1403,1406,1410.6,1415.6,1422.3,1429.7,1439.3,1450.5,1464.8,1481,1503.2,1528.1,1560.5,1594.4,1629.6,1662.9,1692.2,1721.6,1744.2,1763.4,1774.9,1779.5,1782.5,1783,1781,1778,1771.9,1767.2,1761.6,1754.9,1747.6,1739.8,1732.5,1723.7,1714,1703.6,1688.1,1666.9,1480.2,1296,1436.7,1574.6,1553.4,1534.5,1518.3,1503.4,1493.5,1485.6,1477.3,1471.5,1465.9,1460.5,1456.5,1454.6,1454,1453.7,1455.3,1459.7,1461.9,1465.6,1468.5,1471.6,1476.8,1481,1484.6,1486.1,1188.8,893.5,0,954.8,957.6,959.5,964.1,967.9,970.6,974.6,1955.9,2210.1,2463.5,2472.3,2477.2,2478.2,1497,2486.2,2492.2,2496.2,2503.4,2504.6,2509.7,2511,2513,2513.3,2510.7,2510,2507.3,2499.1,2497,2493.8,2491.8,2491.7,2490.7,2490.7,2490.7,2491.9,2493.2,2493.6,2492.8,2486.9,2476.7,2468,2458.9,2445.9,2432.3,2417.5,2396.6,2376.7,2356.4,2335.6,2313.6,2290.3,2272.5,2255.7,2238.4,2219.9,2205.5,2188.6,2176.9,2165.3,2156.2,2149.5,2140.5,2130.8,2125.4,2122.3,2121.6,2118.1,2114.6,2108.2,2101.6,2094.2,2083.1,2071.4,2057.7,2036.4,2018.8,1999.1,1979,1955.8,1936.7,1919.2,1905.2,1894.9,1885.2,1500.9,1119.7,0,0,0,0,0,0,0,0,353.4
3983.5,3965.7,3952.8,3952.8,3955.3,3950.3,3955.5,3973.5,3986.2,4012.5,4025.6,4041.7,4039.1,4031,4036.4,4015.2,3973.8,3945.7,3925.5,3903,3880.9,1549.3,1522.9,0,0,0,0,201.9,2039.2,2050.1,2065.2,2082.4,2099,2121.4,2147.3,2172.4,2202.1,2230.9,2254.1,2268.3,2279.4,2286.1,2294.9,2297.3,2303.3,2308.7,2312.5,2319.7,2322.5,2325.4,2330.3,2328.8,2328.8,2326.6,2319,2313.6,2303.9,2292.2,2278.2,2260.9,2247.3,2234,2220.6,2205.6,2186.3,2172,2158.1,2152.1,2142.3,2137.1,2128.5,2123.2,2121.2,2118,2116.3,2118.3,2119.9,2121.6,2119.6,2118.8,2115.2,2111.1,2101.4,2096.6,2084.6,2073,2059.4,2048.7,2039.3,2025.9,2017.2,2010.1,2002.3,1993,1988.1,1983,1980.9,1976.9,1974.4,1970.2,1961.1,1956.6,1952.3,1949.1,1944.3,1937.5,1933.9,1930.4,1925.6,1923.2,1923.3,1920.3,1919.7,1919.8,1918.8,1918.2,1918.8,1918.8,1918.2,1913.4,1912.7,1907.6,1908.5,1910,1913,1917.1,1923.6,1930.3,1936.8,1943.5,1950.3,1952.9,1956.6,1956.6,1956.1,1956.1,1954.9,1954.3,782,206,206.6,206.6,206,206,206,206,1732.2,1922.9,1921.6,1919.1,1918.9,1917.5,1915,1915.5,1916.7,1921.1,1927.1,1938.6,1947.2,1958.1,1970.4,1983.2,1992.3,1996.6,2001.3,2003.3,2001.2,2001.8,2004.4,2009.7,2014.9,2021.6,2033,2044.6,2055,2063.6,2071.1,2077.3,2079.4,2078.7,2076.5,2077.2,2076.5,2074,2071.3,2068.3,2065.2,2062.1,2057.7,2054.1,2050.3,2045.4,2040.5,2035.8,2029.3,2021,2012.4,2004.4,1994.8,1987.1,1979.3,1972.9,1969.5,1969.2,1964.7,1964.5,1964.8,1964.6,1964.6,1963.3,1963.3,1959.6,1957.7,1956.4,1955.6,1953.1,1955.7,1954.4,1953.2,1949.8,1747.7,1942.8,1937.1,1929.9,1739.2,1170.1,965.3,780.8,198.6,338.6,141.2,277.1,958.2,1232.2,1366.9,1362.3,1357.9,1352.4,1346.8,1340.9,1335.4,1329.7,1324.4,1318.8,1313.5,1308.9,1305.6,1302,1298.4,1295.8,1293.8,1293.8,1292.6,1292.3,1290.8,1290.3,1290,1289.5,1288,1286.7,1286.2,1285.1,1284.2,1283.5,1283.3,1282.7,1281.8,1282.7,1283.6,1284.6,1285.9,1286.1,1287,1287.3,1288.3,1288.5,1288.7,1289,1289.2,1289.6,1289,1290.8,1291.6,1291.9,1292.8,1293.5,1294.8,1295.2,1297.1,1300,1301.4,1302.2,1305,1307,1310.1,1313,1315.9,1317.9,1319.7,1322.7,1325.8,1329.1,1331.8,1335.4,1339,1342.9,1346.6,1348.8,1352,1356,1359.9,1363.2,1367.3,1370.8,1372.8,1375.9,1379.2,1382.2,1385.2,1387.3,1390.3,1392.4,1395.4,1399,1403,1406.6,1411,1416.2,1422.9,1429.8,1439.9,1450.8,1465.2,1484,1507,1533.6,1565.6,1602.2,1638,1671,1702.1,1731.5,1754.8,1770.3,1782,1786,1786.5,1786,1784,1780.5,1773.9,1769.9,1763.7,1756.8,1750.5,1742.3,1735.8,1728.1,1720.2,1710.2,1695.1,1673.8,1484.6,1300.7,1280.9,1576.6,1554.2,1535.6,1518.2,1502.4,1491.7,1484,1477,1471,1464.9,1460,1456.8,1455.2,1454.6,1455.6,1458.5,1464.5,1471.2,1474.9,1479.9,1485.6,1492.2,1348.1,902.7,0,905.7,484.8,964.1,963.2,960.4,960.4,965.1,969.8,971.6,975.5,2439.9,2449.6,2458.5,2467.6,2473.2,2478.2,2483.2,2483.2,2487.2,2488.2,2493.1,2496.3,2500.8,2499.8,2505,2503.3,2499.2,2498.6,2495.8,2486.7,2483.8,2480.8,2479.7,2480,2478.9,2479.1,2481.1,2481.2,2482.1,2482.8,2486.1,2481.2,2473.3,2467.5,2457.5,2441.3,2430.5,2413,2393.8,2371.3,2351,2327.6,2306.5,2285.1,2269.2,2250.7,2235.9,2218.3,2203.1,2187.8,2176.1,2163.8,2157,2150.2,2139.7,2131.6,2126.2,2122.3,2121.6,2117.4,2114.6,2107.4,2100.9,2093.5,2083.8,2071.5,2060.7,2041.4,2022.7,2005.2,1984.7,1963.9,1941.7,1923.8,1910.1,751.5,1696.9,1873.8,555.3,0,0,0,0,0,0,0,0,174.5
4009.4,3986.1,3968.1,3965.4,3963,3968.3,3970.9,3983.6,4001.9,4023,4044.3,4052.3,4057.7,4055.1,4044.3,4030.9,3989,3968.5,3955.8,3927.8,3905.3,1559.1,1162,0,0,0,0,0,2027,2037.9,2053.5,2070.7,2086,2106.9,2129.4,2149.8,2175.7,2199.1,2222.4,2233.8,2243.1,2246.4,2255.9,2261,2269.4,2276.5,2283.3,2289.9,2296.3,2303.9,2308.7,2307.5,2304.5,2300.7,2296,2289.7,2275.3,2264.1,2249.4,2233.3,2221.9,2209.9,2195,2182.3,2168.1,2153.1,2147.2,2137.6,2127.8,2121.6,2115.9,2109.1,2105.1,2104,2102.4,2100.8,2102.9,2100.8,2100.2,2096.6,2089.8,2083.4,2076.6,2068.8,2060.2,2047.3,2036.9,2024.9,2016.4,2009,2001.9,1996.3,1991.1,1985.6,1981.5,1975.9,1971.7,1966.4,1957.8,1951.9,1942.3,1936.6,1928.6,1921.4,1915.2,1909.6,1905.4,1903.1,1899,1897.3,1895.1,1894,1893.9,1893.9,1895.1,1894.2,1895.4,1897.8,1898.9,1898.6,1900.2,1900.8,1903.1,1907,1910.6,1915.3,1922.5,1928.8,1935.5,1939.2,1944.1,1948.4,1949,1948.6,1948.7,1948.8,1947.1,1945.3,773,773.1,581.8,203.9,203.2,202.6,202.6,202.6,1724.7,1915.3,1913.4,1912.8,1912.1,1910.2,1909,1909.4,1909.4,1913.4,1916.3,1925.9,1936.8,1948.3,1960.5,1974.3,1983,1992.1,1997.8,2002.6,2004,2003.9,2006.5,2011,2016.3,2023,2030.3,2036.4,2043.2,2048.1,2052.9,2055.6,2055,2054.3,2052.9,2050.8,2049.5,2044.8,2043.4,2038.6,2034.3,2030,2025.8,1828.4,2019.8,2014.3,2009.4,2003.5,1997.4,1990.4,1984.6,1976.1,1970.2,1962.5,1953.3,1948.5,1944.5,1942.4,1940.4,1939.6,1940,1939.8,1940.4,1940.3,1940.9,1940.8,1940.2,1940.3,1940.8,1940.2,1940.2,1940.2,1743,1739.6,1736.7,1924.5,1919,1716.4,1896,769,376.1,379.2,0,142.5,278,275.3,818.6,1090.7,1363.2,1359.9,1355.3,1350.8,1345.5,1340.1,1334.5,1329.7,1324.4,1318.1,1313.3,1309.2,1305.6,1302.5,1298.7,1295.5,1293.8,1293.3,1292,1291.1,1290.5,1289.1,1288.3,1287.8,1287,1286.7,1285.4,1284.5,1284.1,1283.8,1283.5,1283,1282.7,1283.9,1284.2,1285,1285.6,1285.9,1286.9,1288,1288.5,1288.5,1288.9,1289.2,1289.4,1289.8,1289.9,1291.1,1291.6,1292.5,1293.4,1293.5,1294.8,1295.7,1296.8,1298.8,1300.8,1302.5,1304.6,1306.7,1309,1311.9,1314.7,1316.4,1318.5,1321.8,1324.1,1327.3,1330.9,1334.2,1337.5,1341.1,1344.9,1348.5,1351.1,1354.3,1357.8,1362,1365.6,1369.4,1371.8,1374.7,1378.6,1381.3,1384.6,1386.7,1390,1392.1,1395,1398.1,1402.6,1406.6,1410.5,1416.2,1421.9,1430.1,1439.9,1451.7,1466,1485.7,1511.6,1539.7,1573.9,1612.8,1648.9,1682.3,1713.1,1742.5,1764.4,1777.5,1787.1,1789,1789.5,1789,1785.5,1783,1778,1772.9,1767.4,1760.4,1753.4,1746.3,1738.8,1731.5,1723.6,1713.5,1699.3,1677.1,1649.3,1624.8,1601.3,1577,1554.2,1534.7,1517.2,1500.2,1490,1482.6,1475.6,1469.7,1464.8,1459.6,1457.5,1454.9,1455.3,1457.5,1462.7,1471.2,1481,1487.4,1493.4,1502.9,1054.4,0,0,0,935.9,962.3,1920.4,2156.2,1433.4,2394.6,2162.6,2409.5,2419.8,2428.4,2433.9,2447.7,2455.6,2464.6,2471.3,2473.3,2477.2,2476.2,2475.2,2480.1,2484.2,2485.3,2490.8,2489.8,2493.8,2490.8,2489,2490.4,2484.7,2479.6,2470.8,2469.9,2469.9,2469,2468,2467,2469.2,2467.3,2469.6,2470.7,2471.2,2471.8,2466,2462.1,2452.1,2436,2424.3,2406.5,2387.6,2364.1,2341.3,2322.4,2297.9,2277.6,2262.5,2246.6,2231.8,2215.9,2201.6,2187,2174.5,2164.5,2156.2,2148.8,2139.7,2132.4,2127.8,2121.6,2121.6,2117.4,2113.2,2105.3,2098.8,2091.5,2083.1,2071.6,2060,2045.6,2028.9,2013.8,1995.3,1975.7,1953.7,1935.8,1726.4,752.6,749.2,745.2,369.9,0,0,0,0,0,0,0,0,0
4027.7,4001.6,3980.9,3975.8,3978.3,3973.3,3978.6,3988.8,4009.7,4033.3,4054.8,4065.8,4068.4,4065.7,4060.1,4046.6,4009.8,3988.9,3968.2,3953.1,3932.9,1566.6,782,377.8,0,0,0,203.2,2028.2,2039.9,2056.1,2070.9,2082.6,2096.5,2114.4,2128.2,2145.4,2161.8,2177.5,2183.6,2186,2188.5,2195,2203.1,2215.2,2223.6,2233.5,2244.4,2255.5,2267.6,2275.6,2280.7,2279.1,2278.6,2271.4,2264.9,2249.3,2238.7,2227,2214.3,2202.1,2192.8,2179,2166.8,2153.3,2144.6,2133,2124.1,2111,2105.1,2096.9,2093.3,2090.4,2087.1,2083.9,2082.6,2079.9,2079.9,2073.7,2069.1,2061.2,2054,2044.8,2039.4,2032.1,2018,2009.6,2001.5,1994.3,1989.3,1985.5,1980,1973.1,1967.7,1965.2,1956.5,1951.3,1943.3,1934.4,1924.9,1916.5,1908.6,1899.1,1891,1886.3,1881.1,1878.2,1873.6,1870.7,1868.5,1867.9,1867.8,1868.6,1870.4,1873.4,1874.7,1876.9,1879.8,1883,1885.9,1890.5,1893.2,1897.2,1903.5,1907,1911.8,1917.7,1922,1928,1931.6,1935.8,1937,1938.3,1936.5,1936.6,1934.2,1932.4,762.5,762.1,760.4,572.7,199.9,199.3,198.6,198,197.4,1711,1902.7,1903.3,1903.9,1903.8,1901.4,1899.1,1900.2,1899.1,1899.7,1904.2,1911.7,1923,1935,1948.3,1961.7,1973.1,1981.8,1991.5,1998,2001.1,2003.9,2006.5,2009,2012.3,2016.3,2020.9,2025,2029.7,2030.4,2032.3,2032.9,2031,2027.1,2022.4,2022.3,2021,2017,2013.7,2007.7,2004.2,1999.6,1996.7,1996.1,1798.4,1794.2,1979.9,1976.1,1973.6,1967.7,1961.4,1955.5,1949.3,1939.6,1931.5,1926.9,1923.6,1921,1917.8,1915.2,1915.7,1916.6,1916.5,1921.2,1920.5,1921.1,1922.8,1925.2,1926.4,1927.5,1928.3,1733.7,1732.9,1728.1,1725.2,1717.7,1709,1495.3,1288.4,717.7,178,0,0,0,275.3,409.8,816.9,953.5,1360.6,1357.3,1354,1349.6,1344.1,1339.3,1333.9,1329.3,1323.8,1318.7,1313.8,1309.8,1305.9,1302.3,1298.7,1295.9,1293.3,1292.6,1292,1290.8,1289.4,1289,1288.4,1287.8,1287,1286.2,1285.1,1285.4,1284.7,1283.5,1283.5,1283.8,1283.3,1283.6,1284.1,1284.8,1285.9,1286.2,1287.5,1288.5,1288.5,1288.8,1289.2,1289,1289.7,1290.1,1290.2,1290.8,1291.9,1292.8,1293.4,1294.1,1295.2,1295.5,1296,1298.8,1300.5,1302.5,1304.1,1306.2,1307.9,1309.9,1313,1314.9,1317.9,1320.1,1322.9,1326.2,1328.8,1332.4,1336,1340.5,1344,1347.6,1350.8,1354.6,1357.8,1360.5,1364.4,1367.5,1371.2,1374.3,1376.8,1380.7,1384,1385.8,1389.1,1391.2,1394.1,1398.1,1402.6,1406.6,1411.2,1416.5,1422.2,1429.7,1439.5,1451.3,1466.6,1488.2,1515.9,1546.2,1582.1,1620.8,1657.3,1692.5,1724.2,1752.1,1771.2,1784.1,1791.2,1792.8,1791.8,1791.8,1789.1,1785,1780.5,1775.9,1769.5,1763.7,1757.4,1749.4,1743.8,1733.9,1726.6,1715.8,1700,1677,1648.1,1622.8,1598.4,1574.6,1549.8,1531.4,1513.2,1496.1,1486.4,1479.5,1473.2,1467.3,1462.7,1459.3,1456.8,1455.7,1456.7,1459.7,1465.9,1477.9,1491.1,1502,1509.2,1520.9,302.2,0,0,238.7,1824.6,2352.2,2396,2393.1,2389.2,2390.1,2399.5,2408.6,2419.1,2427.5,2434.2,2445.9,2455.7,2461.6,2465.6,2467.3,2473.3,2473.2,2471.1,2471.3,2475.4,2478.4,2481.5,2482.6,2484.9,2479.9,2483.1,2477.4,2474.5,2466.3,2461.7,2458.9,2459,2458.2,2456.2,2455.2,2454.3,2453.5,2454.9,2455,2456.2,2453.7,2451.2,2449.7,2441.7,2428.6,2413.2,2396.8,2378.6,2113.9,2333.3,2309.2,2287.8,2270.9,2256.6,2242.5,2230.2,2213.5,2200.8,2185.4,2172.9,2164.5,2155.4,2148.1,2140.5,2133.8,2127.8,2123,2121.6,2117.4,2111.1,2103.2,2096,2090.1,2080.3,2068.6,2059.2,2047,2032.3,2018.9,2004.1,1984.9,1966.7,1949.2,1739.7,755,751.5,187.2,186,184.9,0,0,0,0,0,0,0,0
4030.3,4012,3991.2,3988.6,3988.6,3991.2,3988.8,4001.8,4022.6,4041.3,4057.4,4076.5,4076.3,4068.3,4068.1,4054.6,4025.5,4007,3986.2,3968.2,3958.1,1179.2,389.8,0,0,0,0,0,1426.1,2049.5,2060.9,2072.9,2079.9,2088.8,2096.7,2101.8,2112.8,2124.6,2130.7,2130.6,2127.1,2130.2,2133.9,2141.5,2153.7,2165.3,2176.9,2189.6,2206,2221.8,2234.8,2244.5,2247.8,2249.3,2244.5,2239.6,2226.5,2217.7,2208,2194.2,2183.5,2175.9,2164,2153.2,2139.6,2131.5,2118.2,2104.5,2096.7,2088,2080.7,2076.1,2072,2070.3,2068.5,2065.8,2064,2056.9,2050.4,2043.8,2034.5,2026.5,2018,2009.6,2001.7,1992.4,1985.2,1977.8,1971,1966.2,1963.3,1956.9,1948.9,1938.6,1934,1927.1,1919.4,1912.1,1900.6,1891.3,1884.2,1879.3,1872.8,1865.1,1859.9,1856,1851.6,1847.6,1844.9,1842.9,1841.7,1841.7,1845.5,1846.8,1849.6,1852.3,1856.8,1862.4,1868.1,1875,1879.6,1887.5,1892.1,1895.6,1902.2,1907,1913.6,1918.6,1923.1,1924.9,1926.1,1926.1,1925,1925.3,1922.3,1918,1917.5,752,749.8,748.7,747.6,378.8,194.9,194.9,194.3,193.7,1701,1892.1,1892.7,1891.6,1892.8,1889.2,1888.1,1887,1885.2,1885.3,1887.6,1895.8,1905.9,1918.7,1931.8,1946.5,1957.5,1968.5,1981.3,1990.1,1995.3,1997.3,1997.9,2002.5,2004.4,2006.4,2009,2009.1,2009.8,2008.5,2010.5,2009.8,2004.3,1999.9,1994.7,1993.3,1990.2,1986.5,1983.4,1977.4,1974.1,1970,1968.1,1969.1,1966.5,1775.8,1772.2,1959.2,1956.6,1950.1,1943.2,1937.5,1931,1921.4,1911.5,1903.8,1898.2,1895,1893.2,1890.9,1892.5,1892.9,1894.5,1896.7,1898.9,1901.2,1904.2,1908.4,1910.1,1911.2,1913.7,1913.1,1911.4,1717.9,1711.6,1699.8,1682.5,1469,1258.9,869.9,167.8,0,0,0,411.4,408.6,817.6,1088.8,1222.5,1355.6,1351.6,1347.2,1343.3,1338.1,1333.6,1329,1323.2,1318.7,1314,1309.8,1306.3,1302.3,1299.5,1295.9,1294.7,1292.9,1291.5,1290.6,1289.7,1289,1288.5,1287.9,1287.3,1286.2,1285.6,1285.6,1284.9,1284.1,1284.1,1284.1,1284,1284,1284.5,1285.3,1285.9,1286.5,1287.7,1288.5,1288.5,1289.1,1288.9,1290,1290,1290.8,1290.5,1291.3,1291.9,1292.8,1293.4,1294,1295.2,1295.5,1296,1298.3,1300.5,1301.9,1303.9,1305.3,1307.1,1308.7,1311.4,1313.6,1315.9,1318.3,1321,1324.1,1328,1331.2,1334.8,1338.7,1342.9,1346.8,1349.9,1353.7,1356.4,1360.2,1363.5,1366.8,1370.9,1373.1,1375.9,1379.5,1382.8,1385.2,1388.5,1391.2,1394.4,1398.5,1402.6,1406.9,1411.8,1417.8,1422.6,1429.3,1439.2,1451.7,1468.4,1491.8,1521.5,1552.9,1591.9,1468.4,1666.2,1532.5,1732.9,1759.4,1778.4,1789.7,1794.9,1795.9,1795,1793.4,1791.9,1786.6,1782.4,1778.4,1771.5,1766.8,1759.5,1751.8,1744.6,1736.3,1727.6,1713.9,1696.9,1671.9,1643.1,1616.3,1590.3,1567.4,1542,1523.9,1507,1491.8,1482.3,1475.4,1469.1,1464.9,1460.6,1458,1456.6,1455.5,1457.5,1462.1,1472.3,1484.2,1500.8,1513.2,1524.2,1540.4,976.4,0,404.4,1714.5,2255.1,2346.8,2393.3,2391.3,2393,2392.8,2398.4,2407.9,2417.3,2425.7,2432.4,2440,2446.9,2453.9,2457.7,2461.5,2462.3,2461.2,2462.3,2462.4,2461.4,2463.6,2468.7,2471.9,2471.9,2469,2466.3,2464.3,2460.4,2454.4,2450.7,2450.7,2447.1,2446.2,2442.3,2440.5,2438.7,2436,2437.2,2437.4,2437.9,2437.2,2433.6,2434.7,2177.9,2413.7,2400.9,2385.9,2365.2,2103.3,1382.7,2070.2,2280.2,2264.2,2253.3,2240.2,2225.5,2211.2,2196.9,2183.8,2173.7,2165.2,2157.7,2147.4,2140.4,2134.5,2129.4,2125.4,2121.6,2116,2109.7,2100.2,2093.9,2085.8,2076,2065.5,2054,2043.3,1826.5,1816,1803.3,1790.3,1778.5,1765.4,1753.7,1152.1,755,187.7,0,0,0,0,0,0,0,0,0,0
4025,4009.4,3993.8,3993.8,3993.8,3993.8,3993.8,4012.1,4027.9,4046.5,4060.1,4081.7,4081.7,4073.5,4073.3,4065.1,4038.4,4017.4,3999.1,3991.3,3973.4,1586.8,787,382.5,371,0,0,0,0,1857,2076.2,2079.7,2081.1,2079.8,2077.9,2078.1,2082.2,2083.7,2082.4,2079.4,2073.7,2076.1,2077.7,2084,2092.7,2105.7,2117.6,2133.5,2152.4,2169,2190.2,2202.2,2215.1,2220,2219.9,2216.5,2207.9,2199.2,2190.9,2179.3,2171.7,2165.3,2154.4,2144.8,2127.8,2119.8,2105.7,2093.7,2085.4,2076.7,2067.4,2061.7,2058.1,2054.9,2053.4,2052.2,2047.6,2039.4,2030.2,2023.4,2013,2003.9,1994.7,1987.2,1977.6,1969.6,1961.6,1954.7,1947.2,1938,1932.2,1918.2,1908.4,1898.2,1890.1,1882.3,1877.2,1873.3,1865.1,1859.2,1853.5,1849,1843.9,1839.1,1833.4,1830.9,1827.5,1824.1,1821.6,1821.1,1818.9,1817.1,1820.8,1823.7,1826.4,1833.7,1839.5,1846.2,1853.9,1861.8,1871.4,1878.4,1887.6,1890.5,1897.6,1901.6,1908.8,1911.9,1915.4,1915.7,1915.1,1912.1,1910,1907.1,1904.9,1902.5,932.3,740,737.8,736.3,736.9,554.6,372.3,372.4,182.2,373.4,1880.1,1881.2,1881.7,1881.8,1880.6,1876.6,1875.5,1873.4,1871.1,1868.7,1871,1877.9,1887.6,1900,1914.7,1930,1939.9,1951.4,1966,1977.6,1984.4,1986.9,1990.1,1992.2,1994.2,1994.1,1994.1,1992,1990.7,1988.7,1986.3,1983.1,1979.4,1972.4,1966.5,1965.4,1961.2,1956.9,1953.1,1947.5,1943.7,1942.2,1943,1945.5,1945.3,1945.8,1757.1,1756.7,1941.7,1938.3,1932,1921.6,1912.8,1903.1,1893.4,1884.8,1878.7,1872.8,1870.2,1867.9,1868.2,1871.5,1873.1,1875.9,1877.1,1881.1,1886.2,1891.5,1893.8,1896.1,1897.8,1897.7,1897.2,1890.8,1881.1,1854,1462.6,1422.2,872.1,522.5,332,146.6,0,277.8,687.1,956,1089.7,1225,1356.6,1353.9,1350.4,1345.9,1341.7,1336.9,1331.8,1328.1,1323.2,1318.4,1313.8,1310.1,1306.5,1303.2,1299.7,1296.7,1294.8,1293.3,1292.4,1290.9,1290.5,1289.4,1288.4,1288.6,1287.8,1287,1285.8,1286,1285.9,1284.4,1284.4,1284.4,1284.5,1284.8,1284.8,1285.6,1286.4,1286.7,1288.3,1288.5,1288.6,1288.9,1289.1,1290,1290.3,1290.8,1290.6,1291.3,1292.2,1292.5,1293.6,1294,1294.6,1295.2,1295.8,1298.2,1299.7,1300.9,1303.3,1304.6,1305.6,1307.7,1309.3,1311.9,1314.5,1317.1,1319.9,1322.6,1325.6,1329.5,1333.6,1337.2,1341.7,1345.5,1348.5,1351.9,1355.5,1359,1362,1365.9,1370.2,1372.5,1375.3,1378.6,1381.9,1385.2,1388.2,1391.2,1393.9,1398.5,1403.3,1406.6,1412.4,1417.8,1422.8,1429.7,1439.8,1451.8,1469.1,1493.7,1525.7,1558.5,1597.2,1475.7,1507.2,1538.2,1221.7,1766.3,1782.6,1792.8,1796.9,1797.1,1796.6,1794.4,1793.4,1788.2,1785,1779.4,1773.5,1767.4,1760.6,1752.4,1745,1735.9,1725.1,1710.2,1691.8,1665.8,1636.7,1608.9,1423.9,1558.6,1535.1,1516.6,1500.3,1485.5,1476.7,1471.6,1466.2,1462.7,1460.3,1457.3,1456.6,1455,1457.5,1462.9,1473.7,1487.8,1506.1,1522.3,1535,1587.3,1677.2,353.4,401.4,2155.1,2254.3,2341.4,2393,2392.2,2392,2393.7,2400.3,2406.8,2412.6,2422.9,2429.6,2436.2,2441,2447.8,2452.8,2450.8,2453.6,2454.4,2449.5,2450.6,2450.8,2453.9,2457,2457,2459,2458.1,2454.2,2454.3,2447.5,2444.8,2443.8,2440.2,2436.3,2435.3,2434.5,2427.8,2426,2424.4,2422.8,2420,2417.4,2415.8,2415,2412.8,2406.4,2152.6,2386.4,2130.6,2352.7,2330.8,1842.5,2060.1,2273.5,2259.2,2247.7,2236.2,2223.9,2206.4,2196.2,2183.9,2173.8,2163.6,2156.2,2146.6,2141.2,2135.2,2130.2,2127.8,2121.6,2116.7,2109.7,2099.5,2090.4,2082.3,2073,2062,2049.8,2040.4,2030.2,2019.1,1395.8,1994.5,1379,1572.7,1566,1360.6,768.4,188.3,187.2,0,0,0,0,0,0,0,0,0
4022.4,4006.8,3996.4,3993.8,3999,3996.4,4004.2,4006.8,4025.1,4048.9,4062.6,4078.8,4084.3,4081.4,4073.1,4070.3,4048.8,4025.2,4012,4004.2,3986.1,1589.4,792.1,0,0,0,0,0,0,0,1455.9,2085.6,2077.6,2069.3,2060.3,2057.5,2055.4,2052.2,2048.2,2042.1,2035.6,2030.8,1415.6,2034.8,2041,2047.2,2057.1,2073.3,2089.9,2107.5,2129.6,2148.5,2165.7,2176.3,2185,2189.6,2182.1,2179.7,2173.1,2165.1,2157.6,2152.1,2144,2132.8,2118.1,2108,2093.4,2081.3,2072,2063.5,2055.3,2049,2044.2,2040,2039,2035.6,2029.4,2021.8,2012.9,2004.6,1993.4,1984.1,1975.4,1966.6,1954.8,1944.9,1928.7,1915.9,1905.2,1894.2,1882.6,1871.1,1859.4,1853.1,1848,1843.6,1841.4,1837.3,1832.6,1829.8,1825,1823.3,1818.4,1813.4,1809.7,1806.7,1806.2,1802.4,1799,1797,1796.5,1794.5,1797.6,1801.4,1806.5,1814.2,1822.6,1831.1,1841.1,1851.7,1859.9,1869.6,1880.6,1885.8,1891.6,1897.8,1902.5,1902.6,1906,1903.9,1901.8,1897.3,1894.5,1890.5,1887.6,1496.8,1496.3,1493,1490.6,1486.8,1485,1477.9,1480.2,1480.7,1482.7,1485,1865.5,1866.9,1867,1866.4,1864.7,1862.7,1860.4,1858.1,1855.3,1852.7,1853.6,1858,1868.2,1884.9,1898.8,1912.4,1925.3,1938.7,1953.8,1965.4,1971.7,1976.9,1977.5,1978.2,1978.8,1977.5,1975.7,1973,1971.1,1966,1962.9,1959.2,1952.6,1946.6,1941.2,1937.4,1934.1,1930.6,1927.9,1920.7,1918.2,1918.2,1922.6,1927,1931.9,1931.5,1930.6,1747.2,1745.8,1926.2,1917.1,1906.5,1894.7,1883.9,1874.1,1865.9,1859.4,1853.7,1848.2,1845.5,1846.4,1849.2,1852.2,1854.6,1857.9,1862.6,1867.6,1873.5,1877.4,1879.7,1880.3,1881,1879.4,1871.6,1662.9,1454.1,1243.1,873.2,527.8,796.9,460,422.9,555.2,828.2,1095.7,1364.9,1361.5,1358.7,1356,1352.1,1348.1,1344.7,1340.5,1335.4,1331.2,1326.9,1322,1318.1,1314.1,1310.6,1306.8,1303.5,1300.3,1297.6,1294.8,1293.9,1292.6,1291.6,1290.4,1289.4,1289.4,1288.8,1288.6,1287.8,1287.5,1287.2,1286.8,1285.1,1285.3,1285,1284.8,1284.8,1285.5,1285.8,1286.4,1286.7,1288.2,1288.6,1288.6,1289.1,1289.1,1290.6,1290.8,1290.8,1290.8,1291.4,1292.5,1292.5,1293.5,1294,1294.6,1295.2,1295.5,1298.2,1299.7,1300.9,1302.3,1303.6,1305.3,1306.5,1308.4,1311.1,1313.3,1316,1318.4,1321.5,1324.7,1328.6,1332.4,1336.6,1341.4,1344.6,1348.3,1351.6,1355.2,1358.8,1362.3,1365.9,1369.5,1372.1,1374.9,1378,1381.6,1384.9,1388.2,1390.9,1393.9,1398.1,1403.3,1406.9,1411.7,1416.8,1422.2,1429.7,1438.5,1450.4,1469.5,1495.2,1528.3,1563.1,1601.9,1479.4,1676.2,1715,1747.7,1772.3,1787.7,1795.5,1798.5,1797.5,1796.4,1793.8,1791.7,1788.2,1784,1778.4,1773.5,1766.9,1760.1,1752.3,1745.3,1735,1724.7,1706.9,1686,1659.8,1631.3,1602.6,1576.6,1551.8,1528.9,1511.5,1495.1,1481.4,1473.6,1468,1464.5,1461,1458.9,1457,1455.8,1454.7,1457.3,1463.4,1474.4,1489.9,1507.6,1523.8,1547.1,1608.6,1706,1470.9,0,2174.2,2271.4,2353.4,2394.9,2394.8,2395.7,2393.7,2395.6,2402.2,2409.6,2416.3,2419.3,2428.6,2433.3,2438,2441,2440.9,2441.8,2443.9,2440.7,2439.1,2440.2,2442.4,2444.5,2443.6,2446.5,2442.5,2440.6,2440.8,2436.9,2435.1,2434.2,2432.3,2431.4,2427.6,2423.7,2420.1,2416.4,2409.9,2405.4,2403.7,2399.1,2395.6,2393,2391.8,2387,2376.3,2365.9,2350.2,1857.3,2318.3,2298,2281.5,2264.5,2252.8,2242.8,2232.2,2219.1,2204.8,2193.1,2181.6,2170,2162.1,2155.5,2146.6,2142,2135.2,2131.7,2128.6,2122.3,2116,2109,2098.1,2088.9,2078.7,2068.7,2059.9,2048.9,2038.8,2028.6,2020.5,2008.4,1996.3,1984.6,1976.9,1967.3,1959.3,1760.8,386.9,187.7,0,0,0,0,0,0,0,0,0
4030.3,4009.4,3999,3999,3996.4,3996.4,4004.2,4006.8,4019.9,4040.9,4065.3,4073.3,4078.8,4078.4,4081,4072.8,4048.8,4035.5,4017.2,4004.2,3983.5,1592,792.1,0,0,0,0,0,0,0,0,1458,2085.7,2065.9,1846,2038.7,2035.9,2030,2021.4,2010.8,2002.8,1794.5,1993.9,1991.9,1994.1,1997.9,2001.2,2013,2029.3,2045,2067.3,2086,2107.1,2128.3,2141.4,2154,2158.7,2158.8,2155.8,2150.7,2143.4,2139.3,2130.1,2122.5,2108.8,2095.8,2083.9,2070.1,2060.5,2049,2039.2,2036.1,2030,2025.5,2021.9,2015.9,2010.8,1998.5,1988.3,1965.2,1952.9,1938.5,1916.4,1907.8,1887.2,1870.6,1863.3,1853.8,1846.5,1841.3,1834.1,1827.7,1819.3,718.6,1083.6,1810.8,1813.2,1808.1,1806.1,1803.1,1800,1797.8,1793,1790.9,1788.9,1785.6,1784.4,1781.4,1777.9,1776.9,1775.8,1774.9,1777.9,1781.6,1787.7,1795.5,1805.4,1816.7,1828.7,1839.9,1853.3,1863.3,1872.4,1879.9,1886.4,1890.9,1893.6,1894.6,1892.6,1889.5,1886.3,1881.5,1876,1871.7,1869,1865.5,1862.6,1860.9,1857.1,1850,1846.9,1841.6,1844.2,1846.4,1848.5,1849.9,1850,1853.1,1852.5,1850.9,1850.9,1846.8,1844.1,1840.8,1838.1,1833.5,1833.4,1840,1850.9,1865.4,1881.9,1894.9,1909,1922.8,1938,1950.8,1958,1962.9,1960.4,1959.8,1958.6,1958.6,1957.4,1953.2,1948.4,1943,1940.6,1937.3,1931,1924.6,1919.8,1918,1915.1,1911.8,1908.9,1903.4,1901.6,1902.8,1904.2,1910.6,1914.8,1917.1,1915.5,1915.5,1912,1906.9,1897.9,1887.8,1875.1,1863.8,1853.3,1843.9,1838.5,1833,1829.1,1825.9,1826.8,1828.7,1831.4,1835.1,1841.2,1846.1,1851.5,1857.8,1862.6,1864.9,1866.6,1866.8,1863.9,1486.9,912.6,895.1,531.5,496.6,914.7,873.6,846.4,836.6,827.9,1377.4,1231.6,1364,1360.8,1358.1,1353.9,1351.8,1347,1342.9,1338.4,1335.1,1330.3,1325.8,1321.7,1317.5,1313.9,1310.4,1307.4,1304.1,1300.6,1298.3,1296,1294.5,1292.6,1291.8,1291,1289.9,1289.9,1290,1289.7,1288.8,1288.4,1288.2,1288.3,1287.2,1286.2,1285.3,1285.3,1285.3,1285.5,1286,1286.4,1286.7,1288.5,1288.3,1288.6,1289.4,1290,1290.6,1290.8,1291.3,1291.1,1292.3,1292.3,1292.5,1293.3,1294.6,1294.6,1295.2,1295.7,1297.6,1299.1,1300.9,1301.7,1303,1305.1,1305.9,1307.3,1309.3,1312.4,1314.8,1317.5,1319.8,1323.5,1328,1331.2,1336,1339.9,1344.6,1348.4,1351.6,1355.2,1359.3,1362.9,1366.5,1369.8,1372.1,1374.9,1377.1,1380.1,1383.7,1387.9,1390.9,1393.9,1398,1403.3,1406.9,1411,1416.5,1421.2,1427.8,1438.1,1449.7,1469.1,1496.1,1529.7,1565.1,1606.4,1645.5,1682.7,1721.7,1753.6,1778.6,1790.9,1797.6,1799.6,1799.1,1796.4,1794.4,1792.3,1788.7,1783.5,1779,1772.9,1766.9,1760.9,1752.8,1745.3,1735,1722.7,1534.8,1515.3,1654.6,1624.9,1596.6,1569.8,1546.1,1523.3,1506.3,1491.1,1478.5,1470.1,1467,1463.2,1460.3,1457.9,1455.4,1454.3,1452.9,1456.9,1463.2,1474.6,1489.9,1507.5,1524.3,1557,1628.6,1725.5,1488.9,0,882.1,2281.9,2358.8,2396.6,2393.8,2393.8,2392.8,2390.9,2395.6,2402.3,2406.9,2413.3,2417.2,2421.8,2427.3,2429.1,2430.2,2433.2,2432.3,2428.6,2426.6,2427.8,2428,2430.1,2432.1,2431.1,2430.2,2427.3,2427.2,2424.4,2423.5,2424.5,2422.7,2421.7,2418.9,2414.3,2408.5,2403.1,2396.6,2390.8,2384.7,2380.2,2376,2373.4,2371.1,2367.6,2355.8,2345.9,2094.6,1846,1602,2287.8,2270.6,2255.5,2244.4,2236.3,2226.5,2215.1,2200.9,2188.5,2177.7,2168.4,2161.3,2153.3,2145,2140.4,2135.9,2132.4,2130.2,2125.5,2116.7,2106.9,2096.7,2087.5,2077.2,2066.7,2056.1,2046.1,2040,2029.4,2021.5,2009,1996.5,1983.8,1972.8,1960.3,1950.2,1749.3,1360.1,380.1,0,0,0,0,0,0,0,0,0
4017.2,4006.8,3999,3996.4,3993.8,3991.2,4001.6,4004.2,4022.5,4035.7,4051.7,4076,4083.9,4081.1,4081,4070,4051.4,4032.8,4017.2,3999,3981,1591.9,1571.9,0,0,0,304.9,282.5,729.1,699.2,0,0,1876.3,2063,2041.2,2027.8,2021.1,2012.6,2000.2,1987.2,1975.9,1967.8,1960,1955.1,1953.2,1950.7,1950.7,1956.4,1967.6,1982.4,2001.8,2024.4,2050.9,2071.5,2092.6,2113.3,2124.4,2132.7,2137.1,2135.7,2129.8,2128.5,2119.1,2109.9,2097.4,2084.3,2071.5,2058.8,2048.4,2038.2,2027.8,2021.5,2016.8,2010.6,2003.2,1995,1986.4,1962,1945.4,1920.5,1896.8,1879.6,1864.5,1848,1832.3,1820.9,1814.5,1805.8,1802.7,1799,1794.8,1791.2,1786.6,890,889,1783,1785.7,1784.2,1779.8,1777.3,1776.4,1774.4,1771.3,1769.8,1768.8,1766.8,1763.8,1761.7,1758.7,1757,1755.9,1755.8,1756.8,1761.5,1768.8,1778,1789.1,1802.1,1815.6,1829.6,1842.6,1855.4,1864.9,1874.1,1878.2,1882.5,1884.3,1882.8,1880.4,1876.1,1869.7,1864.6,1858.3,1854.5,1850.7,1847.3,1846.7,1844.9,1840.1,1837.6,1831.5,1832.5,1834.2,1835.2,1835.8,1837.3,1837.3,1839.3,1838.2,1835.6,1833.4,1831.2,1825.2,1822.1,1817.3,1809.1,1810,1815.5,1827.4,1843.3,1859.6,1875.1,1890.3,1905,1920.4,1933.4,1941,1942.3,1940.5,1939.3,1938.7,1936.2,1932.8,1929.6,1925.2,1921.6,1919.8,1916.8,1911.9,1909,1906.2,1905.2,1901,1898.5,1896.2,1893.3,1889.8,1889.9,1892.4,1896.3,1902.8,1902.8,1900.7,1897.1,1894,1887.1,1875.3,1864.5,1854.2,1844.6,1835.3,1826.3,1818.7,1813.6,1810.2,1809,1808.4,1810,1813,1818.3,1824.2,1831.4,1837.7,1846,1849.3,1853.7,1855.5,1855,1671.1,1472.9,900.4,528.8,518,805,900.8,852.9,839.1,831.5,1107.4,1375.9,1368.1,1364.5,1359.6,1356.6,1353.1,1349.7,1345.9,1341.7,1336.6,1333.3,1329.7,1325.2,1321.7,1317.7,1314.9,1310.7,1308,1304.9,1301.4,1298.9,1297.3,1295.1,1294.2,1292.7,1292.2,1291.3,1291,1290.7,1290.7,1290.2,1289.3,1289,1288.8,1287.7,1287.3,1286.5,1286.5,1286.1,1286.3,1286.3,1285.9,1286.5,1288.3,1288.3,1288.5,1289.4,1290,1290.6,1290.8,1290.8,1292,1292.6,1292.5,1292.8,1293.5,1294.6,1294.9,1295.5,1296.5,1297.3,1298.8,1300.6,1301.2,1303,1303.5,1305.3,1307.1,1308.7,1311.2,1314.5,1317.5,1319.8,1322.6,1326.5,1331.2,1201.5,1339.3,1344.6,1347.6,1352.2,1355.5,1359.3,1363.2,1366.5,1369.8,1372.4,1374.9,1377.1,1380.4,1384,1387.6,1390.9,1393.9,1398,1403,1406.3,1410.4,1414.9,1420.6,1427.2,1436.8,1448.9,1174.1,596.4,1532.4,1569.5,1610.4,1651.1,1686.8,1726,1757.5,1782.2,1794.5,1799.1,1801.1,1799.6,1797.6,1795.5,1792.4,1788.2,1783,1778.5,1771.9,1766.5,1761.5,1752.8,1745.9,1735,1721.6,1701.6,1678.6,1651,1621.6,1592.9,1408.3,1542.3,1521.4,1504.6,1489.4,1477.8,1470.5,1465,1461.6,1459.4,1456.9,1453.6,1452.7,1453.3,1455.5,1461.8,1473.5,1489.5,1508.6,1525.9,1565.1,1649.2,1572.6,945.2,0,877.8,1378.1,2363.3,2397.4,2393.8,2391,2389,2389,2392.8,2396.5,2401.2,2404,2407.7,2412.5,2412.3,2415.1,2415,2417,2415.1,2414.4,2414.6,2414.7,2414.7,2417.7,2417.8,2416.9,2416.9,2415.2,2414.2,2414.2,2414.3,2412.5,2415.3,2411.6,2409.5,2403.6,2398.3,2389,2382.5,2373.3,2365.2,2358,2350.8,2344.6,2342.1,2336.4,2327.4,2319.5,2308.8,2300.2,2287.2,2270.1,2259.6,2246.4,2235.5,2231.4,2219.2,2209.8,2194.8,2183.2,2173.9,2166,2158.5,2152.5,2144.3,2138.9,2138.2,2133.8,2131,2124.8,2116.7,2106.2,2096,2084.6,2075.1,2064.4,2056.1,2046.8,2038.5,2029.9,2021.3,2008,1994.3,1980.9,1966.4,1952,1940.3,1737.6,1154.1,188.3,0,0,0,0,0,0,0,0,0
4017.2,4006.8,3999,3988.6,3986,3991.2,3993.8,4001.6,4019.8,4040.9,4049.1,4067.9,4083.9,4086.5,4075.5,4064.6,4051.2,4027.6,4006.8,3996.4,3968.2,1976.6,1562.2,366.6,718.3,336.5,315.8,298.9,1026.8,974.7,474.4,0,216.1,1854.5,2037.2,2017.8,2007.9,1997.6,1984.5,1969.6,1954.5,1942.6,1931.8,1923.2,1917.6,1914.1,1909.2,1912.2,1916.4,1927.8,1940.5,1959.5,1985.2,2008.3,2031.8,2059.3,2080.6,2096.7,2107.3,2117.6,2114.7,2112.8,2105.1,2096.4,2083.3,2074.8,2058.5,2044.2,2035.3,2023.8,2014.7,2007.4,1998.6,1991.5,1984.7,1971.9,1952.1,1923.5,1898.5,1872.4,1850.6,1833.4,1816.1,1803.3,1789.9,1778.5,1772.2,1590.6,1765.4,1412.1,1585.5,1406.6,1756.3,1755.5,1755.7,1756.3,1757.1,1757.6,1755.1,1751.7,1750.1,1749,1747.8,1745.8,1746.7,1743.9,1741.7,1740.8,1738.9,1737.4,1736.5,1737,1741.8,1745.6,1755.6,1766.2,1779,1792.6,1808.6,1823.6,1837.8,1850.4,1858.8,1868.2,1872.9,1876.8,1876,1871.2,1866.6,1860.9,1853.8,1847.8,1840.9,1835.4,1833.1,1833,1830.9,1828.3,1825.8,1822.8,1822,1822.9,1824,1824.9,1825.8,1825.7,1826.7,1826.6,1824.4,1820.5,1818.3,1813.1,1807.8,1801.3,1795.9,1787.4,1786.1,1793.4,1803.7,1821.1,1838.2,1854.1,1869.6,1883.6,1900.4,1911.8,1916.9,1919.8,1916.9,1913.4,1911.7,1909.4,1907.8,1903.8,1902.1,1900.9,1900.3,1899.7,1897.3,1893.8,1893.2,1891.4,1888.4,1886.6,1883.4,1880.8,1877.6,1876.3,1875.4,1879.3,1881.9,1883.9,1880.8,1875.5,1869.1,1861.6,1852.7,1842.4,1833,1823.8,1815,1808.2,1801.6,1796.7,1793.4,1790.6,1791.7,1794.7,1798.3,1804.7,1810.8,1820,1827.9,1837.3,1841.7,1844.9,1844.9,1844.9,1838,1093.5,533.5,343.6,335.2,151.3,577.4,841.8,833.5,828.5,1244.2,1373.4,1366.8,1362.7,1359.6,1355.7,1352,1349.3,1344.8,1340.5,1336.6,1332.1,1329.1,1324.9,1320.8,1317.7,1314.6,1311.5,1308.6,1305.5,1302.6,1299.8,1297.5,1295.9,1294.7,1293.2,1292.5,1292.5,1291.9,1291.3,1291.5,1290.6,1290.4,1290,1289.9,1288.3,1287.8,1286.9,1286.7,1286.1,1286.3,1286.1,1286.1,1287.1,1288,1288.3,1289.1,1289.7,1290.9,1290.9,1291.5,1292.4,1292.5,1293.1,1293.1,1293.3,1294,1294.4,1294.9,1295.7,1296.2,1297.3,1298.5,1300.3,1301.1,1303.1,1303.3,1304.7,1306.8,1308.5,1311,1313.9,1316.3,1319.1,1322.6,1325.9,1330,1334.5,1339,1344.1,1347.3,1351.9,1355.5,1359,1362.9,1366.8,1369.8,1373.1,1375,1377.1,1380.1,1383.4,1387,1390.6,1393.9,1397.7,1402.7,1406,1409,1414.3,1419.2,1425,1435.8,1448.6,1469.1,1348.9,1533.9,1571.5,1612.2,1654.1,1691.2,1730,1760.5,1783.3,1794,1799.6,1801.3,1799.6,1797.1,1794.5,1790.9,1788.3,1783.5,1778.4,1771.8,1767,1759.8,1752.4,1745,1734.5,1720.8,1700.2,1675.4,1647.2,1618.7,1591.6,1566.2,1541.9,1521.1,1504.7,1490.2,1478.6,1470.1,1465.9,1462.4,1458.7,1455.3,1453.3,1451.5,1451.2,1454.4,1460.7,1471.6,1486.8,1503.1,1520.3,1537.8,1626.3,1049.4,1147,1268.4,2211,1613.7,2368.6,2402.9,2398.3,2393.7,2390,2388,2389.9,2389.9,2396.4,2396.4,2397.3,2400.1,2401.1,2404.9,2401,2401.9,2401.1,2399.4,2398.6,2397,2398.4,2403.9,2403.8,2404.8,2404.9,2402.2,2403.1,2402.2,2404.1,2404.2,2403.2,2400.4,2399.4,2391,2383.5,2375.1,2365.1,2353.1,2344.3,2336.2,2325.4,2318.6,2314.4,2310.2,2297.2,2289.6,2284.5,2277.7,2267.7,2254.9,2247.3,2236.7,2228.3,2225,2215.3,2204.2,2190.1,2180,2170,2162.9,2156.3,2151,2142.8,2138.2,2138.9,2135.9,2133.8,2127,2116.7,2106.2,2095.4,2085.3,2073.5,2062.3,2054.8,2043.2,2036.4,2027.9,2019.1,2006.7,1992.6,1977.6,1961.3,1945.9,1932.4,1726.8,576.2,379,187.2,0,0,0,0,0,0,0,0
4009.5,3999.1,3988.7,3983.5,3983.5,3988.6,3988.7,3999,4009.4,4032.9,4040.9,4057.1,4075.9,4075.7,4072.8,4059.2,4038.1,4017.2,3996.4,3981,3950.3,1579.4,1554.7,364.4,349.9,336.5,322.4,598.8,1090.6,1027.2,969.8,0,655.9,622.8,2029.2,2007.1,1992.7,1982.7,1969.3,1952.7,1936.6,1923.5,1911.2,1903.7,1896.8,1888.5,1879.6,1878.4,1880.2,1885.6,1895.4,1909.3,1929.1,1948.8,1976.1,2001.1,2029,2051.7,2071.5,2091.3,2095,2096.6,2092,2082.7,2068.9,2058,2046.2,2032,2022,2010.6,1998.4,1989.3,1980.5,1968.8,1961,1943.5,1915.5,1885.2,1859.4,1831.2,1812.5,1439.6,899.4,1242.8,1754.6,1231.5,711,707.5,1732.9,1730.5,1726.6,1723.9,1723.9,1724.1,1723.1,1725,1725.5,1725.6,1723.6,1723.1,1725.1,1726.1,1724.6,1725.2,1725.2,1725.2,1724.7,1723.2,1721.2,1720.2,1720.2,1721.2,1726,1734,1745.2,1756.1,1772.5,1787.5,1804.9,1820.4,1835.5,1847.6,1857.5,1864.5,1868.8,1868,1867.8,1860,1854.6,1844.7,1834.1,1823.8,1815.2,1808.3,1804.4,1804.4,1804.4,1802.9,1804.4,1806,1811,1813.1,1815.9,1816.3,1815,1816.4,1814.6,1813.3,1810.5,1804.9,1798.4,1791.2,1783.1,1773.5,1768.9,1763.7,1762.6,1769.6,1780.4,1616.6,1269,1830.1,1847.6,1864.2,1877.8,1888.4,1893.8,1893.8,1890.8,1887.8,1887.2,1885.5,1883.2,1881.4,1882,1880.3,1880.9,1880.9,1881.4,1879.6,1880.2,1879.5,1875.5,1873.4,1869.4,1867.5,1863.4,1861,1858.7,1858.4,1858.4,1860.9,1856.1,1851.8,1847.2,1839.8,1831.4,1821.2,1812.4,1805.6,1798.9,1791.2,1787.2,1781.4,1777.6,1775.4,1777,1782.3,1786.2,1794,1801.6,1810.8,1821.1,1829.8,1836.3,1838.5,1839,1659.9,1654.6,716.2,685.4,493,148.4,292.3,569,697.9,1253,1385.9,1377.9,1371.3,1366.7,1361.7,1358.4,1355.1,1350.8,1347.1,1343.4,1339.3,1334.8,1330.9,1328,1324,1321.1,1317.7,1315.1,1312,1309.2,1306,1303.2,1300.1,1298.4,1296.7,1295.5,1294.2,1293.8,1293,1293.2,1292.9,1292.6,1292,1291.4,1290.7,1290.4,1289.1,1287.7,1287.7,1287.1,1286.1,1286.3,1286.3,1286.9,1287.5,1288.2,1289.3,1289.7,1290.6,1291.2,1291.4,1291.5,1292.4,1292.8,1293.1,1293.2,1293.4,1293.6,1294.4,1294.9,1295.4,1296.5,1296.8,1298.5,1300.3,1300.8,1302.8,1303.1,1305,1306.5,1308.2,1310.4,1313.6,1316.3,1318.9,1322.1,1325.6,1330,1333.9,1338.7,1343.8,1348,1351.3,1355.8,1359,1363.2,1366.8,1370.2,1373.1,1375.3,1377.1,1380.1,1383.4,1387,1389.7,1393.3,1397.3,1402,1405.4,1408.7,1413.9,1418.6,1424.1,1434.1,1447.9,1469.8,1500.2,1536.6,1574.6,1615.6,1657.2,1695.2,1733,1762.8,1783.3,1794,1798.5,1800.7,1798.6,1796.6,1794,1792,1788.8,1783.1,1778.3,1772.3,1765.9,1760.8,1753.6,1744.6,1734.3,1720.4,1699,1675,1648.1,1619.5,1592.5,1566.6,1543.1,1522,1505.1,1491,1480,1472.2,1466.2,1462.2,1457.8,1455,1452.3,1449.9,1449.3,1452,1456.8,1468,1480.4,1493.9,1511.4,1524.5,1578.1,180.6,209.5,2190.4,2261.9,2328.5,2376.1,2404.8,2397.3,2392.6,2386.1,2386.1,2385.3,2383.4,2384.4,2386.3,2387.2,2389,2388.1,2388,2386.2,2386.3,2385.4,2381.9,2381.3,2382.5,2382.5,2389.6,2391.4,2391.4,2393.3,2393.3,2393.4,2395.1,2394.2,2393.1,2390.5,2388.6,2382,2376.2,2370.6,2358.6,2347.7,2335,2324.5,2315.7,2306.2,2296.5,2289.8,2279.6,2272.1,2267.1,2260.6,2258,2249,2240.1,2231.7,2227.6,2220.2,2216.9,2209.1,2197.2,2183.9,2174.6,2166.8,2160,2154.1,2148.7,2139,2139,2139.7,2135.9,2134.5,2127,2117.5,2106.9,2095.4,2083.8,2072,2060.3,2051.4,2041.9,2035.8,2026.4,2017.7,2003.2,1989,1973.7,1955.7,1937.8,1925.6,1910.9,1136.9,943.4,373.2,0,0,0,0,0,0,0,0
3999.2,3988.8,3975.9,3975.9,3978.4,3983.5,3991.3,3996.4,4009.4,4025.1,4040.9,4054.4,4073.1,4075.7,4067.4,4059.2,4040.7,4012,3988.6,3973.4,3940.3,3912.8,767.7,362.2,349.9,338.4,325.8,1207.8,1156.4,1092,1018.5,731.4,220.7,411.4,2028.7,1996.2,1981.8,1968.7,1955.1,1937.2,1922,1910,1894.4,1885.5,1877.4,1868.2,1858.6,1855.7,1854.8,1857.1,1858.9,1868.1,1880.4,1896.1,1920.1,1946.7,1971.4,1999.5,2023.2,2049.8,2063.7,2073.2,2076,2068.5,2054.7,2046.2,2033.3,2023,2012.7,2000.9,1987.1,1976.3,1760.8,1951.8,1939.1,1719.5,1109.4,1659.6,1453.9,1799.9,726.1,1766,1751,1739.3,1732.4,1723.6,1716.7,1709.4,1710.7,1707.2,1704.3,1702.9,1700.5,1700.3,1702.3,1703.3,1705.2,1704.8,1704.4,1706.4,1707.9,1708.3,1711.1,1712.9,1712.4,1712.9,1712.4,1710.5,1710.1,1708.2,1708.5,1711,1717.4,1726.5,1738.5,1751.7,1768.9,1784,1801.8,1816.7,1832.7,1844.4,1854.2,1858.5,1862.6,1860.5,1855.4,1842.4,1833.1,1818.7,1804,1790.8,1779.1,1768.8,1762.6,1760.9,1765.7,1768.9,1771.3,1778.7,1783.2,1790.3,1794.4,1796.4,1795.7,1792.3,1789.4,1786.2,1782.3,1777.2,1769.8,1762.6,1758.5,1751.2,1746,1741.5,1741.1,1750.3,1582,1062.9,1614.9,1809.8,1826.2,1841.5,1857.6,1867.1,1868.9,1870,1868.4,1864.3,1864.4,1863.8,1863.2,1862.6,1862.1,1863.8,1866,1867.2,1867.7,1869.4,1868.3,1866.6,1863.6,1860.3,1856.5,1852.9,1848.6,1844.6,1841.8,1839.1,1837,1838.1,1837.2,1832.3,1826.8,1819.3,1810.9,1804,1796.8,1788.5,1783,1776.4,1770.7,1766.8,1766.3,1763.6,1765.3,1769.7,1776,1785.4,1793,1803.1,1814.5,1823.1,1829.7,1834.6,1831.9,1831,1465.3,533.1,341.2,0,301.2,590.8,1140.5,1260.3,1387.6,1380.9,1375.2,1370.2,1365.5,1361.1,1357.5,1354,1349.9,1346.3,1341.7,1338.1,1333.9,1330.3,1327.1,1323.6,1320.5,1317.7,1314.9,1312,1308.9,1306.6,1304.3,1301.5,1299,1298.4,1296.4,1295.2,1294.7,1294.2,1293.7,1293.4,1293.4,1292.6,1292,1291.2,1290.7,1289.4,1289.1,1288.5,1288,1288,1288.3,1287.8,1287.8,1288.3,1288.8,1289.7,1290,1290.6,1291.4,1291.6,1292.4,1292.9,1293.5,1293.6,1293.4,1293.4,1293.8,1294.2,1294.4,1295.1,1296,1296.8,1298.6,1300.3,1301.1,1302.8,1303.1,1305,1306.7,1308.2,1310.7,1313.6,1316,1318.6,1321.2,1325,1329.7,1333.9,1338.7,1343.5,1348,1351.6,1355.8,1359.9,1363.2,1366.8,1370.5,1373.1,1375,1376.8,1380.1,1383.1,1386.4,1389.4,1393.6,1397.7,1401.7,1405.7,1407.8,1413.3,1417.4,1422.9,1433.4,1446.6,1470.1,1501.7,1538.9,1577.4,1617.6,1659.3,1697.7,1736.4,1764.8,1784.8,1794.4,1799.1,1799.7,1798.6,1796.6,1794.1,1792,1787.8,1784.2,1778.8,1772.3,1765.9,1760.3,1753.6,1745.9,1735.3,1722.2,1702.3,1676.9,1650.7,1623,1596.3,1569.8,1544.3,1521,1502.8,1488.3,1478.9,1471.6,1465.7,1461,1456.5,1452.9,1449.9,1447.7,1447.1,1448.4,1452.8,1461,1473.6,1483.9,1497.7,1508.9,1563.9,0,1124.8,2279.2,2321.4,2363.4,2392.7,2407.5,2399.3,2392.5,2386.1,2381.7,2377.8,2373.2,2376.1,2375.1,2377,2376.2,2375.3,2369.9,2369.9,2368.3,2365.6,2365.8,2365,2363.7,2369.1,2375.9,2377.5,2380.8,2381.8,2381.8,2383.5,2383.5,2382.6,2383.5,2380.7,2376.1,2370.2,2363.6,2354.3,2343.6,2328.8,2316.5,2306.3,2296.6,2288,2277,2268.5,2258.6,2253,2247.8,2244.7,2240.7,2233.3,2226,2220.3,2216.2,2212.3,2209.1,2199.5,2190.1,2177.7,2170.8,2163.7,2157.8,2154.8,2146.5,2139,2139,2139,2137.4,2133.7,2126.3,2116.8,2106.2,2094,2083.7,2071.3,2059.7,2049.4,2039.9,2030.4,2022.4,2011,1997.3,1983.2,1966.1,1947.1,1930.4,1915.6,1901.4,1885.6,1314.3,186,0,0,0,0,0,0,0,0
3986.2,3981,3968.2,3960.5,3968,3981,3983.6,3996.4,4009.4,4017.3,4038.2,4054.5,4065.2,4075.7,4067.6,4059.3,4032.9,4006.8,3983.4,3960.6,3930.1,3900.5,1545,360.1,349.9,340.2,660.4,1249.7,1210.8,1153.9,1073.1,768.4,0,1210.2,2031.8,1984.8,1968.7,1956.2,1942.2,1923.2,1910,1897.9,1884.4,1871.6,1863.9,1854.7,1845.3,1840,1836.1,1831.8,1834.7,1839.6,1846.9,1858.5,1874.8,1895.7,1918.6,1941.4,1966.9,1999.9,2021.7,2037.9,2049,2047.6,2043.1,2036.4,2026.5,2016.7,2005.4,1992.7,1972.6,1959.5,1744.9,1336.7,1720.8,1880.6,1281.5,1451.2,1792.8,1773,1755.6,1741.7,1728.5,1720.3,1711.7,1703.5,1696.3,1691.1,1690.1,1688.9,1686.6,1686.1,1683.7,1684,1686.3,1688.7,1692.3,1689.6,1691.3,1689.4,1692.2,1693.6,1696.9,1699.8,1700.3,1699.8,1700.3,1698.3,1697.4,1696.4,1698.3,1702.6,1708.2,1718.2,1731.5,1746,1763,1781,1798.5,1814.6,1829.4,1840.4,1851.4,1853.2,1855.9,1850.5,1837.9,1821,1804.6,1789.4,1771.2,1753.7,1740.1,1728.1,1724,1722.4,1726.4,1726.7,1734.3,1736.7,1743.9,1750.1,1756.1,1757.6,1758.5,1756.3,1754.6,1753.5,1750.4,1746.9,1743,1738.7,1734,1728.6,1725.4,1721.4,1725.3,1732.5,1567.1,1759.5,1774.5,1790.5,1807.5,1823.1,1839.9,1848,1849.9,1852.1,1850,1848.7,1848.2,1848.1,1849.2,1848.6,1847.5,1849.2,1850.9,1851.9,1854.2,1855.4,1856.4,1854.1,1851.9,1847.6,1844.2,1840.6,1835.7,1830.4,1826.2,1821.1,1819.2,1818.5,1816.6,1814,1808.8,1801.7,1794.9,1787.3,1780.1,1775.7,1768.1,1763.9,1759.1,1756,1754.3,1752.7,1754,1758.9,1765.4,1776,1784.8,1795.5,1806.2,1815.7,1823.1,1826.5,1826.1,1819.3,1621.7,1223.7,334.2,160.4,149.8,728.1,989.7,1391,1384.9,1379.4,1375.2,1368.9,1365.1,1359.6,1355.7,1352.5,1348.8,1344.9,1340.5,1336.6,1333.3,1330,1326.2,1323.3,1320.5,1317.5,1314.9,1312.2,1309.7,1306.9,1304.3,1301.5,1300.2,1298.9,1297.6,1296.1,1295.5,1294.2,1293.7,1293.7,1293.7,1292.6,1292.6,1291.3,1290.4,1290.5,1289.4,1289.7,1289.1,1289.1,1288.9,1288,1288.3,1288.9,1290.3,1290.5,1291.1,1291.3,1292.1,1292.4,1292.7,1293.1,1293.7,1294.2,1293.6,1293.6,1294,1294.2,1294.7,1295.5,1296.3,1296.8,1298.3,1300.3,1300.8,1302.6,1303.4,1304.8,1306.7,1308.4,1310.7,1313.6,1316,1318.1,1321.5,1325,1329.4,1333.9,1338.7,1343.2,1347.5,1352.2,1355.5,1360.2,1363.2,1367.2,1370.9,1373.1,1375,1376.8,1380.4,1382.8,1386.1,1389.1,1392.7,1396.9,1401.4,1404.5,1408.1,1412.4,1417.4,1422.2,1433.1,1446.2,1469.6,1503,1539.6,1578.3,1619,1661.8,1701.8,1740.5,1768.8,1786.3,1795.4,1799.2,1800.8,1798.2,1795.6,1793.6,1791,1787.9,1784.7,1778.8,1772.8,1767.3,1760.7,1754.1,1745.9,1736.8,1723.2,1704.2,1680.1,1653.9,1626.5,1597.5,1570.2,1543.1,1519.1,1499.4,1485.9,1477.2,1470.5,1464.9,1459,1455,1451,1447.7,1445.2,1444.2,1444.5,1448.6,1454.3,1463.5,1471.1,1480,1490.6,925.4,0,2306.6,2339.9,2362.3,2397.3,2412.4,2413.1,2401.9,2393.7,2383.3,2377.9,2372.1,2367.6,2366,2364.3,2361.8,2363,2363,2355.9,2353.2,2349,2347.2,2346.5,2346.8,2349.7,2352.5,2360.6,2366.4,2369.5,2373.1,2376,2376.8,2375.9,2375.8,2373.7,2369.8,2365.2,2357.6,2350.4,2342.9,2329,2316.6,2301.7,2291.5,2280.2,2272.1,2260.3,2253.6,2247.8,2240.4,2235,2231.7,2229.3,2222.9,2214.7,2210.8,2205.9,2203.5,2200.3,2191.7,2180.1,2170,2162.9,2157.1,2154.8,2150.2,2145.7,2139,2138.2,2139,2136.6,2134.5,2124.8,2115.3,2104.8,2094,2080.8,2069.7,2058.3,2044.6,2035.1,2025.7,2015,2005.3,1990.9,1975.6,1960.5,1941,1923.3,1909.5,1894.3,1879.4,1489.1,186,0,0,0,0,0,0,0,0
3978.6,3976.1,3963.2,3960.5,3965.4,3978.4,3981,3993.9,4006.8,4017.3,4035.6,4051.9,4062.6,4070.5,4065,4054.2,4030.4,4004.3,3970.7,3950.3,3920.1,3888.2,1537.9,362.2,714,344,669.4,1286.8,1256.5,1214.5,1133.3,1065.9,505.1,1012.3,1805.2,1772.5,1760.1,1945.3,1930.5,1914.8,1902.5,1889.7,1875,1865,1853.6,1844.9,1836.8,1828.5,1821.3,1818.3,1814.5,1817.7,1819.4,1826,1836.7,1099,1872.2,1891.2,1918.6,1949.5,1975.6,1999,2016.9,2023.8,2021.9,2021.4,2016.4,2007.6,1997.1,1982.9,1960.5,1943.7,1331,1707.5,1501.6,1474.9,1630.4,1790.7,902.2,1750.1,1735.1,1722.8,1712.5,1702.9,1696.7,1687.9,1678.9,1674,1673.2,1671.8,1671.5,1670.4,1672,1670.3,1674.3,1675.2,1678.4,1677.9,1677.9,1678.4,1679.8,1680.7,1684.1,1685.9,1687.8,1687.7,1686.8,1685.3,1686.3,1686.8,1689.5,1693.6,1700.6,1711.2,1724.5,1740.3,1758.3,1775,1796.8,1811.7,1824.1,1835.4,1842.8,1845.3,1843.7,1835.7,1820.6,1445.1,1777.9,1759.3,1739.4,1722,1706.4,1696.1,1691.1,1691.1,1693.9,1694.9,1698.2,1704.3,1709.5,1715.2,1721.2,1724.9,1725.8,1725.9,1725.8,1725.8,1723.4,1721.3,1717.5,1715.5,1713.6,1537.3,1707.8,1706.4,1711.1,1717.8,1730,1745.6,1760.8,1776,1793.2,1808.7,1825.2,1831.7,1836.6,1837.2,1836.1,1833.8,1835.5,1836,1836.5,1834.9,1834.8,1835.4,1835.4,1837.7,1838.8,1841.1,1841.1,1839.4,1836.6,1834.6,1833.3,1828.7,1822.2,1816.5,1811.3,1806.1,1802.4,1802.5,1799.9,1796.7,1791.7,1785.8,1780.1,1774.3,1769.9,1762.9,1757,1753.4,1748.8,1746.2,1744.9,1741.8,1744.7,1751,1758.5,1767,1777,1787,1797.2,1806.8,1813.2,1819.5,1816.5,1806.3,1604.5,1203.1,479.9,157.1,443.2,715.3,1398.2,1386.8,1382.5,1378.3,1374.4,1369.5,1364.5,1359,1355.4,1351.7,1347.4,1344,1339.3,1336,1332.7,1329.4,1326.2,1323.3,1320,1317.8,1315,1311.6,1309.9,1307.4,1304.9,1302.4,1300.5,1299.9,1297.6,1296.4,1295.8,1295,1294,1293.2,1293.2,1292.9,1292,1291.2,1290.8,1290.5,1290.2,1290.8,1290,1290,1290,1289.7,1289.4,1290.3,1291.1,1291.3,1291.3,1292,1292.3,1292.6,1293.1,1293.3,1293.9,1294.2,1294,1293.8,1293.8,1294.5,1294.7,1295.5,1296.5,1297.1,1298.3,1300.2,1301.4,1302,1303.6,1304.9,1306.4,1308.2,1310.3,1313.3,1316.5,1319.2,1321.8,1325.3,1330,1333.6,1339,1344.1,1347.5,1352.2,1356,1360.2,1363.8,1367.6,1370.8,1373.1,1375.3,1377.4,1381,1383.7,1386.1,1389.1,1393,1397,1400.8,1403.9,1407.5,1411.8,1416.9,1422.4,1433.6,1444.8,1468.7,1501.7,1538.9,1577.5,1618.2,1663.5,1706.1,1745.5,1772.3,1788.3,1796,1800.2,1802.2,1798.6,1796.1,1793.6,1791,1788.4,1784.8,1779.9,1772.8,1767.7,1761.1,1754.3,1749.2,1739.8,1727.6,1709.9,1686.7,1659.7,1469.1,1603.2,1574.6,1545.8,1519.9,1498,1483.7,1476,1470,1463.5,1458.8,1454,1449.8,1445.2,1442.1,1440.5,1440.4,1441.4,1444.7,1449.7,1452.6,1458.6,1463.1,146.3,0,2402.1,2407.4,2410,2420,2423.6,2416.9,2406.7,2394.5,2382.4,2373,2367.6,2360.5,2357.2,2353.6,2350.9,2349.3,2346,2339.6,2335.4,2328.4,2326.2,2326.5,2328.5,2328.9,2336.3,2343.8,2352.5,2357.5,2359.4,2362,2365.6,2364.6,2363.5,2362.3,2356.7,2350.2,2343.6,2337,2327.7,2315.2,2301,2288,2277.1,2267.9,2260.3,2248.6,2238.9,2234.9,2225.9,2221.2,2221,2216.3,2212.4,2204.4,2201.2,2198,2194.7,2193.9,2185.6,2175.6,2166,2157.9,2155.6,2153.2,2149.5,2145,2138.2,2136.6,2139,2137.3,2133.1,2123.3,2114.6,2104.1,2093.3,2080.8,2069,2053.5,2041.2,2030.5,2021.6,2010.4,1998,1984.5,1966.8,1950.1,1933.1,1914.6,1899.6,1886.8,1681.8,1110.3,366.1,0,0,0,0,0,0,0,0
3981.3,3973.6,3968.2,3965.6,3965.4,3970.6,3981,3993.9,4001.7,4014.7,4030.4,4049.2,4057.3,4059.9,4062.5,4051.7,4025.2,3991.3,3963.2,3927.6,3905.2,3875.7,3837.5,737.7,1440.5,349.9,342.1,666,1304,1277.7,615.6,307.9,296.1,0,820.9,1764,1750.5,1742.6,1921.6,1905.4,1892.7,1881.5,1867.1,1857,1847.6,1837.8,1826.9,1819.8,1812.4,1805.5,1800.1,1800.2,1800.9,1803.7,1811.8,1823.9,896.6,1852.2,1872.6,1900.8,1933,1956.2,1977.6,1991.1,1998.9,2005.1,2005.8,1995,1985.3,1969.1,1946.8,1928.2,1118.7,1302.9,1671.9,1827.7,1792.3,1768.8,1576.7,1733.9,1720.9,1708.2,1697.8,1690.5,1684.5,1675.3,1664.9,1659.3,1658.2,1657.5,1657.9,1658.8,1659.3,1660,1661.5,1663.7,1667.9,1667.4,1668.2,1666,1668.2,1669.1,1672.9,1673.9,1675.7,1674.7,1674.7,1674.2,1676.2,1676.2,1679.8,1686.9,1693.1,1705.3,1719.5,1737,1753.7,1772.5,1791.7,1807.1,1818.9,1827.4,1832.2,1831.8,1826.8,1815.6,1796.2,1771.8,1749.8,1732.6,1713.8,1010.8,659.1,1162.7,1498.2,1666.6,1497.4,1499.5,1672.9,1676.9,1680.5,1686.1,1692.3,1694.4,1696.3,1697.7,1699,1699.6,1528.3,1698.1,1696.2,1525.7,1693.2,1691.4,1691,1690.9,1698.1,1706,1718.3,1734,1749.2,1763.4,1780.1,1798,1813.9,1818.9,1821.6,1822.6,1821.5,1822,1824.1,1822.5,1823,1822.5,1822.5,1822,1821.4,1822,1823,1824.5,1825,1824.6,1821,1820,1818.9,1815.7,1811.1,1804.9,1798.2,1792.3,1788.4,1787.1,1785,1782.1,1776.5,1771.4,1765.9,1761.8,1757,1751.8,1746.9,1743.4,1739.2,1737,1736.1,1734.4,1736.1,1743.6,1750.6,1760,1770,1778.6,1789,1797.3,1804,1808.5,1802,1785.8,1751,862.7,0,0,292,1135.9,1396.7,1387.1,1382.5,1378.9,1374,1369,1364.1,1358.1,1354,1350.3,1346.6,1342.5,1338.7,1335.1,1331.5,1328.5,1325.3,1322.4,1319.4,1317,1315,1312.5,1309.8,1307.1,1304.9,1302.9,1301.2,1299.9,1297.7,1297.3,1296,1294.8,1294.3,1293.5,1293.2,1292,1292,1291.6,1290.8,1290.3,1290.8,1291.6,1291.6,1291.3,1290.6,1290.6,1290.9,1291.4,1291.5,1292,1291.9,1292.6,1292.6,1293.4,1293.1,1293.6,1295,1294.5,1294.3,1294.1,1294.6,1294.8,1295.3,1296.1,1296.9,1297.4,1297.9,1299.9,1302,1302.3,1303.4,1304.7,1306.4,1309,1310.6,1313.3,1316.2,1318.9,1322.7,1326.2,1330.3,1334.2,1339,1344.4,1347.5,1352.2,1356.3,1359.9,1364.1,1367.6,1370.8,1373.1,1375.3,1378,1381.3,1383.7,1387,1390,1393.6,1397,1400.4,1403.9,1407.8,1411.5,1416.7,1279.8,1002.3,1011.5,1469.4,1501.7,1539.3,1421.3,1460.4,1665.7,1709.4,1750.8,1777,1791.9,1798,1800.8,1802.3,1800.2,1796.6,1795.1,1791.5,1788.9,1785.3,1780.6,1775.3,1769.7,1763.7,1757.8,1750.5,1742.3,1730.9,1713.8,1694.5,1665.8,1638.2,1606.9,1416.7,1547.6,1520,1497,1482.1,1474,1469.8,1462.8,1457.5,1452.4,1448.1,1442.8,1438.2,1436.2,1435.1,1434.1,1436,1438.3,1437,1438.3,1295.9,0,236.9,2449,2447.7,2440.9,2439.7,2434.9,2422.6,2409.4,2395.4,2385.2,2374.1,2364,2359.6,2351.8,2343.7,2342.8,2338.7,2333.4,2327.3,2317,2308.3,2306.1,2302.2,2304.8,2308.6,2313.4,2323.5,2331.7,2338.9,2343.6,2346.9,2347.7,2349.1,2348.8,2345.1,2341.1,2338,2328.9,2322.1,2310.2,2297.9,2283.8,2273.8,2262.1,2253.7,2244.7,2235.6,2225.8,2220.3,2212.3,2209.2,2207.6,2203.5,2197.3,2191.8,2191,2188.6,2187.8,2187.8,2181,2174,2163.9,2155.7,2153.3,2151.8,2147.3,2142.1,2137.4,2136.6,2136,2135.9,2132.4,2123.3,2114.6,2104.1,2092.5,2080.9,2066.4,2050.7,2037.8,2027.1,2015.6,2003.9,1992.3,1974.9,1958.2,1940.4,1919.7,1902,1887.4,1873,1295.8,731.6,724.6,0,0,0,0,0,0,0,0
3978.7,3978.7,3968.2,3963,3963,3970.6,3970.6,3986.1,3991.3,3996.5,4009.7,4025.2,4041.1,4038.5,4035.8,4025.2,4004.3,3968.3,3940.1,3912.6,3883.1,3854.1,3818.3,1115.5,1086.8,1061.8,347.9,1372.2,1362.8,1353.7,981.3,653.5,336.5,0,0,0,1550.8,1734.7,1914,1899.1,1885.6,1873.4,1859.9,1848.7,1841.1,1832.4,1822.1,1812.4,1804,1797.6,1793.1,1789.5,1789.5,1788,1791.1,1797,1804.4,1816.1,1832.2,1855.1,1880,1909.9,1934.7,1949.6,1966.8,1973.1,1977.6,1975,1968.9,1951.1,1928.8,1911,919.5,1292.6,1463,1802.7,1769.6,1575,1561,1717.4,1706.3,1697.7,1689.8,1684.8,1497.6,1668.2,1484.8,846,841.1,1649.1,1648.8,1650,1651.2,1650,1651.7,1655,1657.1,1657.1,1656.7,1656.8,1657.2,1658.1,1660.6,1663,1664.3,1664.3,1664.8,1663.8,1666.5,1667.8,1672.5,1678.9,1686.8,1698.4,1714.5,1731,1748.9,1768.3,1785,1796.9,1806.6,1811.9,1814.4,1808.7,1798.1,1785.1,1764.6,1742,1723.8,1022.7,1517,1674.6,1492.6,1484.2,1646.9,1477.2,1645.8,1646.8,1648.9,1486.3,1658.5,1662.7,1666.5,1670.6,1671.9,1504.4,1675.8,1675.1,1677.1,1677.5,1676.7,1676.6,1678.2,1676.2,1677.2,1678.6,1686.3,1697.4,1709.6,1724.2,1739.4,1751.9,1772.2,1787.2,1802.3,1804.4,1808.2,1809.6,1810.1,1808.6,1809.7,1809.7,1809.7,1806.5,1808.6,1806.5,1804.5,1803.9,1805.5,1806.5,1808.5,1807.6,1806.6,1805.1,1803,1801.9,1797.3,1792,1784.6,1779.1,1775.6,1773,1771.1,1768.2,1762.9,1758.8,1753.5,1749.8,1745.5,1741.6,1737.8,1733.7,1730.2,1728.8,1728.5,1727.7,1729.4,1736.1,1742.9,1751.1,1761,1770.1,1779.8,1788.6,1792,1794.2,1606.8,1590.1,514,511.4,329.2,145.9,866.7,990.3,1254.8,1386.8,1382.2,1378.6,1373.6,1368.4,1362.3,1356.6,1353.1,1348.7,1345.4,1341.6,1337.5,1333.9,1331.5,1328.5,1325.6,1322.1,1319.2,1317.9,1315.6,1312.7,1310.1,1307.7,1305,1302.4,1301.3,1299.9,1298.2,1297.3,1296.2,1294.9,1293.7,1292.6,1292.6,1292,1291.8,1291.1,1290.8,1290.3,1291.5,1292.4,1292.4,1292.1,1291.9,1291.8,1291.8,1292.4,1292.6,1292.7,1292.6,1292.9,1293.2,1293.4,1293.7,1294.4,1295,1295.1,1294.5,1294.8,1294.8,1295,1296,1296.8,1297.7,1297.4,1298.7,1300.5,1302,1302.3,1303.4,1304.5,1307,1307.8,1310.3,1313,1316.5,1319.4,1323.5,1326.5,1330.3,1334.8,1338.7,1343.8,1348.1,1352,1356,1359.6,1364.1,1367.6,1370.8,1373.5,1375.6,1378,1381.6,1383.7,1387.3,1389.7,1393.3,1397,1400.7,1404.2,1407.5,1411.8,1416.3,995.7,859.8,722.1,1468.9,1503,1541.7,1107.9,1461.6,1668.8,1712.5,1754.2,1781.1,1794.4,1801.3,1802.8,1803.3,1801.8,1798.1,1796.1,1793,1789.4,1786.4,1782.7,1777.4,1771.1,1764.7,1758.5,1752.9,1745,1734.9,1719.4,1698.5,1669.7,1642.5,1123.5,1100.5,1391.7,1367.9,1494.7,1479.9,1473.7,1469.3,1461.7,1457,1450.8,1446.9,1440.9,1436.2,1433.6,1430.5,1428.6,1427.1,1426.1,1424.6,1423.9,996.9,0,242.4,2460.4,2455.4,2452.3,2443.7,2437.9,2429.2,2413.1,2401.1,2387,2374.2,2366.7,2357.8,2350.8,2341.8,2335.7,2328.7,2320.1,2310.7,2300.3,2290.3,2288.1,2282.7,2284.1,2285.8,2292.3,2300.9,2311,2317.4,2323.4,2327.5,2328,2328.8,2327.6,2325.5,2320.4,2315.8,2308.7,2301.3,2290.5,2280,2267.2,2256.3,2251.2,2241.3,2234.8,2224.3,2216.3,2208.5,2201.2,2194.9,2195.5,2191.6,2187.1,2181.7,2180.1,2182.4,2182.5,2181,2175.7,2169.3,2163.2,2155.7,2153.3,2149.5,2147.3,2142.1,2136.7,2136.6,2136,2133.8,2131.6,2121.7,2113.2,2101.9,2091.7,2079.5,2065.7,2047.3,2033,2019.8,2007.2,1993.5,1979.3,1963.1,1944.6,1925.2,1905.5,1887.4,1873.2,1674.1,730.5,726.1,542.4,183.3,183.3,0,0,0,0,0,0
3976.1,3973.5,3970.8,3963,3963,3968,3970.6,3980.9,3983.5,3991.3,3991.3,4004.4,4012.2,4012.2,4004.3,3993.8,3978.4,3942.6,3910.3,3890.3,3861.2,3834.7,3803.9,2995.1,1093.3,356,1061.8,1409.6,2522.7,1409.7,1365,1403.6,347.9,349.9,0,0,0,1538.6,1718.9,1893.9,1880.2,1867.8,1855.4,1842.7,1836.1,1827.6,1817.1,1811.3,1800.2,1794.1,1786.2,1782,1777.9,1775.2,1774.6,1777.2,1782.2,1790.3,1803.5,1820.4,1842.1,1867.7,1887.9,1910.3,1929.8,1941.2,1339.8,1949.1,1944.6,1932.3,1911.4,1891,1290.8,1465.5,1817,1785.8,1754.3,1736.6,1553.2,1710.3,1699.7,1691,1505.1,1501.6,1496.8,1315.5,1311.1,671.7,836.1,1640.9,1641.2,1641.4,1640.6,1640.7,1640.6,1644.4,1646.2,1646.6,1647.5,1647.1,1647.1,1647.5,1650.1,1651,1652.6,1653,1653.4,1654.7,1658.9,1660.6,1666.9,1672.5,1680.7,1692.7,1710.6,1727,1569.7,1760.6,1774.8,1604.2,1608.2,1611.9,1608.2,1781.2,1769.9,1755.6,1736.1,1546.5,1022.6,1516.8,1669.7,1656.7,1645.3,1634.8,1630.1,1627.1,1627.5,1628.8,1629.6,1631.7,1637.2,1642.2,1647.4,1649.5,1651.5,1653.9,1655.9,1657.6,1659.4,1659.8,1659.8,1662.1,1662.8,1662.9,1665.2,1670.1,1679,1688.1,1700.7,1715.6,1729,1743.3,1760.3,1776.5,1787.8,1792.4,1794,1795,1795.3,1793.7,1794.7,1794.7,1793.7,1791.6,1792.7,1789.5,1788,1787,1788,1789,1791.1,1790.6,1789.1,1788.6,1786.6,1785.7,1783,1777.4,1771.1,1765.2,1761.5,1759.7,1757.8,1754.8,1752,1747.2,1743.8,1741,1737.8,1733,1729,1725.3,1723.4,1721.8,1721.2,1720.6,1723.3,1728,1736.8,1744.3,1752.7,1762,1771.1,1775.9,1777.1,1771.7,1581.2,1195.5,516.9,348.1,307.5,731.9,1147.3,1126.8,1393.8,1385.9,1381.9,1377.4,1371.7,1366.3,1360.8,1356,1351.5,1348.2,1344,1340.1,1336.6,1333.6,1331.2,1328.2,1325,1321.5,1319.7,1318.2,1315.3,1312.7,1310,1307.7,1305.6,1303.3,1301.9,1299.9,1298.5,1296.8,1296,1294.9,1293.1,1292.6,1291.8,1292.4,1291.8,1291.3,1291.1,1291.4,1292.4,1293,1292.8,1293,1292.5,1292.7,1293.3,1293.3,1293.6,1293.9,1292.9,1292.9,1293.4,1293.9,1294.1,1294.7,1295.6,1295.6,1295.1,1295.4,1295.8,1296,1296.8,1297.1,1297.9,1298.2,1299.3,1300.5,1302,1302.3,1303.1,1304.5,1307,1307.7,1309.7,1312.7,1316.2,1319.1,1323.3,1326.5,1329.7,1334.8,1339.3,1344,1347.5,1351.7,1355.4,1359.3,1363.5,1366.6,1370.1,1373.5,1375.6,1378.3,1381.9,1384.3,1387,1389.4,1392.7,1396.4,1399.6,1403.9,1408.1,1412,1416.7,1423,1432.2,1443.9,1468.7,1503.8,1543.5,949.8,1305.8,1673,1717.1,1759.9,1786.2,1798.4,1803.4,1806,1805.9,1803.8,1801.7,1798.5,1795,1791.4,1786.9,1785.3,1779.6,1773.8,1767.6,1762.2,1756.5,1746.8,1737.3,1723.2,1702.6,1673.9,1483.8,805.8,1101.3,1236.7,1215.1,1491.6,1477.4,1471.6,1468.2,1460.6,1455.9,1449.8,1445.3,1438.3,1433.7,1430.6,1426.6,1423.4,1420.2,1415.9,1413.4,1412.8,1271.6,0,0,2465.2,2458.3,2451.3,2444.5,2438.8,2430.3,2418.7,2405.6,2393.4,2379.8,2367.7,2357.6,2350.8,2340,2332,2318.9,2308.5,2296.7,2284.8,2275.1,2269.8,2264.3,2261.7,2263.8,2268.2,2274.6,2285.5,2292.7,2298,2303.2,2305.5,2304.3,2303.1,2300.9,2296.1,2290.8,2285.2,2277.8,2270.7,2261.2,2249.3,2240,2235.1,2228.6,2223.7,2211.6,2202.8,2195.5,2190.2,2184,2184.7,2180.8,2174.8,2170.9,2170.9,2172.5,2175.6,2176.4,2171.9,2164.7,2160.9,2157,2157,2153.9,2151.8,2143.4,2138.2,2135.9,2134.5,2132.4,2129.3,2121,2111.1,2099.1,2087.2,2073.8,2059.7,2042.4,2023.8,2011.7,1996.8,1981.9,1966.3,1946.4,1927.6,1905.5,1887.6,1874,1485,723.5,541.3,539.3,181.7,182.7,0,0,0,0,0,0,0
3973.7,3976,3973.4,3965.6,3963,3968,3968,3975.7,3975.8,3975.9,3973.4,3981,3986.2,3986.1,3975.9,3968.3,3947.7,3925.1,3892.7,3866.1,3841.8,3815.6,3789.9,2234.9,730.9,358,718.1,2902.7,3293.6,2919.8,1440.4,1086.7,360.1,362.2,0,0,191.2,1145,1707.8,1698.3,1873.3,1861.7,1849.4,1839.5,1830.7,1823.2,1813.4,1807.3,1798.7,1789.4,1781,1775.4,1770.2,1765.6,1762.7,1762.9,1762.9,1769.5,1775.6,1789.1,1805.6,1827.8,1849.8,1867.3,1889.5,1901,1714.8,1918.6,1917.3,1908.6,1892.9,1874.4,1280.7,1648,1445.5,1773.9,1746.3,1730.1,1717.3,1707.4,1700.3,1513.1,1507.2,1326,1323.6,1319.5,1314.2,501.4,665.5,1636.8,1635.6,1634.2,1633.2,1632.6,1632.6,1634.3,1636.9,1637.7,1637.2,1636.4,1636.8,1637.3,1639.4,1641.7,1642.1,1642.5,1644.5,1646.5,1650.2,1654,1661.6,1667.8,1676.3,1688.6,1703.5,1722.1,1737.9,1751,1762.1,1767.1,1769.7,1772.3,1765.2,1756.4,1572.4,1730.3,1541.8,1359.4,1012.6,1003.6,1654.8,1641.4,1631.8,1621.9,1616.1,1612.3,1613.7,1615,1614.2,1617.4,1621,1624.8,1627.3,1630.8,1632.4,1634.7,1638.7,1641.7,1643.4,1644.8,1645.3,1649.3,1651.4,1652.2,1654.9,1661.6,1670.4,1680.2,1693.4,1706.1,1720.4,1733.5,1750,1763.7,1775.4,1778.1,1779.7,1781.6,1781.1,1781,1781,1781,1779.9,1778.5,1777.5,1775.5,1773.4,1772,1774,1775,1775,1775,1774.4,1771.9,1769.9,1769.2,1768.8,1763.5,1757.9,1753.3,1748.7,1747.1,1746.2,1744.4,1740.2,1736.3,1734.4,1732.4,1729,1726.1,1722.5,1719.4,1716.2,1716.5,1715.7,1714.9,1716.7,1723.3,1729.3,1736.9,1744.4,1751.3,1757.5,1758.7,1751.9,1569.1,1547.4,1026,498.3,158.7,446,868.1,1136.6,1121,1251.7,1385,1380.7,1375.9,1369.7,1365.1,1359.3,1354.3,1351.2,1347.1,1343.4,1339.6,1336.3,1333.6,1330.3,1327.6,1324.4,1322.7,1319.9,1317.6,1315.3,1312.7,1310,1307.4,1306.3,1303.9,1302.2,1300.4,1299.3,1297.3,1296.3,1294.8,1293.4,1292.3,1292.4,1292.1,1291.6,1291.6,1291.9,1292.2,1293.4,1294.3,1294.3,1294.3,1293.6,1293.6,1293.6,1294.1,1293.6,1293.7,1293.5,1293.7,1293.7,1294.7,1295.2,1296.4,1296.7,1296.7,1296.1,1295.9,1296.3,1296.5,1297,1297.9,1298.8,1298.5,1299.6,1300.5,1302.3,1302.8,1303.6,1304.8,1306.8,1307.4,1309.7,1312.7,1315.9,1318.8,1322.8,1326.2,1329.4,1334.2,1339.3,1343.4,1347.5,1350.9,1355.1,1358.7,1363.5,1366.6,1370.1,1373.2,1375.6,1378.6,1382.2,1384.6,1386.7,1389.7,1392.7,1395.6,1399.4,1403,1407.5,1411.7,1416.8,1422.1,1431.5,1442.2,1467.5,1504.6,1545.1,793.2,1308.9,1677.8,1722,1764.6,1792.9,1801.7,1807.6,1809.8,1809.3,1807,1804.9,1800.5,1798,1793.9,1790.4,1787.4,1781.6,1775.4,1770.1,1764.6,1758.5,1749.8,1740.8,1726.2,1705,1676.4,1648.3,957.2,0,926.1,1211.2,1485,1471.6,1466.3,1465.1,1456.7,1452,1447.1,1443.1,1437,1432.4,1427.6,1422.5,1417.7,1413.4,1408.7,1405.9,1401.4,1260.9,1396.8,0,2467.2,2460.3,2454.3,2446.5,2439.8,2431.2,2422.5,2411.3,2398.2,2383.4,2371.5,2360.3,2349.8,2340.8,2325.7,2313.6,2300.6,2289.7,2277.2,2267.3,2260.4,2253.4,2249.9,2247.4,2249.4,2251,2258.2,2263,2268.4,2273.6,2277.6,2277.7,2277.6,2273.3,2270,2266.9,2260.7,2253.3,2248.1,2241,2229.9,2222.4,2220,2215.9,2210.9,2202.2,2194.2,2187.3,2181,2175.4,2176.4,2172.3,2169.3,2164.1,2163.3,2166.5,2167.2,2172.6,2171,2164.7,2161.7,2159.2,2159.3,2156.3,2152.6,2147.8,2140.5,2138.2,2134.6,2131.7,2126.9,2117.5,2108.3,2096.2,2083.7,2069.8,2054.9,2035.8,2015.7,2000.5,1984.5,1969.2,1947.7,1927.6,1906.9,1887.7,1870.9,1859.3,717.7,713.6,180.1,0,0,0,0,0,0,0,0,0,0
3973.7,3976.1,3971.1,3965.5,3963,3965.6,3963,3965.6,3960.7,3958.1,3960.6,3965.7,3963.1,3960.6,3947.9,3937.8,3925.1,3892.9,3866.1,3844.3,3820.3,3801.4,3768.9,2983.4,1470.5,1457.6,1813.3,3650.5,3685.8,3716.9,2965.7,1106.3,364.4,366.6,366.6,0,0,1324.2,1694.2,1689,1682.3,1857.1,1844.2,1834.5,1827.6,1820.3,1812.5,1805,1797.7,1787.9,1780,1774.3,1766.1,1761.1,1756.9,1753.1,1751.7,1755,1760.5,1767.5,1779.8,1798.1,1813,1830.7,1850.6,1865.3,1877.1,1884.5,1889.1,1883.8,1872.7,1857.4,1278.6,1458.7,353.5,1235.2,1566.6,1732.9,1720.7,1714.4,1348.3,1341.3,1336.4,1332,1153.5,1151.2,1147.7,332.2,498.6,1149.4,1633.7,1632,1629.7,1627.5,1626.2,1627,1627.8,1629,1628.6,1626.2,1626.2,1626.6,1629,1630.2,1631.4,1632.2,1633.6,1637.5,1645,1649.8,1658.3,1665.2,1673.4,1686.2,1702.6,1717.7,1732.4,1741.8,1749.1,1752.7,1752.3,1748.7,1744.4,1734.2,1550,1707.8,1693.7,1678.5,1666.3,1654.2,1641.3,1630.6,1619.3,1611.3,1605,1602.2,1602.1,1600.8,1601.2,1603.3,1606,1608.8,1611.6,1613.2,1615.9,1618.8,1622,1625.8,1629.3,1630.5,1633.5,1636.9,1639.7,1643,1646.5,1653.2,1661.7,1673.1,1685.5,1700.2,1711.8,1727,1740.8,1753.6,1763.8,1766.5,1768.6,1769.2,1768.9,1770,1770.5,1768.4,1766.9,1765.3,1764.8,1762.8,1761.3,1758.5,1759.6,1760.7,1761.7,1760.1,1760.1,1758.3,1756.8,1755.1,1753.4,1749.4,1746,1741.7,1739.9,1738.6,1737.9,1736.1,1733.3,1729.5,1727.1,1726.3,1722.1,1720.1,1716.1,1713.2,1714,1710.4,1710.1,1710.5,1710.9,1715.3,1720.4,1726.5,1731.4,1734.4,1732.8,1726.6,1540.5,1025.9,1005.2,984.1,785,464.8,1028.6,1000,1128.7,1255.7,1249.3,1383.4,1378.6,1373.2,1368.8,1362.9,1357.2,1353.1,1350.1,1346.2,1342.2,1338.7,1335.7,1333,1330.3,1327.4,1324.4,1322.2,1319.6,1317.9,1315.5,1313,1310.6,1308.1,1306.9,1304.5,1303.4,1301.3,1299.6,1298.4,1296.8,1295.3,1293.7,1292.9,1292.4,1292.4,1291.9,1292.2,1292.8,1293.5,1294.9,1295.7,1296,1296.1,1295.5,1295.5,1295.5,1295.8,1295.8,1294.6,1294.3,1294.3,1294.2,1295.2,1296.3,1296.6,1297.1,1296.9,1296.9,1296.6,1296.6,1297.6,1297.6,1298.2,1299.4,1299.7,1300.2,1301.1,1302.3,1302.8,1303.6,1304.5,1306.6,1307,1309.4,1312.1,1315,1317.7,1321,1325.7,1329.1,1333.9,1339,1343.1,1347.5,1351.4,1354.5,1358.7,1363.2,1366.9,1370,1373.5,1376.2,1378.9,1382.2,1384.9,1387,1390,1392.7,1395.6,1399.4,1402.7,1406.9,1411.6,1416.1,1422.4,1430.5,1440.7,1467,1505,1547.4,1271.4,1311.1,1680.8,1726.5,1771.3,1798.6,1807.1,1810.8,1812.5,1812.9,1809.9,1808.1,1803.3,1800.6,1796.4,1792.9,1789.9,1784.6,1777.9,1772.9,1766.6,1759.9,1751.7,1742.2,1729,1708.1,1676.2,1483.5,959.4,155.5,923.8,1353.8,1477.3,1463.9,1461.3,1458.6,1451.5,1448.4,1444.4,1439.5,1432.6,1427.6,1423.2,1418.4,1413.1,1408,1402.3,1398.1,1395.3,1393.1,1389.5,0,2461.2,2457.3,2452.4,2443.6,2439.8,2432.1,2426.4,2416,2404.8,2389.7,2376.1,2364,2351.3,2338.8,2325.4,2311.8,2298,2284.6,2273.6,2264.6,2255.7,2248,2244.4,2241,2239.5,2238.4,2237.1,2232.3,2231.7,2236.7,2240.1,2240.2,2238.3,2234.6,2230.3,2229.9,2228.7,2226.8,2224,2217.2,2212,2205.4,2204.5,2201,2197.9,2190.5,2184.1,2175.7,2170.2,2167,2165.4,2161.8,2157.1,2154.9,2155.7,2156.3,2161,2167.3,2168,2163.4,2159.4,2160.1,2160,2157.8,2155.5,2149.4,2142.1,2138.1,2133.9,2130.1,2122.4,2115.3,2102.7,2090.9,2077.9,2064.4,2049.4,2031.1,2011.1,1994.1,1976.8,1763.2,1746.1,1917.4,1710.1,1683.6,919.1,715.6,710.4,527.8,525.9,0,0,0,0,0,0,0,0,0,0
3978.5,3978.5,3973.3,3960.4,3957.9,3958,3958,3958,3953,3947.8,3940.1,3935.1,3935.1,3932.8,3925.2,3910.4,3888.1,3868.8,3844.4,3818.1,3799.2,3785,3755.1,3347.9,1472.7,1459.8,1822,3644.1,3678.9,3712.2,3709.9,3341.2,2981.6,1497.7,366.6,0,0,0,0,187.2,1309.7,1672.7,1842.2,1830.6,1824.2,1638.7,1809.8,1803.4,1794.7,1786.3,1777.8,1772.1,1765.1,1758.1,1753.1,1747.9,1743.9,1743.9,1747,1750.3,1759,1770.5,1784.3,1798.2,1444.4,1826.8,1839.1,1852.8,1856.2,1857.8,1851.2,1843.1,1827.7,1811.4,1613.5,710.5,1754.1,1741.6,1731.2,1725.9,1538.4,1352.7,1167.6,1346.2,1164.9,1161.5,1329.8,1488.8,664.5,1637.5,1633.9,1630.1,1627.2,1624.9,1622.4,1622.4,1624,1623.7,1623.3,1620.4,1619.9,1620,1621.7,1623.8,1624.6,1625,1628.6,1632.6,1639.6,1646.6,1656.2,1663.3,1671.9,1683.9,1696.6,1711.2,1721.7,1730,1734.5,1734.5,1731.6,1728.2,1721.4,1713.5,1702.1,1688.2,1675.8,1661.8,1652,1642.6,1631.2,1622.4,1614.3,1607.3,1602.2,1597.6,1596.3,1593.7,1592.3,1592.2,1594.9,1595.7,1597.1,1598.9,1601.1,1605.2,1608.9,1612.6,1617.1,1619.8,1624.9,1629.5,1633.4,1636.5,1640,1647,1657.5,1668.8,1681.1,1694.4,1706.8,1718.7,1735.6,1746.9,1755,1758.8,1760.2,1759.1,1758.5,1758.5,1758.6,1757.9,1757.2,1755.3,1753.5,1750.9,1749.3,1747.8,1749.8,1749.3,1750.3,1748.8,1747.4,1746.4,1744.1,1744.1,1742.4,1740.1,1736.3,1732.2,1731.8,1731.5,1729.9,1729.2,1726,1723.9,1721.8,1722.1,1716.6,1715.6,1713.5,1710.8,1708.5,1707.2,1706.5,1705.6,1705.4,1708.1,1711.9,1713.4,1711.2,1706.8,1699.2,1513.3,1166.5,662.3,157.5,926,1046.5,1022.8,1151.4,1130.5,1258.7,1252.1,1387.3,1381,1376.7,1371.6,1366.2,1361.1,1355.8,1352.6,1349.2,1346.2,1342.2,1338.4,1335.7,1333,1330,1327.4,1325,1322.4,1320.2,1318.4,1316.1,1314.2,1311.2,1309.5,1307.6,1306.8,1304.8,1302.5,1300.8,1299,1297.9,1295.8,1294,1293.7,1292.7,1293.2,1293.2,1293.5,1293.5,1295.5,1296.2,1297.1,1297.3,1297.7,1297.5,1297.8,1297.5,1297.2,1296.7,1295.7,1294.9,1294.6,1295.1,1295.8,1296.6,1296.6,1296.8,1297.3,1297.3,1297.4,1297.9,1297.9,1298.5,1299.4,1299.7,1300.5,1300.5,1301.6,1302.5,1303,1303.6,1304.5,1306.4,1306.8,1308.9,1311.5,1314.8,1317.1,1320.2,1324.9,1328.8,1334.5,1339,1343.1,1347.5,1351.9,1355.4,1359.6,1363.8,1366.6,1370,1373.8,1375.9,1379.5,1382.5,1384.3,1386.7,1390,1393,1395.9,1399.7,1402.4,1407.2,1411.9,1415.1,1420.1,1428.7,1439.8,1466.7,1505.4,1547.7,1433.2,1480.6,1687.7,1734.8,1777.9,1805.1,1811.3,1815,1816.1,1816.7,1813.5,1810.2,1807.1,1803.2,1800,1796.4,1792.4,1787.2,1781.5,1774.9,1768.3,1760.3,1752.2,1742.7,1729,1706.5,1674.5,995.1,803.2,622.8,919.9,1198.1,1468.8,1455.5,1454.6,1452,1445.7,1443.9,1439.7,1434.9,1428.7,1423.8,1418.8,1412.7,1408,1401.7,1396.3,1392.3,1389.4,1387.6,1384.9,138.7,2458.3,2454.4,2451.4,2445.6,2439.9,2434.1,2430.1,2423.4,2411.3,2399.2,2386.1,2372.4,2358.5,2343.3,2329.8,2316.8,2302.4,2286.9,2275.9,2264.4,2254.7,2247.8,2242.3,2239,2234.7,2230.2,2223.1,2218.2,2212.1,2206.6,2203.2,2200.1,2196.1,2188.8,2183.9,2183.7,2186.8,2191.6,2190.7,2187.2,2186.3,2184.5,2186.7,2185.8,2183.2,2178.2,2172.6,2166.5,2158.6,2156.4,2156.4,2151.1,2148.1,2145,2146.5,2146.5,2153.5,2159.6,2161.9,2159.5,2157.2,2157.3,2160.1,2157.1,2153.9,2149.6,2142,2136.7,2129.3,2124.6,2117.4,2109,2100.6,2087.3,2075.8,2063.1,2047.3,2029.1,2008.5,1989.1,1971.1,1756,1734.6,1903.7,1309.6,539.7,712,529.4,353,697.9,0,0,0,0,0,0,0,0,0,0,0
3968.1,3968.3,3968.3,3960.5,3960.5,3958,3950.2,3947.8,3942.7,3937.6,3922.6,3912.4,3915,3902.7,3893,3876.1,3871.2,3847.1,3823.2,3806.4,3778.4,3759.8,3734.7,3338.9,1474.8,1462,1819.8,3641.9,3672.5,3703.2,3700.9,3700.8,3712.1,3361.7,1871,0,0,0,0,0,377.3,1681.4,1662.1,1652.2,1822.7,1816.3,1807.2,1798.7,1790.4,1781.4,1774.6,1769.1,1764.6,1756.6,1750,1744.4,1740.5,1738.7,1736.7,1737.7,1739.9,1749.7,1757.5,1766.7,1777.9,1245.1,1433.7,1816.5,1825.3,1830.6,1828.9,1825.8,1814.7,1623.2,1071.8,1778.7,1762.5,1753.7,1744.8,1738.4,1732.3,1725,1718.8,1712.9,1705.5,1691.5,1674.9,1662,1648.5,1637.3,1630.9,1627.1,1623.2,1620.4,1617.5,1620,1619.6,1619.2,1619.1,1616.2,1615.8,1615.3,1617.6,1620,1619.5,1620.9,1625.4,1629.8,1639.2,1645.7,1655.3,1664.6,1671.2,1682.2,1693.7,1705.5,1716.3,1721.7,1726,1723.1,1719.9,1715.8,1710.4,1701.7,1688.7,1676.7,1665.6,1653.8,1643.7,1636.4,1627.4,1619.8,1613.1,1607.6,1603,1598.1,1595.4,1592.7,1589.4,1589,1589.8,1590.2,1589.4,1590.2,1592.4,1595.3,1598.8,1603.8,1607.5,1611.7,1615.6,1620.7,1627,1631.2,1636,1643.9,1654.2,1666.3,1677.8,1691.3,1702.7,1714.9,1729.5,1739,1747,1751.5,1750.9,1750.7,1749.6,1749.4,1748.9,1748.1,1747.1,1745.5,1744.4,1744,1740,1739.2,1739.7,1740.2,1740.6,1739,1738.5,1737.5,1735.5,1735.5,1734.5,1731.6,1728.5,1726.4,1724.8,1724.2,1724,1723.6,1721.7,1719.8,1717.4,1716.5,1714,1710.5,1708.9,1707.5,1704.4,1704.1,1702.6,1700.2,1699,1698.6,1697.7,1694.1,1683.1,1670.3,1491.1,1151,490.3,480.9,611.3,737.8,1013.7,1143.8,1133,1124.6,1254.9,1390.9,1384.3,1379.5,1374.9,1369.4,1364.4,1359.3,1355.5,1352.1,1348.6,1345.3,1342.2,1339,1336,1333.3,1330.6,1327.7,1324.7,1322.7,1320,1318.7,1317.3,1314.7,1312.7,1310.9,1309.5,1307.4,1305.3,1303.9,1301.4,1300.2,1298.1,1296.5,1295,1294.8,1293.7,1293.7,1294,1294.9,1295.2,1296.5,1297.3,1299.1,1298.8,1299.7,1299.4,1299.6,1298.7,1297.9,1297.5,1297.2,1295.6,1295.3,1295.6,1296,1296.3,1297.5,1297.9,1297.9,1298.8,1298.2,1299.1,1299.7,1299.7,1300.2,1300.3,1301,1301.3,1302.2,1302.4,1302.7,1303.6,1304.2,1305.6,1306.8,1308.3,1310.7,1314.2,1316.6,1320.2,1324.6,1328.5,1334.8,1339.3,1342.8,1347.2,1351.9,1356,1359,1363.5,1366.3,1370.7,1374.1,1376.2,1379.2,1381.6,1384.3,1387,1389.7,1393,1396.3,1400,1402.7,1406.3,1411.6,1415.4,1419.5,1427.6,1438.3,1028.4,1054.8,1240.3,1276.1,1486.6,1695.6,1743.9,1787.1,1812.4,1818.9,1821,1821.7,1819.4,1818.9,1814.4,1810.7,1806.6,1802.7,1798.4,1794.4,1789.2,1783.1,1777,1770.8,1762,1753.9,1743.2,1728.5,1706.5,1671.1,1302.3,1270.6,933,916.5,1044.3,1463.2,1451.6,1449.9,1448.2,1441.8,1439.4,1435.7,1432.4,1425.6,1420.3,1414.4,1408.6,1403.7,1397.2,1392.4,1388.8,1385.8,1384.3,1381.6,1242.6,241.5,2452.4,2447.4,2442.6,2439.8,2438,2435.1,2429.1,2420.5,2409.4,2395.2,2382.5,2367.8,2351.1,2335.2,2321.3,2307.5,2294.5,2279.3,2267.6,2257.8,2249.8,2243.9,2238.2,2233,2228,2217.5,2207.3,2201.7,2194,2189.3,2182.1,2173.4,2164,2158.7,2154.8,2156.9,2159.3,2160.9,2163.3,2161.7,2163.8,2168.3,2168.2,2168.2,2164,2159.5,2154.8,2150.1,2147.7,2145.4,2144.7,2140.8,2137.9,2138.6,2140.1,2143.8,2151.3,2155.2,2156.6,2155,2155.7,2156.4,2154.9,2152.5,2146.6,2143.4,2133.7,2127,2121.1,2113.2,2106.9,2098.3,2085.1,2073.1,2059.6,2046.6,2027,2005.2,1985.9,1770.1,1750.4,1726.6,951.6,1105.6,710,700.5,519.4,689.1,172.5,0,0,0,0,0,0,0,0,0,0,0
3968.3,3965.7,3963.1,3960.6,3953.1,3947.8,3945.2,3945.1,3935.2,3922.8,3905.2,3905.2,3893.1,3888.2,3876.1,3863.9,3847,3825.7,3806.6,3785.6,3762.4,3743.9,3716.8,3692.1,2563.9,1459.8,2899.9,3630.9,3661.4,3685.5,3685.4,3678.9,3689.8,3705.4,3721.3,362.2,358,0,0,0,0,576.5,1308,1659,1826.7,1816.3,1806.7,1798.8,1787.6,1779.4,1773.1,1769.6,1763.2,1756.8,1750.1,1745.4,1738.7,1735.7,1732.5,1730.6,1730.1,1735.8,1738.2,1747.5,1753.8,1763.4,1416.4,1786,1795.5,1803,1805.6,1806.1,1800.3,1795.3,1430.8,1780.6,1592.8,1587.3,1757.3,1751.8,1745.7,1739.5,1730.2,1552.8,1714.1,1700.2,1683.6,1667,1650.5,1639,1632.1,1627.1,1622.9,1618.6,1615.3,1615.3,1617.7,1618.7,1618.2,1615.7,1614,1614.4,1616.1,1616.1,1618.5,1620.5,1624.6,1628.6,1638.2,1646.2,1656.2,1665.6,1672.9,1683.4,1696,1707.4,1714.9,1720.7,1721.7,1716.9,1712.7,1707.6,1702,1692.1,1680.8,1669.5,1657.1,1647.2,1639.5,1632.3,1625.2,1617.7,1613.5,1608.5,1604.3,1600.2,1597.6,1593.1,1589.8,1589,1587.4,1587.4,1585.4,1585.4,1588.2,1591.5,1594.9,1598.4,1602.3,1607.5,1612.1,1617.7,1624.9,1628.6,1633.8,1643,1651.5,1665.9,1676.9,1690.2,1700.8,1711.4,1724.9,1733.8,1739.5,1740.9,1742,1741.1,1740.5,1740.9,1739.8,1739.1,1737.7,1735.9,1736.4,1734.6,1733.1,1731.7,1732.1,1731.6,1731.1,1731.6,1730.6,1728.5,1726.6,1726.1,1727.8,1724.9,1722.2,1719.4,1543.6,1542.2,1717.7,1718.3,1716.1,1714.5,1712.2,1711.4,1708.1,1706,1703.8,1700.5,1700.3,1697.8,1697.6,1694.6,1690.2,1685.6,1679.4,1667.2,1650.6,1473,980.2,805.3,317.5,446.5,888.5,1162.8,1144.7,1132.8,1411.9,1402.8,1393.9,1387.6,1382.2,1377.3,1372.5,1366.5,1362,1357.8,1353.4,1350.5,1348.2,1345,1342.2,1339,1335.7,1333.3,1330.6,1328.6,1325.9,1323,1320.8,1319.5,1317.8,1316,1314.2,1312.4,1310.6,1309.2,1307.6,1305,1303.6,1301.3,1299.3,1297.6,1296.1,1295.8,1295.2,1295.2,1294.9,1296,1296.5,1297.6,1298.2,1300,1301.1,1301.9,1301.3,1300.7,1300.2,1299.3,1298.2,1297.1,1297.1,1296.2,1296.2,1297.1,1297.7,1298.5,1299.1,1299.1,1299.1,1298.8,1299.6,1300.2,1300.8,1300.8,1300.5,1301.1,1301.6,1302.1,1302.7,1302.7,1303,1304.2,1305.3,1306.6,1307.7,1310.4,1313,1316.2,1319.6,1324,1328.8,1334.5,1339,1343.3,1346.7,1351.9,1356,1359,1363.8,1367,1370.7,1373.8,1375.9,1378.9,1381.6,1384.6,1387.3,1390,1393,1395.6,1398.9,1402.7,1406.9,1410.3,1414,1418.6,1426.3,1437.6,882.9,906.1,931.7,1279.7,1493,1705.1,1754.7,1798.3,1821.1,1825.6,1826.2,1826.3,1825.6,1822.5,1818.3,1813.9,1810.1,1805.5,1801.2,1795.8,1790.7,1784,1778,1772.3,1764.1,1754.3,1743.8,1727,1702.8,1667.3,1464.7,1428.2,930.7,1063,1484.1,1459.5,1447.5,1446.2,1443.8,1438.3,1434.5,1431.7,1428,1422,1417.2,1412,1404.4,1399.9,1394.8,1389.1,1386.1,1383.1,1381.6,1380.4,1379.2,1102.4,974.6,2443.6,2441.7,2439.8,2440.8,2439.9,2436,2430.1,2419.6,2407.7,2392.5,2378.8,2359.5,2343.9,2328.2,2313.4,2300.3,2287.6,2274.1,2265,2254.5,2248,2242.1,2235,2225,2214.4,2203.3,2192.5,2187.2,1961.7,2169.2,2157.7,2150,2141.7,2139.6,2141,2143.4,2143.2,2143.5,2142.7,2143.3,2143.9,2147.5,2145.9,2142,2136.6,2131.2,2128.2,2129.9,2130.6,2129.8,2126.8,2126.1,2128.5,2129.9,2137.1,2144.7,2147.7,2149.1,2149.6,2148.8,2152.5,2148.7,2147.9,2142.6,2136.7,2129.3,2124,2116.9,2109,2102.6,2091.8,2079.3,2069.7,2056.9,2043.3,2026.3,2003.3,1985.3,1569.1,1746,1912.5,1137.1,357,699.5,687.7,510.4,167.3,0,0,0,0,0,0,0,0,0,0,0,0
3960.6,3958.1,3955.5,3950.5,3950.5,3945.3,3942.7,3937.7,3932.8,3917.8,3912.7,3893,3888.1,3871.1,3859,3842,3825.7,3806.8,3788,3767.3,3744,3719.2,3703.4,3672.2,3290.6,2544.2,3247.2,3620.1,3646.1,3667.8,3670,3663.6,3672.4,3687.6,3694.1,728.8,358,0,349.9,344,0,0,744.3,1667.7,1651.6,1638.3,1805.7,1794.9,1786.5,1778.4,1773.8,1769.1,1764.8,1759.9,1755.9,1748.2,1740.9,1736.3,1731.4,1727.2,1724.8,1726.1,1727.5,1730.5,1735.9,1739.2,1749.2,1757.9,1767.3,1776.4,1781.3,1786.5,1785.8,1786.3,1784.2,1779.6,1772.9,1769.6,1764.8,1761.7,1753.5,1748,1738.7,1559,1720.5,1706.5,1690.6,1671.5,1654.7,1641.2,1633.2,1627.9,1622.8,1618,1615.8,1614.5,1616.7,1617.7,1618.2,1614.9,1613.7,1613.7,1614.9,1616.2,1616.5,1620,1623.8,1629.8,1640,1648.8,1658.8,1668.3,1676.2,1685.3,1696.9,1705.9,1714.4,1719.3,1717.5,1711.5,1705,1701.8,1695.5,1685.4,1675.3,1663.9,1652.9,1643.6,1637,1631.7,1625.6,1619.2,1614.9,1609.7,1606.7,1603,1599.7,1594.9,1590.6,1588.2,1588.2,1585.4,1583.8,1583.4,1584.2,1587,1590.6,1593.9,1597.6,1603.1,1609.6,1616.3,1622.9,1627.8,1632.9,1643.4,1652.3,1664.8,1678,1688.7,1700.3,1710,1720,1728.2,1732.3,1733.4,1734,1734.1,1732.2,1734.8,1733.2,1733.7,1731.4,1729.4,1728.4,1728.3,1726.4,1725.4,1725.3,1725.2,1725.1,1726.1,1724.6,1723.1,1719.3,1720.8,1720.9,1717.2,1715.6,1715.9,1713.4,1713,1713.4,1712.7,1711.8,1709.8,1707.3,1706.4,1704.5,1700.3,1698.7,1696.1,1693.9,1692.2,1689.1,1684.9,1676.7,1668.5,1655.2,1637.1,1613.6,970.7,639.9,776.6,1052.1,727.1,866.2,1148.1,1423.5,1412.3,1405.6,1398.2,1391.4,1384.9,1379.8,1374.8,1369.6,1364.9,1359.3,1354.9,1351.8,1348.8,1346.7,1344.1,1342.2,1338.7,1336,1333,1330.9,1328.9,1326.2,1323.6,1321.6,1319.5,1318.6,1317.2,1315.5,1313.9,1312.4,1310.3,1308.7,1306.6,1305,1302.8,1300.5,1299,1297.9,1297.3,1296.7,1296.6,1296.8,1297.4,1297.9,1299.1,1300.6,1301.8,1302.1,1302.3,1302.3,1301.9,1301.3,1300.1,1299.9,1298.5,1297.9,1297.2,1297.2,1297.6,1298.5,1298.8,1299.4,1299.4,1300.2,1299.6,1300.8,1301.1,1301.1,1301.1,1301.1,1301.1,1302.1,1302.4,1302.7,1303.3,1303.3,1304.8,1305,1306.5,1307.7,1310.1,1312.7,1315.4,1318.5,1323.7,1328.5,1333.9,1338.7,1343,1347.2,1351.9,1355.7,1359.6,1363.5,1367.3,1370.3,1373.8,1375.9,1378.6,1381.6,1384.6,1386.7,1389.4,1393,1395.6,1398.3,1402.7,1406.3,1409.9,1413.3,1418,1425.3,1438.1,1472.7,1515.5,1561.5,1447.8,1664.1,1713.7,1764.9,1808.3,1829.7,1832.4,1832.2,1831.7,1829.6,1824.5,1821,1815.7,1811.7,1806.5,1801.9,1796.8,1791.7,1787.1,1780,1772.8,1766.3,1754.4,1743.7,1381.1,1701.4,1665.2,1297.1,946.2,929.1,1513.5,1479.8,1457.1,1445,1443.4,1440.8,1435.3,1432.2,1429,1424.8,1419.1,1413.8,1408.2,1402.1,1396,1391.1,1385.8,1382.5,1382.5,1380.4,1379.8,1379.5,1378,0,2194.5,2437.9,2437.9,2437.9,2442.6,2442.6,2436,2425.3,2414.9,2403,2387.8,2371.5,2353.9,2336.2,2320.4,2308.2,2296.2,2285,2275.9,2265.1,2256.8,2250.4,2240.1,2230.5,2216.1,1985.2,1967.1,2184,2174,2164.4,2152.9,2144.5,2137.1,2134.1,2135,2136.6,2135.2,2135.3,2131.5,2131.3,2131.9,2132.5,2127.9,2121.1,2115.8,2112.3,2111.4,2113.6,2114.4,2114.3,2114.3,2114.3,2118.7,2120.8,2127.6,2133.5,2138,2137.8,2138.5,2142.8,2142.2,2142,2142,2137.6,2133.1,2125.6,2119.1,2112.7,2104.1,2096.9,2088,2079.3,2067.6,2056.2,2042.6,2025.7,2002.7,1983.4,1962.7,1742.8,1139.9,0,0,0,164.7,0,0,0,0,0,0,0,0,0,0,0,0,0,0
3953,3950.6,3948,3945.4,3937.6,3935.1,3937.7,3937.7,3922.9,3917.9,3900.4,3883.2,3876,3859,3847.1,3825.5,3807,3786.1,3769.7,3746.6,3735.1,3703.6,3681.4,3657.2,3631.1,2527.2,3234.8,3605.3,3624.3,3644.1,3646.2,3643.9,3650.5,3668,3674.4,3681.3,1462.3,716.1,705.9,648.3,346,344,0,566.7,1125.9,1469.1,1450.7,1800.9,1791.3,1783,1776.8,1770.8,1764.4,1760.9,1755,1750.7,1742.1,1737.2,1731.5,1723.4,1719.4,1718.4,1717.9,1717.8,1718.6,1722.6,1727.1,1735,1745.1,1755.6,1763.8,1769.8,1774.4,1778.1,1779.5,1778.6,1598.6,1773.4,1770.5,1768.1,1760.5,1750.8,1741.5,1733.8,1723.4,1536.6,1694.2,1674.8,1656.8,1644.8,1636.9,1630.4,1624.5,1620.4,1616.2,1615,1618.2,1619.1,1618.6,1616.3,1613.7,1614.1,1615.8,1616.8,1617.4,1620.4,1624.6,1632.2,1640.8,1650.6,1661.6,1670.1,1678,1687.7,1696.9,1704.4,1709.7,1713.5,1711,1703.7,1698,1693.9,1688.9,1678.6,1669.7,1659.4,1649,1638.8,1633.9,1629.5,1625.6,1619.6,1615.8,1612.7,1609.1,1605.4,1601.7,1598.1,1593.7,1589.8,1587.8,1584.6,1581.4,1579.8,1581,1584.2,1587.8,1591.4,1596.7,1602.3,1609.2,1615.4,1623.3,1628.6,1634.6,1643.6,1655.2,1667.1,1678.5,1688.6,1698.8,1708.1,1715.6,1722.5,1727.1,1727.9,1727,1727.7,1726.4,1726.5,1726.5,1725.6,1725.7,1724.1,1724.1,1723.5,1722,1719.9,1719.9,1720.9,1721.2,1720.2,1720.1,1717.7,1716.8,1713.9,1714.4,1713.8,1710.7,1710.1,1709.5,1708.2,1707.7,1708.2,1706.6,1704.3,1703.2,1701.9,1699,1696.1,1693,1691.4,1687.3,1685.6,1680.8,1672.8,1662,1647.9,1629.4,1606.4,801.6,634.5,775.4,1198.6,1325.8,859.2,1146.5,1425.3,1413.1,1405.2,1399.5,1394.1,1388,1382.5,1377,1371.6,1367.5,1361.4,1357.5,1353.2,1350,1347.9,1345.8,1344.1,1341.8,1339,1336,1333.3,1331.2,1329.7,1327.1,1324.4,1322.9,1321.2,1319.8,1318.3,1317.4,1316,1313.9,1311.8,1311,1308.7,1306.9,1304.7,1302.5,1300.5,1299.6,1299,1299,1299,1299,1299.6,1300.5,1301.6,1303.1,1304,1303.9,1304.2,1304,1302.8,1302.1,1301,1300.2,1299.6,1298.8,1297.5,1297.7,1297.7,1299.1,1299.7,1300.3,1300.3,1300.5,1300.5,1301.7,1301.7,1301.1,1301.4,1301.1,1302.1,1302.5,1302.4,1303,1303,1303.3,1304.8,1305,1306.5,1307.7,1309.5,1312.7,1315.1,1318.3,1323,1194.9,1333.9,1339.6,1343.3,1347.5,1351.6,1356.3,1359.6,1363.8,1367.1,1369.6,1373.2,1375,1377.7,1381,1383.7,1385.8,1389.4,1392.4,1395.3,1398.3,1401.8,1405.1,1409,1412.4,1416.4,1422.8,1437.9,1476,1520,1567.1,969.5,1672.1,1725.3,1777.7,1822.2,1839.5,1840.6,1839.5,1836.8,1832.8,1829.1,1823.4,1819.8,1814.6,1808.5,1804,1799.6,1793.8,1788.1,1782.5,1774.8,1768.3,1757.7,1744.9,1383,1701.3,1666.5,1626.1,1265.3,928.3,1212,1478.6,1455.1,1443.4,1440.2,1435.9,1431.6,1428.7,1425.4,1421.7,1416.2,1410.6,1405.7,1400.2,1393.8,1388.8,1384.6,1382.5,1381,1380.1,1379.2,1378.6,1378.3,688.1,1698.1,2431.2,2434,2434.8,2441.7,2440.7,2438.8,2433.2,2421.4,2407.6,2392.6,2378.7,2362.1,2343.8,2330.2,2318.7,2306.4,2295.4,2286.5,2275.9,2268.3,2260.8,2249.4,2237.2,2221.4,2209.2,2196.6,2185.8,2175.9,2165.2,2152.5,2142.8,2136.1,2133.1,2134.7,2134,2132.6,2132.2,2127.6,2128.2,2129.5,2124.2,2118.9,2114.4,2106.4,2102.7,2101.4,2101.3,2103.6,2104.4,2105.6,2108.4,2110.7,2112,2117.1,2121.6,2124.5,2126.7,2127.4,2130.3,2131.7,2132.6,2134.7,2132.5,2127.2,2121.4,2115.5,2108.3,2098.2,2093.1,2084.6,2075.2,2064.9,2052.8,2040.7,2023.7,2000.8,1391.4,1178.7,577.9,0,0,0,0,0,0,0,0,0,0,0,0,0,0,0,0,0,0,0
3940.8,3938,3938,3927.8,3927.8,3930.3,3927.8,3917.9,3910.3,3895.5,3883.2,3873.6,3859.1,3847.1,3832.7,3806.9,3792.8,3769.6,3755.9,3733.1,3712.7,3690.2,3661.7,3639.7,3611.9,3232.7,3222.2,3586.5,3603.2,3624.5,3626.6,3626.6,3641.8,3659.2,3672.4,3681.2,2564,2188.8,1800.8,2887.8,2153.1,1410.6,285.1,260.9,0,180.1,358,1447.6,1791.3,1782.6,1777,1770.3,1764.4,1759.5,1754,1749.3,1743.3,1736.8,1730.6,1721.4,1715.5,1713.1,1710,1708.6,1706.4,1708.8,1712.6,1718.6,1726.1,1737,1746.2,1753.5,1762.2,1769.4,1772.3,1774,1775,1774.5,1771.2,1768.9,1763,1753.4,1744.5,1735.3,1725.2,1712.6,1697.5,1679.4,1662.5,1649.7,1641.7,1633.8,1627.3,1622.9,1617.7,1618.3,1619.6,1620.4,1619.6,1616.7,1615,1615.4,1617.2,1619.4,1620.3,1623,1627.4,1635,1645.5,1655.8,1665.6,1673.8,1681.1,1689.1,1697.4,1703.4,1704.8,1708.8,1705.5,1699.8,1692.4,1688.5,1682.1,1673.3,1666,1656.6,1646.5,1639.7,1633.1,1629.1,1625,1621.6,1618.2,1615.7,1614,1609.6,1606.2,1600.9,1596.7,1591.4,1589,1584.2,1580.2,1578.2,1578.6,1581.8,1585.8,1590.6,1595.8,1601.5,1610,1616.3,1622.9,1629.8,1637.2,1647,1657.3,1669.4,1680,1689.6,1697.7,1705.7,1711.1,1717,1721.2,1722.3,1719.9,1721.4,1720.1,1721.1,1722.8,1722.8,1724.2,1722.7,1721.7,1721.2,1717.6,1719,1719.4,1717.9,1717.8,1718.3,1717.2,1714.8,1712,1712.4,1710.1,1709.6,1707.7,1705.8,1706.4,1705.4,1703.9,1702.9,1700.6,1697.8,1697.2,1694.4,1691,1688.1,1685.6,1683.4,1680,1676,1670.4,1661.2,1646.1,1626.1,1449.2,950.2,779.9,1066.4,1197,1326.4,1454,1144.4,1425.5,1415.2,1406.4,1401.3,1395.6,1390.7,1384.9,1380.1,1374.2,1369.4,1364.6,1360.2,1355.5,1351.8,1349.7,1347.9,1345.2,1344.1,1341.5,1338.7,1336.3,1333.3,1331.8,1329.4,1327.1,1325,1324.4,1322.4,1321.6,1320.4,1318.6,1316.8,1315.5,1313.5,1312.4,1310.7,1308.6,1306.8,1304.1,1303,1302.1,1300.8,1300.5,1300.8,1301.1,1301.8,1303.1,1304.6,1304.8,1306,1306.3,1306.3,1306.3,1303.4,1303.4,1301.8,1301.2,1299.8,1299.6,1298.8,1297.7,1298.2,1299.6,1300.5,1300.6,1300.6,1301.1,1301.1,1302,1302,1302.3,1301.7,1302.5,1302.2,1302.5,1303,1303.3,1303.3,1303.6,1305.1,1305.2,1306.5,1307.7,1309.8,1312.4,1314.5,1318.4,1322.5,1194.6,1333.9,1339.6,1343.4,1347.8,1352.1,1356.3,1360.2,1363.2,1366.8,1369.6,1372.8,1375,1377.4,1380.1,1383.4,1386.4,1389.7,1392.7,1395.3,1397.7,1401.4,1405.1,1408.4,1411.3,1414.9,1421.3,1438.1,1478.7,1525.4,1574.4,813.6,1683.4,1737,1792.2,1835.8,1849.3,1847.7,1845,1841.6,1838.4,1831.8,1826.2,1820.9,1816.7,1811.8,1805.5,1800.7,1795.4,1790.1,1783.5,1778.3,1770.8,1760.4,1747.3,1730.4,1703.4,1668.2,1298.4,1107,927.4,1511.7,1479.2,1455.4,1441.7,1438,1432.3,1427.3,1423.9,1421,1417.6,1413.1,1408.2,1403.5,1397.2,1392.7,1387.9,1384.9,1381.3,1379.5,1379.2,1379.2,1378.3,1378.9,825,2182.3,2423.8,2426.6,2428.5,2435.9,2439.7,2439.8,2433.1,2424.4,2412.1,2399.2,2383.3,2367.8,2350.2,2339.5,2327.5,2316.8,2307.3,2298.6,2289.3,2280,2273.4,2261.6,2249.9,2233.8,2219.4,2204.2,2192.6,2181.7,2170.2,2158,2146.8,2139.6,2134.5,2133.7,2134.5,2134.6,2130.8,2128.6,2127.8,2126.4,2123.3,2115.9,2108.4,2101.4,2097.7,2096.3,2096.3,2098.5,2099.9,2100.6,2103.4,2104.1,1891.7,2105.4,2109.9,2115,2114.2,2114.9,2120,2120.8,2122.2,2125.2,2124.3,2119.9,2114.2,2109.6,2103.9,2094.7,2088.9,2081.8,2072.4,2062.1,2050.1,1226.3,1016.9,807,803,597.9,0,0,0,0,0,0,0,0,0,0,0,0,0,0,0,0,0,0,0,0
