724.5,726.5,729.5,731.5,734.5,736.5,739.5,742,745,747.5,750,752,755,757.5,760,763,766,768.5,771,773.5,776,778.5,780,781.5,783,785,788.5,790.5,793.5,795,798,800.5,803.5,805.5,808,809.5,812,813.5,815,816.5,819,822,825,829,831.5,836.5,840.5,845,849,853,856,859,863,865.5,868,872,875,878.5,883.5,887.5,890.5,893,896,899.5,903.5,908,911,914,917.5,921.5,926,931,934.5,937.5,940.5,943.5,946.5,949.5,954,957,960.5,964,968,972,975,978,980,981.5,983.5,985.5,986,989,993.5,997,1004,1010.5,1015.5,1023,1029,516.5,1040,1043.5,1049.5,1054.5,1060,1065.5,1071,1076.5,1082,1088,1095,1102,1108,1112,1116,1121,1125,1131,1136,1141.5,1148,1152,1156.5,1160,1165,1170,1175,1178.5,1185.5,1191,1196,1201.5,1207.5,1212,1218,1224.5,1230.5,1238,1244,1251.5,1258,1263.5,1269.5,1274,1282,1291,1296.5,1304.5,1313,1318.5,1324,1331.5,1337.5,1345,1351.5,1362,1372,1382.5,1391.5,1403,1412.5,1422,1432,1440.5,1447.5,1457.5,1464.5,1476.5,1489,1502,1513,1522.5,1536,1545.5,1555,1567,1579,1589.5,1600,1612.5,1623,1638.5,1645.5,1656,1665.5,1676.5,1688.5,1702.5,1717,1729,1739,1756,1766.5,1781,1798.5,1812,1825,1838.5,1852,1863,1877.5,1889,1900.5,1912.5,1925,1933.5,1948.5,1958.5,1967.5,1977,1983,1989.5,1993,1999,1999,1999.5,1999.5,1999.5,1999.5,1996.5,2000,2000,2003,2002.5,2002.5,2009.5,2012.5,2012.5,2016,2016,2012.5,2012.5,2012.5,2012.5,2012.5,2009,2012.5,2012.5,2012.5,2015.5,2015.5,2015.5,2019,2019,2022,2022,2025.5,2026,2022.5,2019,2019,2012,2012,2006,2006,2002.5,1999.5,1996,1996,1993,1993,1990,1990,1993,1989.5,1993,2000,2000,2006,2006,2009.5,2016,2019.5,2023,2029.5,2032.5,2032.5,2036,2042.5,2042.5,2046,2046,2046,2043,2046,2042.5,2042.5,2039,2035.5,2029,2026,2026,2019,2019,2015.5,2015.5,2019,2015.5,2015.5,2012.5,2012.5,2012.5,2012.5,2012.5,2012.5,2016,2019.5,2019.5,2019.5,2019.5,2023,2023,2026.5,2026.5,2029.5,2026,2029.5,2026,2026,2026,2026,2029.5,2029.5,2032.5,2036,2036,2039,2042.5,2039.5,2036,2026,2017,2007,2000.5,1997.5,1987.5,1991,1984.5,1984,1983.5,1989.5,1990,1993,1989.5,1989.5,1989.5,1989.5,1983,1983,1974,1961.5,1949,1934,1925,1903.5,1889.5,1869,1855,1838.5,1824.5,1819.5,1814,1806,1798,1793,1788,1785.5,1780,1774.5,1774.5,1769.5,1772,1770,1767.5,1770,1770,1767.5,1765,1765,1762.5,1762.5,1762.5,1760,1755,1750,1747.5,1745,1745,1740,1735,1732.5,1730,1727.5,1723,1720.5,1716,1711,1706.5,1699,1694.5,1687.5,1683,1675.5,1671.5,1667,1660,1655.5,1651,1648.5,1644.5,1637.5,1633.5,1629,1627,1620.5,1618.5,1614.5,1610,1605.5,1601.5,1599.5,1599.5,1597.5,1595.5,1591,1591,1587,1583,1579,1575,1569,1565,1559,1555,1549,1547.5,1541.5,1537.5,1535.5,1530,1526,1523,1515.5,1511.5,1506,1502.5,1498.5,1500.5,1500.5,1499,1495,1496.5,1494.5,1491,1489,1486,1484,1478.5,1475,1475,1473.5,1471.5,1469.5,1468,1464.5,1463,1459.5,1455.5,1452.5,1449,1445.5,1444,1440.5,1437,1435.5,1434,1430,1428.5,1425.5,1423.5,1420.5,1416,1412,1410.5,1409,1406,1402.5,1401,1401,1399.5,1398,1396.5,1395,1392,1389,1384,1380.5,1373,1368.5,1363,1358.5,1354,1350.5,1347.5,1347.5,1347.5,1349,1349,1347.5,1346,1344.5,1343,1339,1336,1331.5,1327.5,1326.5,1322,1320.5
726,728.5,731,733.5,736,739,741.5,744.5,747.5,749.5,751.5,754,756,758.5,761.5,764.5,767.5,770,773,775,778,780,781.5,783,784.5,786,789.5,792,794.5,796.5,799.5,801.5,804.5,806,809,811,812.5,814,815.5,817,820,823,826.5,830,834.5,838.5,842,846.5,850,854,857.5,859,863,867,869,873,876.5,880,884,888.5,891.5,895,898.5,901.5,905,909.5,913.5,916.5,920.5,924.5,929,933,937,940.5,943,945.5,948.5,951.5,956.5,959.5,963.5,966,970.5,974,977,979,981.5,983,985.5,987.5,989,992,996,1001,1007,1013,1019,1026,1032.5,1037.5,1043,1048.5,1052.5,1058,1063.5,1069,1074.5,1079.5,1084,1091,1098,1105,1110,1115,1120,1124,1129,1134,1139.5,1145,1149,1153,1158,1162,1166.5,1172,1176.5,1181,1188,1193.5,1200.5,1206,1212,1217.5,1223.5,1229.5,1237,1241.5,1248,1254,1262,1268.5,1272,1278,1285.5,1292.5,1300.5,1306,1311.5,1318.5,1325.5,1331.5,1340.5,1348,1354.5,1362,1375,1385.5,1396.5,1406,1417,1428.5,1437,1449,1454,1462.5,1473.5,1483.5,1498.5,1509.5,1519,1528,1538,1549,1559,1571,1583,1593.5,1604,1614.5,1625.5,1640.5,1649.5,1660.5,1669.5,1678.5,1690.5,1704.5,1721.5,1734,1748.5,1761,1776,1791,1809.5,1822,1830,1844,1857.5,1872,1883,1898,1909.5,1919,1930.5,1942.5,1955.5,1967.5,1977,1983,1990,1996,1999,2006,2006,2002.5,2006,2006,2006,2006,2006,2006,2006,2006,2006,2009,2012.5,2012.5,2012.5,2015.5,2015.5,2012.5,2012.5,2012.5,2009,2009,2009,2012.5,2012.5,2015.5,2015.5,2015.5,2015.5,2019,2022,2022,2022.5,2022.5,2019,2019,2012,2012,2006,2006,1999,1999.5,1992.5,1992.5,1989.5,1989.5,1986.5,1990,1990,1990,1990,1993,1996.5,1996.5,2000,2003,2006,2012.5,2012.5,2016,2023,2023,2023,2026.5,2032.5,2032.5,2036,2036,2036,2032.5,2039.5,2036,2032.5,2032.5,2029,2022.5,2019,2012,2015.5,2012,2012,2015.5,2012,2012,2012,2009,2012.5,2012.5,2016,2012.5,2015.5,2012.5,2016,2019.5,2019.5,2019.5,2022.5,2026,2026,2023,2026.5,2029.5,2032.5,2032.5,2029.5,2029.5,2029.5,2032.5,2036,2036,2039,2042.5,2042.5,2042.5,2039.5,2036,2026,2013.5,2010,2000.5,1997,1990.5,1984.5,1984.5,1984,1983.5,1993,1993,1996,1996,1996,1996,1993,1993,1986.5,1980.5,1974.5,1961.5,1946,1934,1919,1897.5,1880.5,1863.5,1846.5,1832.5,1825,1816.5,1809,1803,1800.5,1795.5,1790.5,1785.5,1783,1780,1777,1777,1774.5,1774.5,1772,1772,1772,1769.5,1767.5,1767.5,1765,1765,1762.5,1760,1760,1755,1752.5,1747.5,1745,1740,1740,1738,1732.5,1730,1727.5,1722.5,1718.5,1713.5,1706.5,1699,1692,1687.5,1680.5,1675.5,1669,1662,1657.5,1653.5,1651,1646.5,1642,1638,1633.5,1631.5,1629.5,1624.5,1618.5,1618.5,1612.5,1610,1608,1608,1605.5,1603.5,1601.5,1599.5,1595.5,1591.5,1589,1583,1579,1573,1567,1559,1555,1553,1547.5,1543.5,1539.5,1534,1532,1526,1522.5,1519,1513.5,1509.5,1508,1507.5,1507.5,1505.5,1504,1500,1500,1496.5,1494.5,1491,1489.5,1485.5,1482,1480.5,1480.5,1478.5,1476.5,1475,1471.5,1468,1464.5,1461,1457.5,1454,1449,1445.5,1445.5,1440.5,1440.5,1437,1434,1430,1428.5,1425.5,1422,1419,1417.5,1416,1414,1410.5,1409,1407.5,1407.5,1407.5,1404,1404,1401,1399.5,1396.5,1393.5,1387.5,1380.5,1376,1371.5,1365.5,1363,1360,1357,1355.5,1355.5,1355.5,1355.5,1355.5,1354,1350.5,1347.5,1344.5,1341.5,1337.5,1333,1330,1327.5,1326
728,730,733.5,735.5,738,741,743.5,746.5,749.5,751.5,753.5,756,757.5,760,762.5,765.5,768.5,771.5,773.5,776,779,780.5,782.5,784,785.5,787.5,790.5,793.5,795.5,798,800,802.5,805,807,809.5,811.5,812.5,814,816,818,821,824.5,828.5,833,836.5,841,845,848.5,852,855.5,858,860.5,863.5,867.5,870.5,873.5,878,882,885.5,889.5,893,895.5,899,902,906.5,910.5,914.5,918.5,922.5,926.5,930.5,935.5,939,941,944.5,947.5,950.5,954,957,961.5,965.5,968.5,972.5,976.5,979,981.5,984,985,988,990,993,995.5,999,1004,1010,1017,1022,1030,1035,1041,1045.5,1051,1055.5,1061.5,1067.5,1071,1076.5,1082,1088,1093,1100,1107,1112,1117,1122,1128,1132,1138.5,1142.5,1148,1152,1156.5,1160,1165,1168.5,1173,1178.5,1185,1190,1197,1204,1210,1217.5,1223,1228,1234,1241.5,1247,1253,1258.5,1266,1272.5,1277.5,1283,1289.5,1296,1302,1308.5,1316,1321,1327,1333,1342,1349,1356,1365,1379.5,1390,1399.5,1411,1422,1432,1444,1452.5,1461,1469.5,1480.5,1489,1502,1515,1522.5,1530,1541.5,1553,1561,1573,1583,1597.5,1608,1621,1631.5,1642.5,1651,1664.5,1673.5,1680.5,1694.5,1711.5,1726,1738,1753.5,1771,1783.5,1799,1814.5,1825,1838.5,1849,1860.5,1877,1889,1901,1912.5,1922,1933.5,1952,1964.5,1974,1983,1990,1996,2002.5,2009.5,2012.5,2012.5,2015.5,2012.5,2012.5,2012.5,2009.5,2009.5,2009.5,2012.5,2009,2012.5,2012.5,2012.5,2015.5,2015.5,2015.5,2015.5,2012.5,2012.5,2016,2016,2012.5,2012.5,2012.5,2015.5,2015.5,2015.5,2015.5,2015.5,2019,2022,2022,2019,2019,2019,2019,2015.5,2012,2009,2006,1999,1999.5,1999.5,1992.5,1989.5,1986.5,1986.5,1986.5,1986.5,1990,1986.5,1986.5,1993,1996.5,1996.5,1996.5,2003,2003,2006,2006,2009.5,2013,2013,2016,2019.5,2023,2026,2026,2029.5,2026,2025.5,2029,2022.5,2019,2019,2012,2009,2009,2005.5,2002.5,2009,2009,2009,2009,2009,2012,2012,2015.5,2012.5,2016,2019,2019,2019,2022.5,2022.5,2026,2026,2026,2029.5,2029.5,2033,2033,2033,2036,2036,2036,2036,2036,2039,2042.5,2046,2046,2046,2046,2046,2039,2029.5,2019.5,2010,2006.5,2000,1996.5,1987.5,1990.5,1987,1990,1993,1996.5,1999.5,1999.5,1999.5,2003,2000,1996.5,1993,1987,1977.5,1968,1958.5,1946,1931,1913,1897.5,1880.5,1863.5,1849.5,1838.5,1830,1816.5,1811.5,1806,1803.5,1798,1793,1790.5,1788,1785.5,1785.5,1782.5,1780,1777,1780,1780,1777,1774.5,1772,1769.5,1769.5,1769.5,1767.5,1765,1762.5,1760,1755,1752.5,1750,1747.5,1742.5,1740.5,1740.5,1738,1730,1725,1720.5,1711.5,1704,1699,1694,1687.5,1680,1673.5,1664,1662,1655.5,1653,1651,1646.5,1644.5,1640,1636,1636,1631.5,1627,1625,1618.5,1616.5,1614.5,1614.5,1612.5,1610.5,1608,1608,1603.5,1601.5,1597.5,1591.5,1585,1579,1573,1567,1561,1557,1551,1547.5,1545.5,1539.5,1537.5,1534,1530,1524.5,1521,1519,1517.5,1515.5,1515,1515,1513,1511.5,1507.5,1505.5,1502,1500,1494.5,1493,1489,1487.5,1485.5,1485.5,1482,1480,1477,1473,1470,1466,1463,1461,1455.5,1452.5,1449,1445.5,1442.5,1438.5,1437,1434,1432,1430,1427,1424,1420.5,1419,1417.5,1416,1416,1414,1414,1412.5,1412.5,1411,1409.5,1406,1404,1401,1396.5,1390.5,1384,1380.5,1377.5,1373,1370,1365.5,1364,1364,1364,1363,1361.5,1360,1357,1354,1350.5,1347.5,1341.5,1338.5,1336,1334.5,1330.5
729.5,732,734.5,737.5,740.5,742.5,746,748.5,751,753.5,755.5,757,758.5,760.5,763.5,766.5,769.5,772,774.5,777.5,779.5,781,783,784.5,786.5,788.5,792,794,796.5,798.5,801,803.5,806,808,810.5,811.5,813,814.5,816,818.5,822.5,826,831,835.5,839.5,844.5,847.5,851,854,857,860,862.5,865,868,871.5,874.5,878.5,883,886.5,891,894,897,900.5,903.5,908,912,916,920.5,924.5,929,933,936.5,940,942,945,948.5,951.5,954.5,958.5,962.5,966,969.5,974.5,979,982.5,984.5,986,989,991.5,994,996.5,999.5,1004,1008,1015,1021.5,1027,1033,1038,1044,1048,1054.5,1059,1064.5,1070,1074.5,1080.5,1085,1090,1095,1102,1109,1115,1120,1126,1132,1136,1141.5,1147,1152,1155.5,1159,1163,1167.5,1172,1176.5,1182,1187.5,1194.5,1201,1208.5,1215,1221,1228.5,1234.5,1239,1246.5,1252,1257,1263.5,1270,1276,1283,1288.5,1295,1300.5,1306,1313,1319,1324,1330,1337.5,1345,1353,1362,1372,1385.5,1396.5,1406,1415.5,1425.5,1435.5,1447,1456,1464.5,1473.5,1482,1494.5,1504,1517,1524,1532,1543,1555,1563,1577,1587,1601.5,1612.5,1624.5,1638,1648.5,1657.5,1671,1678,1687.5,1701.5,1713.5,1730,1745.5,1757.5,1773,1788,1804,1817,1830,1841,1852,1866,1877,1892,1903.5,1915.5,1927.5,1939.5,1958.5,1970.5,1980,1990,1996,2002.5,2009.5,2015.5,2019,2019,2022.5,2022.5,2022.5,2019,2019,2019,2019,2016,2016,2015.5,2015.5,2015.5,2015.5,2019,2019,2022.5,2019,2019,2019,2016,2015.5,2015.5,2015.5,2015.5,2015.5,2015.5,2015.5,2015.5,2019,2019,2022,2019,2022.5,2019,2019,2015.5,2012,2012,2006,2006,2002.5,1999.5,1992.5,1989.5,1986.5,1986.5,1986.5,1983,1983,1986.5,1986.5,1989.5,1989.5,1996.5,1996.5,1996.5,2000,2000,2003,2003,2003,2006.5,2010,2013,2013,2019.5,2019.5,2019.5,2019,2019,2019,2015.5,2012,2006,2006,1999,1996,1999.5,1999.5,2002.5,2002.5,2002.5,2002.5,2006,2009,2012,2012,2015.5,2015.5,2019,2022,2022,2022,2022,2025.5,2025.5,2029,2029,2032.5,2032.5,2036,2033,2033,2036,2039,2039,2039,2046,2049.5,2049.5,2052.5,2052.5,2052.5,2046,2042.5,2033,2023,2016,2009.5,2003,1996.5,1990,1993.5,1990,1993,1996.5,1999.5,2002.5,1999.5,2003,2003,2000,2000,1996.5,1990.5,1984,1974.5,1964.5,1955,1939.5,1928,1909.5,1892,1880.5,1863.5,1854.5,1844,1833,1819.5,1814,1808.5,1803.5,1798,1795.5,1795.5,1790.5,1790.5,1790.5,1787.5,1785,1782.5,1782.5,1782.5,1780,1780,1780,1774.5,1774.5,1772,1772,1769.5,1767.5,1762.5,1760,1760,1757.5,1755,1750,1745,1742.5,1740.5,1733,1725,1720.5,1713.5,1706.5,1699,1692,1685,1678,1671,1666.5,1662,1660,1655.5,1653.5,1648.5,1644,1642,1642,1638,1636,1631.5,1629.5,1625,1623,1621,1618.5,1618.5,1616.5,1612.5,1612.5,1608,1603.5,1597.5,1593.5,1587,1579,1571,1565,1561,1557,1551,1549.5,1547.5,1541.5,1539.5,1536,1532,1530,1528,1524.5,1524.5,1526.5,1524.5,1522.5,1518.5,1517,1515,1509,1506,1504,1498.5,1496.5,1493,1493,1491,1487,1485.5,1482,1478.5,1475,1471.5,1466,1464.5,1461,1457.5,1452.5,1449,1445.5,1440.5,1437,1437,1434,1430,1428.5,1425.5,1424,1422,1422,1420.5,1420.5,1420.5,1420.5,1420.5,1419,1417,1415.5,1414,1414,1409.5,1404,1398,1392,1388.5,1385.5,1382.5,1376,1374.5,1371.5,1371.5,1370,1368.5,1367,1364,1362.5,1361.5,1358.5,1353.5,1349,1344.5,1341.5,1338.5,1334.5
731,733.5,736.5,739,741.5,744.5,747.5,750,752,754.5,756.5,758,760,762,764.5,767.5,770,772.5,775.5,778.5,780,781.5,783.5,785,787,789.5,793,795,797.5,800.5,802.5,805,807.5,809,811.5,812.5,813.5,815.5,817.5,820.5,824.5,828.5,833.5,838,842.5,847,850.5,853,856,859,861,864,866.5,870,872.5,876.5,880.5,884.5,888,891.5,895,897.5,901.5,905,909,913.5,917.5,921,926,931,934.5,938,941.5,944,946.5,949.5,953.5,956.5,960,963.5,968.5,972,976.5,981.5,984.5,986.5,989,991.5,994.5,998,1001.5,1004.5,1008,1012,1019,1025,1031,1037,1042,1046.5,1051,1056,1062,1068,1074,1078.5,1083,1088,1093,1099,1104,1111,1117,1123,1130,1135,1141.5,1147,1150,1154.5,1160,1162,1165,1169.5,1175.5,1179,1184,1191.5,1198,1204,1212.5,1221,1225.5,1233.5,1236.5,1244,1251,1255.5,1262,1268.5,1275,1281.5,1287,1293.5,1299,1306,1311.5,1317.5,1322.5,1327,1334.5,1342,1349,1359,1368,1378,1388.5,1399.5,1411,1420.5,1430,1440.5,1449,1457.5,1468,1476.5,1487.5,1496.5,1509,1521,1528,1538,1545,1557,1569,1579,1591,1604,1618.5,1631,1642.5,1653.5,1666.5,1676,1685,1694.5,1706,1723,1737,1752.5,1765,1780,1796,1809,1819.5,1836,1843.5,1857.5,1871.5,1883,1898,1909.5,1921,1936.5,1949,1961.5,1977,1986.5,1996,2002.5,2009.5,2015.5,2022.5,2022.5,2029,2029,2029,2029,2025.5,2025.5,2025.5,2022,2022,2025.5,2022.5,2022.5,2022.5,2022.5,2022.5,2026,2022.5,2022.5,2025.5,2022,2019,2019,2019,2015.5,2019,2019,2019,2015.5,2022.5,2019,2019,2022,2019,2022.5,2022.5,2015.5,2015.5,2015.5,2012,2009,2006,2002.5,1999.5,1996,1989.5,1989.5,1986.5,1986.5,1983,1983,1983,1986.5,1986.5,1989.5,1989.5,1993,1993,1993,1996.5,1996.5,1999.5,2003,2003,2006.5,2006.5,2006.5,2010,2013,2009.5,2009,2009.5,2009,2005.5,2002.5,1999,1999,1993,1993,1996,1996,1996,1999,1999,2002.5,2002.5,2009,2009,2012,2015.5,2019,2019,2022.5,2025.5,2025.5,2025.5,2022,2025.5,2025.5,2029,2029,2032.5,2032.5,2032.5,2036,2039,2042.5,2042.5,2046,2049.5,2052.5,2052.5,2052.5,2052.5,2049,2049,2043,2036,2029.5,2022.5,2012.5,2006,2000,1996.5,1993,1993,1996.5,1999.5,2002.5,2002.5,2002.5,2006,2006,2003,2003,2000,1993.5,1987,1984,1974.5,1965,1949,1939.5,1927.5,1912.5,1895,1883,1871.5,1863,1849.5,1838.5,1827.5,1822,1819,1811.5,1806,1808.5,1803.5,1800.5,1798,1795.5,1790,1787.5,1785,1782.5,1785,1782.5,1782.5,1780,1780,1780,1777,1777,1774.5,1769.5,1767.5,1765,1765,1760,1760,1755,1750,1745,1740.5,1735.5,1727.5,1720.5,1716,1708.5,1701.5,1694.5,1689.5,1680,1678,1671,1669,1664.5,1662,1655.5,1653,1651,1648.5,1648.5,1644.5,1638,1633.5,1633.5,1631.5,1629.5,1627,1627,1623,1623,1618.5,1614.5,1612,1606,1599.5,1593.5,1587,1577,1573,1565,1559,1557,1551,1549.5,1547.5,1545.5,1543.5,1541.5,1538,1538,1534,1536,1535.5,1533.5,1530,1528,1526,1522.5,1517,1515,1509,1506,1504,1500,1498,1496.5,1495,1491,1489,1483.5,1480.5,1475,1473,1468,1464.5,1461,1457.5,1452.5,1449,1444,1440.5,1439,1435.5,1434,1430.5,1430.5,1428.5,1427,1425.5,1425.5,1423.5,1425.5,1425,1425,1423.5,1425,1423.5,1422,1420.5,1417.5,1412.5,1406,1403,1398,1395,1390,1385.5,1382.5,1381,1379,1379,1374.5,1373,1370,1368.5,1365.5,1361,1359,1353.5,1349,1346,1343.5,1340.5
733,735.5,738,741,742.5,746,749,751,754,755.5,757,758.5,760.5,763.5,765.5,768.5,771,773,775.5,778.5,780,782,784.5,786,787.5,791,794,796.5,799,801,803.5,806,808,810,812.5,813,814,816.5,819,822.5,826,831,835,840,844.5,849.5,853,855,858.5,860.5,863.5,866,869.5,872,875.5,878,882,886,889.5,892.5,895.5,899,902.5,906,909.5,913.5,917.5,921.5,927.5,932,936,939.5,943,945,948,951.5,954.5,957.5,962.5,965.5,969.5,974.5,979,983.5,986.5,988.5,991.5,994.5,998,1002,1006.5,1009,1013,1017,1022,1027,1032.5,1038,1043,1048,1052.5,1058,1063.5,1069,1074,1080.5,1085,1090,1095,1101,1106,1113,1120,1126,1132,1138.5,1144.5,1151,1154.5,1158.5,1163,1166,1170,1172,1177.5,1182,1188.5,1194.5,1202,1208.5,1217,1224.5,1229.5,1236.5,1243,1249.5,1254.5,1260.5,1267.5,1274,1280,1287,1292,1299,1304.5,1310,1316,1322.5,1328.5,1334.5,1340.5,1346.5,1354.5,1362,1372,1384,1394.5,1404.5,1412.5,1424,1432,1442.5,1452.5,1462.5,1471.5,1480,1491,1502,1513,1522.5,1532,1539.5,1551,1563,1571,1583,1595.5,1610,1623,1635.5,1649,1660,1669,1680.5,1689.5,1701,1715.5,1727.5,1747.5,1760,1775,1788,1803.5,1816.5,1830,1838.5,1852,1863.5,1877.5,1895,1907,1918,1930.5,1942.5,1955,1970.5,1983,1990,2002.5,2009.5,2015.5,2022.5,2025.5,2029,2032.5,2032.5,2032.5,2032.5,2032.5,2036,2036,2032.5,2032.5,2032.5,2029,2029,2032,2032,2026,2029,2029,2029,2025.5,2029,2025.5,2025.5,2022.5,2022.5,2019,2019,2019,2022.5,2022.5,2019,2019,2022,2022,2022.5,2022.5,2019,2015.5,2015.5,2012,2012,2009,2005.5,1999.5,1999.5,1996,1989.5,1989.5,1986.5,1986.5,1983,1983,1986.5,1986.5,1989.5,1986.5,1990,1993,1993,1996.5,1993.5,1996.5,1996.5,1997,2000,2000,2003.5,2000,2003,2006.5,2000,2002.5,2002.5,1999.5,1996,1993,1993,1989.5,1989.5,1989.5,1989.5,1993,1996,1999,2002.5,2002.5,2005.5,2012.5,2015.5,2015.5,2022.5,2022.5,2026,2022.5,2025.5,2025.5,2029,2029,2029,2032.5,2029,2029,2032.5,2032.5,2036,2042.5,2042.5,2049.5,2049.5,2052.5,2056,2056,2059.5,2059.5,2052.5,2052.5,2046,2039.5,2029,2026,2019,2009,2003,1996.5,1996.5,1996.5,1996,1999,1999,1999,2006,2006,2006,2006,2003,2003,1996.5,1990,1990,1980.5,1974,1964.5,1952,1942.5,1927.5,1915,1898,1892,1880,1869,1857.5,1849.5,1841,1833,1830,1824.5,1819.5,1814,1808.5,1806,1803.5,1798,1792.5,1790,1787.5,1785,1782.5,1782.5,1785,1782.5,1782.5,1780,1783,1780,1777.5,1775,1773,1770.5,1768,1765,1762.5,1760,1755,1750,1742.5,1738,1730,1723,1718,1711,1703.5,1699,1692,1687.5,1683,1675.5,1673.5,1666.5,1664,1660,1657.5,1653.5,1653.5,1651,1646.5,1642.5,1638,1638,1636,1633.5,1633.5,1631.5,1629.5,1625,1625,1618.5,1612,1606,1599.5,1591.5,1583,1575,1571,1565,1559,1557,1553,1553,1551.5,1549.5,1547.5,1547.5,1547.5,1547.5,1545.5,1545.5,1541.5,1539.5,1538,1532,1526,1522.5,1520.5,1515,1513,1509,1506,1506,1502,1498,1495,1491,1487,1484,1480,1477,1471.5,1466,1463,1459,1454,1450.5,1447,1444,1440.5,1439,1435.5,1432,1430.5,1428.5,1428.5,1427,1427,1428.5,1428.5,1430.5,1430.5,1430.5,1430.5,1430.5,1427,1427,1423.5,1419,1414,1410.5,1406,1403,1399.5,1395,1391.5,1390,1388.5,1385.5,1381,1379.5,1376,1373,1370,1365.5,1363.5,1357.5,1354.5,1350.5,1347.5,1345
735,738,740,742,744.5,748,750,752.5,754.5,756.5,757.5,759.5,761.5,764.5,766.5,769.5,772,774,776.5,779.5,781,783.5,785.5,787,790,792,795.5,798.5,800,802.5,804.5,807.5,809,810.5,813,814,815,817,820.5,824,827,832.5,836.5,842,846.5,851,855,857.5,860.5,863,866,868.5,872,875.5,878.5,881,885,888.5,891,894,897.5,900.5,903,907,911,915,920,924.5,928.5,934,937.5,941.5,945,947.5,950.5,954,957.5,960.5,964.5,968.5,972,977.5,982.5,985.5,989,992.5,994.5,998,1001.5,1005.5,1010.5,1014,1019,1022,1027,1031,1036,1041,1045,1049,1053.5,1058,1064.5,1070,1076.5,1081,1087,1092,1097,1103,1108,1114,1121,1128,1136,1142.5,1149,1155.5,1157.5,1162,1165,1169,1172,1176.5,1181,1186.5,1192.5,1198,1206.5,1213.5,1221,1228,1235.5,1240.5,1247,1253,1260.5,1267.5,1272.5,1279,1286,1292.5,1299.5,1306,1310,1316,1320,1325.5,1333,1339,1345,1351.5,1359,1368,1378,1388.5,1398,1407.5,1415.5,1425.5,1433.5,1444,1454,1464.5,1473,1485.5,1494.5,1507.5,1518.5,1530,1537.5,1545.5,1553,1565,1577,1589,1599.5,1612.5,1624.5,1638,1653.5,1664.5,1673.5,1685,1696,1708.5,1720,1737.5,1752.5,1767,1785.5,1795.5,1814,1824.5,1835.5,1849,1857.5,1871.5,1886,1895,1912,1924,1939.5,1952,1961.5,1977,1986.5,1996,2009.5,2009.5,2015.5,2022.5,2029,2032.5,2036,2036,2036,2039.5,2039.5,2039.5,2039.5,2039,2039,2035.5,2035.5,2039,2035.5,2035.5,2035.5,2032,2035.5,2035.5,2032.5,2032.5,2029,2029,2029,2029,2026,2026,2026,2026,2022.5,2025.5,2025.5,2025.5,2025.5,2022.5,2022.5,2022.5,2019,2019,2015.5,2015.5,2012.5,2009,2005.5,2005.5,1999.5,1996,1996,1993,1990,1986.5,1986.5,1990,1986.5,1989.5,1989.5,1993,1993,1993,1993.5,1993.5,1993.5,1993.5,1994,1997,1997,1994,1994,1993.5,1996.5,983.5,1996.5,1993,1989.5,1986.5,1989.5,1989.5,1989.5,1986,1989.5,1989.5,1993,1996,1999,2002.5,2002.5,2012.5,2015.5,2019,2022.5,2026,2026,2029,2032.5,2032.5,2032.5,2032.5,2032.5,2032.5,2032.5,2032.5,2036,2036,2036,2039.5,2046,2049.5,2052.5,2052.5,2059.5,2063,2063,2063,2063,2059.5,2056,2049.5,2042.5,2032.5,2025.5,2022.5,2012.5,2006,2002.5,2002.5,1999,1999,2002.5,2002.5,2005.5,2009,2009,2009,2009.5,2006,2006,2003,2000,1993,1989.5,1986.5,1977,1967.5,1958,1949,1937,1924,1915,1906.5,1892,1883,1871.5,1863.5,1854.5,1846.5,1841,1830,1825,1822,1816.5,1808.5,1801,1795,1792.5,1790,1790,1787.5,1787.5,1785,1785,1785,1785.5,1785.5,1783,1780,1777.5,1775,1775,1773,1770.5,1767.5,1762.5,1757.5,1757.5,1750,1742.5,1737,1732.5,1725.5,1720.5,1715.5,1708,1701.5,1696.5,1692,1687,1682.5,1676,1671.5,1666.5,1664.5,1664.5,1660,1657.5,1655.5,1649,1646.5,1646.5,1644.5,1642.5,1642.5,1640,1640,1633.5,1629.5,1625,1621,1612,1606,1597.5,1589.5,1581,1575,1567,1565,1561,1559,1557,1555,1555,1555,1553.5,1553.5,1553.5,1555,1553,1551,1547,1545,1540,1534,1530,1528,1522.5,1521,1517,1513,1509,1509,1506,1502,1496.5,1493,1487,1484,1480,1475,1470,1466,1463,1457.5,1452.5,1449,1444,1440.5,1439,1435.5,1433.5,1432,1432,1432,1430,1430,1432,1434,1434,1435.5,1435.5,1435.5,1434,1434,1432,1428.5,1424,1420.5,1417,1412.5,1409,1406,1401.5,1398,1396.5,1395,1390,1387,1384,1381,1376.5,1376.5,1373.5,1366.5,1363.5,1359,1356,1351.5,1349
737,739.5,742,744,746.5,749,751.5,753,755.5,757,758.5,760.5,762.5,765,767.5,770,772.5,775.5,777.5,780,782.5,784,786.5,788.5,791,793.5,796.5,799.5,801.5,803.5,806.5,808.5,810.5,813,814,815,816,818.5,821,824.5,828.5,833,837,842.5,847,853,856,859.5,862,864,868,871,874,877,881,883.5,886,889,892.5,896,899,902.5,906,908.5,912.5,916.5,920.5,926,930.5,934.5,939.5,943,945.5,949.5,952.5,957,960,963,967.5,970.5,975,980,984.5,989,992.5,995.5,998,1002,1005.5,1010.5,1015.5,1019,1023,1027,1031,1035,1038,1043,1047,1051,1055,1061,1065,1072,1077.5,1084,1088,1094,1098,1104,1109,1115,1121,1130,1137,1143.5,1151,1156.5,1161,1164,1169,1172,1175,1180.5,1185.5,1191,1198.5,1204,1212.5,1219.5,1227,1232,1239,1245.5,1251,1258.5,1264.5,1271,1278,1286,1292.5,1299.5,1306,1313,1316,1320,1327,1333,1339,1345,1350,1356,1363.5,1372,1381,1391.5,1401.5,1409,1417.5,1425.5,1435,1444,1454,1464.5,1475,1487.5,1500,1513.5,1522.5,1533.5,1541.5,1549.5,1559,1571,1581,1593.5,1603.5,1616.5,1629,1642,1658,1671,1682.5,1692,1701,1713,1727.5,1742,1759.5,1772,1788,1806,1819.5,1833,1844,1857.5,1866,1880,1892,1909.5,1924,1936.5,1949,1961.5,1967.5,1983,1990,2002.5,2006,2012.5,2015.5,2022.5,2029,2032.5,2036,2039.5,2039.5,2039.5,2042.5,2042.5,2046,2046,2042.5,2039,2042.5,2042.5,2042.5,2042.5,2042.5,2039,2039,2039,2039,2039,2036,2036,2036,2032.5,2032.5,2029,2029,2029,2029,2029,2029,2029,2025.5,2029,2026,2022.5,2022.5,2022.5,2022.5,2019,2019,2015.5,2012.5,2009,2009,2002.5,2002.5,1999,1999,1996,1993,1993,1993,1993,1989.5,1993,1993,1996.5,1996.5,1996.5,1993.5,1993.5,1994,1994,1997.5,1994,1987.5,1990.5,1990.5,1990.5,1993,1990,1986.5,1986.5,1986.5,1986.5,1986.5,1989.5,1993,1993,1993,1999,1999,2002.5,2009,2015.5,2019,2026,2032,2032,2035.5,2035.5,2035.5,2039,2035.5,2036,2036,2032.5,2032.5,2032.5,2039.5,2039.5,2043,2043,2049,2052.5,2056,2063,2063,2066.5,2070,2073,2069.5,2063,2059.5,2053,2046,2036,2029,2019,2015.5,2009.5,2002.5,2002.5,2002.5,2002.5,1999.5,2002.5,2002.5,2009,2009,2012.5,2009,2006,2009.5,2006,2006,1999.5,1999.5,1996,1993,1983.5,1980,1967,1958,1946,1939.5,1927.5,1915.5,1906.5,1895,1886.5,1877.5,1863,1858,1843.5,1838,1830,1822,1814,1806,1798,1795.5,1790,1790,1787.5,1787.5,1787.5,1787.5,1787.5,1788,1788,1785.5,1783,1780,1780,1777.5,1775,1775,1773,1767.5,1762.5,1760,1752.5,1750,1745,1737,1732,1728,1723,1720.5,1713,1706,1701,1696,1691.5,1687.5,1682.5,1675.5,1671.5,1671.5,1669,1667,1662.5,1660,1655.5,1655.5,1655.5,1651,1651,1651,1646.5,1642.5,1638,1635.5,1629.5,1621,1610,1604,1593.5,1585,1579,1571,1567,1565,1561,1561,1559,1561,1559,1561,1561,1559,1561,1561,1559,1553,1551,1545,1540,1536,1530,1528,1526,1521,1517,1515,1511,1511,1504,1500,1495,1491,1487,1484,1478.5,1473,1468,1464.5,1457.5,1454,1450.5,1445.5,1440.5,1439,1437,1435.5,1433.5,1432,1432,1432,1432,1435.5,1437,1440.5,1440.5,1440.5,1440.5,1439,1439,1437.5,1433.5,1427,1424,1420.5,1417,1412.5,1411,1406,1404.5,1401.5,1398,1396.5,1393,1390,1385.5,1382.5,1379.5,1376.5,1373.5,1368,1363.5,1360.5,1356,1353
739,741,743.5,745.5,748,750,752.5,754,756,757,758.5,761,763.5,766,768,770.5,773.5,775.5,778.5,780.5,783,785.5,788,790,793,795.5,798.5,801.5,803.5,805.5,808,810.5,812.5,814.5,816,816.5,818,820,823,827,830.5,835,839,844,849,854,857.5,860.5,863,866.5,869,873,876,879.5,882.5,885.5,887.5,890.5,893.5,897,900,903,906.5,909,913,918.5,922.5,927,931.5,937,940.5,945,948,951,955.5,958.5,963,966,970.5,974,977,982,987,991,995,998,1001,1005.5,1010,1014,1019,1023,1027,1031,1033,1037,1040,1044,1048,1052,1057,1062,1067,1073,1079,1085,1090,1095,1100,1106,1110,1116,1123,1130,1138,1146,1152,1159.5,1163,1168.5,1172,1176,1180,1185.5,1191.5,1196,1202.5,1208.5,1216,1223,1230.5,1236.5,1244.5,1250.5,1255.5,1263,1271.5,1276.5,1284.5,1289.5,1296.5,1303,1310,1317.5,1322.5,1327,1333,1339,1345,1349,1356,1362,1368,1376.5,1385.5,1393,1401.5,1407.5,1415.5,1423.5,1433.5,1442.5,1452.5,1464.5,1477,1491,1502,1515,1528.5,1539.5,1547.5,1555,1565,1573,1585,1597.5,1610,1623,1636,1648.5,1662,1678,1687.5,1696,1708.5,1717.5,1735,1747,1762,1777.5,1795.5,1808.5,1825,1838,1849,1857.5,1869,1886,1898,1915,1930.5,1946,1958,1967.5,1976.5,1990,1996,993,2006,2009.5,2015.5,2022.5,2025.5,2029,2032.5,2032.5,2036,2039.5,2039.5,2042.5,2046,2046,2042.5,2046,2042.5,2042.5,2042.5,2042.5,2042.5,2042.5,2046,2046,2042.5,2042.5,2039,2039,2039,2039.5,2039.5,2039.5,2039.5,2036,2036,2036,2032.5,2032.5,2029,2029,2029,2026,2026,2029,2025.5,2025.5,2022.5,2019,2019,2016,2016,2012.5,2009,2006,2006,1999,1999,1999,1996,1996,1996.5,1996.5,2000,1996.5,1999.5,1996.5,2000,1997,1994,1994,1994,1994,1991,1990.5,1990.5,1990.5,1990,1989.5,1986.5,1986.5,1983.5,1989.5,1989.5,1989.5,1989.5,1996,1996,1999,2002.5,2006,2009,2019,2026,2032,2035.5,2039,2042.5,2046,2046,2046,2042.5,2039,2036,2036,2036,2036,2039.5,2039.5,2043,2046,2049,2056,2063,2066.5,2066.5,2070,2073,2076.5,2069.5,2066,2060,2056.5,2046,2039,2032.5,2022,2016,2009,2002.5,2002.5,1999.5,2002.5,2002.5,2006,2006,2009,2012,2012,2009,2012.5,2009,2012.5,2012.5,2009.5,2006,2006,2002.5,1999.5,1996,1986,1973.5,1967.5,1961.5,1952,1936.5,1927.5,1919,1906.5,1900.5,1886.5,1874.5,1863,1849,1841,1830,1819.5,1814,1803.5,1800.5,1795.5,1793,1793,1793,1793,1793,1793,1795.5,1795.5,1795.5,1790.5,1790.5,1788,1785.5,1780,1780,1777.5,1772,1767.5,1765,1757.5,1752.5,1747.5,1744.5,1737,1732.5,1727.5,1725,1718,1715.5,1708.5,1703.5,1701,1694,1691.5,1685,1682.5,1682.5,1678,1675.5,1673.5,1671,1667,1667,1665,1662.5,1660,1660,1655.5,1651,1644.5,1642.5,1633.5,1627.5,1616.5,1610,1599.5,1589.5,1583,1575,1573,1569,1569,1563,1563,1565,1565,1567,1567,1567,1567,1565,1567,1563,1555,1553,1545,1541.5,1536,1532,1530,1524.5,1522.5,1519,1517,1513,1509.5,1504,1500,1495,1489,1485.5,1478.5,1475,1470,1466,1459,1456,1450.5,1445.5,1444,1440.5,1440.5,1439,1437.5,1437,1439,1437,1439,1442,1444,1445.5,1445.5,1447,1449,1447.5,1445.5,1442,1439,1432,1429,1424,1420.5,1414,1412.5,1411,1407.5,1406,1403,1400,1394.5,1393,1390,1387,1384,1381,1376.5,1373.5,1366.5,1365,1362,1357.5
740.5,742.5,744.5,746.5,748.5,750.5,753,754.5,756.5,757.5,759.5,761.5,764,767,768.5,771.5,774.5,776.5,779.5,781.5,784,786.5,789.5,792,794,797,800,803,804.5,807,809.5,811,814,815.5,817,818,819.5,822,825.5,830,833.5,837,841.5,846,850.5,854.5,858,861.5,864,867.5,871,873.5,877,881,884,886.5,889.5,891.5,895.5,898.5,902,905.5,908,911.5,915,920,924.5,929,934,938,943,946.5,949.5,952.5,957,961,965,969,973,977,981,985,989,993,997,1000.5,1005.5,1008,1013,1018,1022,1026,1031,1032.5,1036,1039,1042,1046,1048,1053,1058,1063,1067,1074,1080,1086,1092,1097,1102,1107,1113,1118,1125,1132,1139,1149,1155.5,1163,1165.5,1171,1176,1180,1184,1190,1195.5,1201.5,1208.5,1214.5,1220.5,1228,1234.5,1241.5,1246.5,1254.5,1259.5,1267,1275,1282,1287,1295,1301.5,1307.5,1314.5,1324,1328.5,1331.5,1337.5,1343.5,1349,1354.5,1363.5,1368,1375,1381,1390,1398,1404.5,1409,1416,1422,1432,1442.5,1454,1468,1480.5,1495,1508,1522.5,1534,1545.5,1553.5,1561,1571,1579,1591.5,1602,1616.5,1629.5,1642.5,1655.5,1669,1682.5,1691.5,1701,1713,1722.5,1740,1754,1767,1782.5,1795.5,1814,1825,1841,1852,1863.5,1871.5,1892,1907,1921,1940,1952,1967.5,1976.5,1986.5,1996,1999,2006,2012.5,2012.5,2015.5,2022.5,2025.5,2025.5,2025.5,2029,2032.5,2036,2036,2039.5,2042.5,2042.5,2042.5,2042.5,2039,2046,2046,2046,2042.5,2046,2046,2046,2046,2046,2042.5,2042.5,2039,2039,2039,2039.5,2039.5,2036,2036,2039,2035.5,2035.5,2035.5,2032,2032,2026,2029,2029,2029,2029,2025.5,2025.5,2025.5,2022,2022,2019,2016,2012.5,2012.5,2006,2006,2006,2002.5,2002.5,2002.5,2003,2003,2003,1999.5,2003,2000,1997,2000.5,1997.5,1994,1994,1994,1994,1990.5,1990.5,1993.5,1990,1989.5,1990,1990,1990,1993,1993,1996,1999.5,1999.5,2002.5,2005.5,2009,2012,2026,2026,2035.5,2042.5,2042.5,2046,2046,2049.5,2046,2046,2042.5,2042.5,2042.5,2042.5,2042.5,2042.5,2042.5,2046,2046,2052.5,2059.5,2066.5,2070,2070,2073,2076.5,2076.5,2073,2069.5,2060,2053,2046,2035.5,2029,2025.5,2016,2012.5,2005.5,2002.5,2002.5,1999,2002.5,2002.5,2005.5,2005.5,2009,2009,2012,2012,2012.5,2012.5,2016,2016,2012.5,2012.5,2009,2009,2002.5,1999.5,1989.5,1983,1977,1971,1958.5,1952,1942.5,1931,1919,1906.5,1892,1883.5,1866,1855,1843.5,1830,1819.5,1811.5,1806,1803,1798,1798,1798,1798,1800.5,1800.5,1803,1803,1800.5,1800.5,1798,1793,1790.5,1788,1788,1783,1777,1769.5,1764.5,1759.5,1757.5,1750,1744.5,1739.5,1735,1730,1727.5,1722.5,1720,1715.5,1713,1706,1701,1696.5,1694,1691.5,1689.5,1687,1684.5,1682.5,1680,1678,1676,1673.5,1671,1669,1669,1665,1660,1653,1647,1640,1633.5,1625.5,1614,1606,1597.5,1591.5,1585,1579,1577,1575,1573,1573,1573,1575,1577,1575,1577,1575,1575,1573,1569,1563,1557,1549,1543,1540,1538,1532,1528,1526,1524.5,1520.5,1517,1511.5,1507.5,1502,1498.5,1493,1489,1482,1478.5,1471.5,1466,1461,1457.5,1450.5,1447.5,1445.5,1444,1442.5,1442,1440.5,1442,1442,1442,1445.5,1447,1449,1452.5,1452.5,1452.5,1454.5,1452.5,1451,1447,1444,1439,1434,1429,1425.5,1420.5,1418.5,1414,1412.5,1410.5,1407.5,1403,1400,1396,1394.5,1390,1387,1384,1379.5,1376.5,1370,1368,1363.5,1360.5
741.5,744,745.5,747.5,749,751,753.5,755,756.5,757.5,759.5,762,764.5,767.5,770,773,775.5,778,780,782.5,785,788,790,793,795.5,798,801.5,804,806,808,810.5,812,815,817.5,819,820.5,821.5,825.5,829.5,832.5,836.5,840,843.5,847,851.5,856,858.5,862.5,864.5,868,872,874.5,878.5,882,885.5,888,890.5,893,897,900.5,904,907,911,914,918,922,926,930,934.5,938.5,943,946.5,950.5,953,958,961.5,966,970.5,974,979,983,987.5,992.5,995.5,1000.5,1004.5,1008,1012,1016,1021,1025.5,1029,1032.5,1036,1037.5,1039,1043,1045,1049,1054,1058,1064,1068,1074,1079,1086,1092,1097,1102,1108,1114,1119,1126,1134,1143,1151,1158.5,1165.5,1169.5,1174,1179.5,1185.5,1190,1194.5,1200.5,1206.5,1211,1218,1225.5,1232,1239,1245.5,1252,1258,1263,1269.5,1279,1284.5,1292.5,1299,1304.5,1311.5,1319,1327,1331.5,1337.5,1343.5,1350.5,1356,1362,1370,1375,1381,1387,1393,1400,1406,1412,1416,1425,1435.5,1445.5,1457.5,1471.5,1484,1500,1515,1530,1539.5,1551.5,1559,1567,1577,1585.5,1595.5,1606,1623,1635.5,1646.5,1660,1671.5,1685,1696.5,1706,1717.5,1730,1742.5,1757,1772.5,1787.5,1803,1816.5,1830,1844,1857.5,1868.5,1880.5,1898,1915,1930.5,1952,1964.5,1973.5,1986.5,1993,2002.5,2006,2009,2016,2012.5,2016,2019,2022,2025.5,2025.5,2029,1019.5,2029,2036,2036,2042.5,2042.5,2042.5,2042.5,2042.5,2046,2046,2046,2046,2046,2046,2046,2046,2046,2046,2046,2042.5,2042.5,2042.5,2042.5,2046,2039,2039,2042.5,2042.5,2035.5,2035.5,2035.5,2032,2032,2032,2029,2029,2032.5,2032.5,2032.5,2029,2029,2029,2022,2022,2022,2019,2016,2012.5,2012.5,2009,2009.5,2009.5,2006,2009,2012.5,2009.5,2006.5,2006.5,2003.5,2003.5,2003.5,2000.5,2000.5,1997,1997,1997,1993.5,1993.5,1996.5,1996.5,1996.5,1993,1996,1996,1999,2002.5,2002.5,2005.5,2005.5,2009,2015.5,2015.5,2026,2032,2039,2042.5,2049.5,2049.5,2053,2053,2053,2049.5,2046,2046,2042.5,2046,2046,2042.5,2046,2049.5,2049.5,2056,2063,2066.5,2070,2073,2073,2076.5,2080,2073,2069.5,2063,2053,2046,2039,2029,2022.5,2019,2012.5,2005.5,2002.5,2002.5,1999,2002.5,2002.5,2005.5,2005.5,2012.5,2012.5,2012,2012,2012,2015.5,2019,2019,2016,2012.5,2015.5,2015.5,2009,2005.5,1999,1993,1989.5,1983.5,1977,1968,1961.5,1952,1939.5,1925,1912.5,1894.5,1883.5,1868.5,1854.5,1844,1835.5,1824.5,1819,1814,1814,1811.5,1811.5,1811.5,1811.5,1811.5,1814,1814,1811.5,1809,1803,1800.5,1795.5,1793,1790.5,1785,1780,1775,1767,1759.5,1757,1749.5,1744.5,1740,1735,1730,1730,1725,1722.5,1717.5,1713,1711,1706,1703.5,1703.5,1698.5,1696.5,1694,1692,1692,1689.5,1687,1682.5,1680,1678,1678,1673.5,1671.5,1667,1662.5,1655.5,1645,1640,1631.5,1623,1614,1604,1597.5,1591.5,1587,1585,1585,1581,1581,1583,1585,1587,1585,1583,1583,1583,1579,1575,1567,1561,1553,1549,1543.5,1543.5,1536,1532,1532,1528,1524.5,1522.5,1516.5,1511.5,1507.5,1502,1498.5,1493,1485.5,1478.5,1473,1468,1461,1457.5,1452.5,1449,1447.5,1447,1445.5,1445.5,1447,1447,1447,1451,1451,1454,1456,1459,1461,1459,1461,1459.5,1458,1454,1447,1444,1439,1435.5,1429,1424,1422.5,1417,1417.5,1415.5,1410.5,1409,1404.5,1401.5,1398,1394.5,1391.5,1385.5,1382.5,1378,1375,1370,1366.5,1365
741.5,744.5,746,747,749,751,753,755,756.5,758,760,762.5,765.5,768,771,774,776.5,778.5,780,783,785.5,788.5,791.5,794,796.5,799.5,802.5,805.5,807.5,809.5,812,814.5,817.5,819,821.5,823,824,828.5,832,836,839.5,842.5,846,849,853,857,860,863,865.5,869,873,875.5,879.5,883,887,889.5,891.5,895,898.5,901.5,906,909.5,913,916,920.5,923.5,928.5,464.5,466,939.5,943,946.5,950.5,954,958.5,963,967.5,972,976,980,984.5,989,994,998,1003,1007.5,1011.5,1015.5,1020,1025,1028,1032.5,1035,1038.5,1040,1042,1045,1047.5,1051,1055,1060,1064.5,1069,1075,1080,1086,1091,1097,1101,1108,1113,1120,1128,1135,1145,1153,1162,1168.5,1173,1178.5,1184.5,1189,1194.5,1199,1206,1212.5,1217,1223,1229.5,1234.5,1240.5,1248,1253,1259,1266,1272,1280,1287,1294,1300.5,1307,1313,1321.5,1328.5,1334.5,1342,1347.5,1355,1362,1368.5,1374.5,1381,1385.5,1391.5,1398,1403,1409,1412,1417.5,1427,1435.5,1447,1461,1475,1489.5,1506,1523,1536,1547.5,1557.5,1569,1573,1585.5,1595.5,1604,1614.5,1627.5,1640.5,1653,1662.5,1675.5,1689.5,1699,1710.5,1722.5,1735,1747,1762,1775,1787.5,1809,1825,1835.5,1852,1863.5,1877.5,1883,1901,1921,1943,1958,1970.5,1983.5,1989.5,1996,2009,2012.5,2012.5,2016,2012.5,2016,2016,2019,2022,2022,2022,2025.5,2025.5,2029,2032.5,2036,2042.5,2042.5,2042.5,2046,2046,2049.5,2049.5,2046,2046,2049.5,2049.5,2046,2046,2042.5,2042.5,2042.5,2042.5,2046,2046,2046,2046,2046,2046,2042.5,2039,2039,2039,2039,2035.5,2035.5,2035.5,2035.5,2032.5,2032.5,2032.5,2032.5,2032.5,2032.5,2032.5,2029,2029,2029,2029,2025.5,2022,2022,2016,2019,2015.5,2019,2016,2012.5,2016,2013,2010,2010,2003.5,2003.5,2003.5,2000.5,1997,1997,1996.5,1999.5,2003,2003,2003,2003,2003,2006,2006,2012.5,2009,2009,2012.5,2012.5,2015.5,2022.5,2029,2035.5,2042.5,2046,2049.5,2053,2053,2056,2053,2053,2049.5,2046,2046,2046,2046,2046,2046,2046,2053,2056,2059.5,2066.5,2070,2073,2076.5,2076.5,2080,2073,2066,2060,2053,2046,2039,2029,2022.5,2015.5,2012.5,2005.5,2002.5,2002.5,2002.5,2002.5,2005.5,2005.5,2009,2012.5,2012.5,2015.5,2015.5,2012,2015.5,2019,2019,2019,2015.5,2019,2015.5,2012.5,2012.5,2009.5,2002.5,1996.5,1993,1986.5,1983.5,1974,1965,1955,1939.5,1928,1912.5,1897.5,1886,1877.5,1860,1846.5,1838.5,1832.5,1825,1827.5,1825,1822,1822,1822,1822,1819,1819,1816.5,1814,1809,1809,1803,1798,1795.5,1790,1785,1777.5,1767.5,1759,1754,1749,1745,1740,1735,1730,1727.5,1722.5,1722.5,1717.5,1717.5,1713,1711,1711,1706,1703.5,1703.5,1701,1699,1701.5,1699,1694.5,1692,1689.5,1685,1682.5,1680.5,1675.5,1671.5,1667,1660.5,1653.5,1645,1638,1631.5,1623,1614.5,1608,1601.5,1599.5,1595.5,1595.5,1593,1591,1593,1595.5,1595.5,1595.5,1593.5,1591.5,1589.5,1585,1581,1573,1567,1559,1551,1551,1545.5,1541.5,1537.5,1536,1534,1530,1526.5,1522.5,1518.5,1515,1509.5,1502,1498.5,1489,1483.5,1477,1471.5,1466,1459,1456,1454,1450.5,1451,1452.5,1451,1451,1454,1455.5,1457.5,1461,1463,1464.5,1466,1468,1470,1468,1466.5,1462.5,1459.5,1454,1449,1442,1439,1433.5,1428.5,1424,1422,1422,1419,1416,1410.5,1407.5,1404.5,1401.5,1396.5,1393,1388.5,1385.5,1381,1378,1373.5,1371.5,1367
743,745,746,747,749,751,753.5,756,757.5,758.5,760.5,763,766,769,772,775,778,780,781.5,783.5,787,790.5,793,795,797.5,801,804,806.5,809,811,813.5,816.5,819,821,823,825,828,831.5,835,839,842,844.5,848.5,850.5,854,858,861,863.5,867,870,874,877.5,881,884,888,890.5,894,896,900,904.5,908.5,912.5,915.5,919,922.5,926,929.5,465,466.5,940,944.5,948,951,954.5,959.5,964.5,968.5,972.5,977,982,986,991,996.5,1001.5,1005.5,1009.5,1014,1018,1022,1026,1030,1033.5,1036.5,1038.5,1042,1044,1045.5,1049,1052.5,1058,1062,1066,1070,1074.5,538.5,541,1091,1096,1101,1108,1114,1120,1128,1137,1146,1155.5,1164,1171,1176,1183,1188,1193,1198,1205,1210,1216,1222,1227,1232,1238,1243,1249.5,1255.5,1262,1267.5,1275,1282,1288.5,1296.5,1303.5,1310,1316,1325.5,1333,1337.5,1344.5,1350.5,1357.5,1365.5,1371.5,1379.5,1385.5,1390,1394.5,1401.5,1404.5,1410.5,1414,1419,1425.5,1438.5,1451,1464.5,1480.5,1494.5,1513,1528,1543.5,1553.5,1563,1571,1579.5,1589.5,1602,1612,1621,1633.5,1644.5,1657.5,1667,1680.5,1692,1699,1713,1725,1735,1749,1762,1777.5,1795.5,1811.5,1827.5,1841,1854.5,1866,1877.5,1892,1909.5,1930.5,1949,1964.5,1976.5,1986.5,1999.5,2005.5,2009,2015.5,2015.5,2015.5,2015.5,2015.5,2016,2016,2019,2019,2022,2022,2022,2025.5,2029,2032.5,2036,2039,2039,2042.5,2042.5,2049.5,2049.5,2046,2046,2049.5,2049.5,2046,2046,2046,2046,2046,2046,2046,2049.5,2049.5,2049.5,2049.5,2049.5,2046,2042.5,2042.5,2042.5,2039,2039,2039,2039,2035.5,2035.5,2039,2039,2039,2039,2039,2039,2039,2039,2039,2039,2039,2035.5,2032.5,2032.5,2029,2025.5,2025.5,2026,2022.5,2019.5,2019.5,2016.5,2016.5,2013.5,2013.5,2006.5,2006.5,2006.5,2003,2003,2006.5,2009.5,2009.5,2012.5,2012.5,2012.5,2012.5,2015.5,2019,2016,2016,2016,2019,2022.5,2029,2032,2039,2046,2049.5,2053,2059.5,2059.5,2059.5,2059.5,2059.5,2053,2053,2049.5,2049.5,2049.5,2049.5,2049.5,2046,2053,2056.5,2063,2066,2069.5,2073,2073,2073,2076.5,2069.5,2066.5,2056.5,2049.5,2042.5,2035.5,2029,2022.5,2015.5,2012.5,2009,2009,2002.5,2006,2006,2005.5,2009,2012.5,2012.5,2012.5,2012.5,2015.5,2019,2019,2022.5,2022.5,2022.5,2022.5,2019,2019,2019,2016,2012.5,2006,2006,2000,1996.5,1989.5,1986.5,1980.5,1971,1958.5,1945.5,1933.5,1915.5,1903.5,1889,1877,1866,1854.5,1846.5,1841,1838,1835.5,1833,1830.5,1830.5,1830.5,1830.5,1824.5,1822,1822,1816.5,1814,1809,1806,1800.5,1792.5,1787.5,1777.5,1770,1762,1754,1747,1740,1735,1730,1727.5,1725,1720,1720,1717.5,1715,1713,1711,1711,1711,1708.5,1708.5,1708.5,1708.5,1706,1705.5,1703.5,1701.5,1697,1694.5,1689.5,1685,1682.5,1678,1671.5,1667,1660.5,1651,1644.5,1638,1631.5,1625,1616.5,1610.5,1608,1606,1604,1604,1604,1606,1604,1606,1603.5,1601.5,1599.5,1597.5,1593.5,1585,1579,1571,1565,1559,1555,1549,1547.5,1541.5,1539.5,1537.5,1535.5,1530,1528.5,1524.5,1518.5,1515,1509.5,1502,1496.5,1489,1484,1477,1471.5,1464.5,1463,1459,1457.5,1457.5,1457.5,1459.5,1459.5,1461,1462.5,1466.5,1468,1471.5,1473,1473,1475,1475,1473,1471.5,1468,1462.5,1459.5,1454.5,1449,1443.5,1439,1434,1428.5,1425.5,1425.5,1423.5,1419,1416,1410.5,1407.5,1404.5,1399.5,1394.5,1391.5,1388.5,1384,1381,1378,1375,1371.5
743,745,746.5,747.5,749,751,754,756,757.5,759.5,761.5,764,766.5,770.5,773.5,776.5,778.5,781,782.5,785,788.5,791.5,794,796.5,799.5,802.5,805,808,810.5,813,816,818,820,822.5,824.5,828,830,833,837.5,840.5,843.5,846.5,849.5,852,855,858.5,861.5,865,868,872.5,875,878.5,882.5,886,889.5,891.5,895,898.5,902.5,907,911,916,919,922,925.5,929,932.5,466,467,941.5,944.5,949,952,956.5,960.5,965.5,969.5,974.5,979,984,987.5,993.5,998,1003,1008,1012.5,1016.5,1021.5,1024,1027,1031,1035,1038.5,1040,1043,1046.5,1048.5,1050,1054.5,1060,1063,1067,1071,1075.5,1080.5,540,1090,1096,1101,1106,1114,1120,1130,1137,1147,1156.5,1164,1173,1180,1187,1192,1197,1204,1210,1216,1220.5,1225.5,1230.5,1235.5,1239,1244,1252,1257,1264.5,1270,1276.5,1284.5,1291,1299.5,1306,1313,1318.5,1327,1334.5,1340,1346,1355,1362.5,1368.5,1376,1384,1388.5,1393.5,1398,1403,1407.5,1410.5,1414,1419,1430.5,1444,1456,1469.5,1485.5,1502,1519,1536,1549.5,1559.5,1569,1577.5,1585.5,1593.5,1604,1616.5,1625.5,1638,1651,1662.5,1671,1682.5,1694.5,1701.5,1713,1727.5,1737.5,1751.5,1767.5,1780,1798,1816.5,1830,1844,1860.5,1868.5,1883,1892,1912,1933.5,1949,1967.5,1983.5,1992.5,1999,2005.5,2009,2012,2015.5,2019,2015.5,2015.5,2012.5,2015.5,2019,2019,2019,2022.5,2022.5,2025.5,2029,2029,2032.5,2035.5,2039,2042.5,2042.5,2049.5,2049.5,2046,2049.5,2049.5,2046,2049.5,2049.5,2046,2046,2046,2049.5,2049.5,2053,2053,2053,2053,2049.5,2049.5,2049.5,2049.5,2042.5,2042.5,2039,2039,2039,2042.5,2042.5,2042.5,2042.5,2042.5,2046,2046,2046,2046,2049.5,2049.5,2053,2049.5,2049.5,2042.5,2042.5,2039,2036,2036,2032.5,2029,2026,2022.5,2023,2019.5,2016.5,2013,2013,2010,2010,2006.5,2006.5,2009.5,2009.5,2012.5,2009,2012.5,2012.5,2015.5,2019,2019,2019,2016,2019,2019,2022.5,2029,2035.5,2039,2046,2053,2053,2059.5,2063,2063,2063,2059.5,2056.5,2053,2053,2049.5,2049.5,2049.5,2046,2046,2049.5,2056.5,2060,2063,2066,2066,2069.5,2073,2069.5,2066.5,2059.5,2053,2049.5,2042.5,2035.5,2026,2022.5,2019,2015.5,2012.5,2012.5,2005.5,2009,2009,2012,2012,2015.5,2012.5,2015.5,2015.5,2015.5,2019,2022.5,2022.5,2022.5,2022.5,2022.5,2022.5,2022.5,2019,2019,2015.5,2012.5,2012.5,2006,2003,2000,1993,1986.5,1980.5,1971,1958.5,1945.5,1933.5,1918,1906.5,1895,1883,1868.5,1863.5,933,1852,1849,1846.5,1843.5,1841,1838.5,1838.5,1833,1830.5,1827.5,1824.5,1819,1814,1814,1809,1801,1795,1782.5,1772.5,1762,1754,1744.5,1737.5,1727.5,1722.5,1720,1717.5,1717.5,1715,1713,1713,1711,1711,1711,1711,1711,1713,1711,1713,1713,1713,1710.5,1708,1703.5,1699,1697,1692,1689.5,1685,1678,1673.5,1667,1660,1653,1646.5,1640,1634,1627,1622.5,1618.5,1616.5,1616.5,1616.5,1614,1614,1614,1614.5,1612.5,1610.5,1605.5,1601.5,1597.5,1589.5,1583,1577,1571,1565,1561,1557,1551,1547.5,1545.5,1543.5,1539.5,1536,1534,1530,1526.5,1522.5,1517,1509.5,1504,1496.5,1491,1484,1478.5,1473.5,1469.5,1466,1466,1468,1468,1466.5,1468,1469.5,1473.5,1473.5,1476.5,1478.5,1480.5,1480.5,1480.5,1482,1478.5,1478.5,1473,1470,1463,1459,1454,1449,1445.5,1438.5,1435.5,1432,1429,1427,1422,1419,1414,1410.5,1407.5,1403,1401.5,1394.5,1391.5,1387,1385.5,1382.5,1379.5,1375
744,745.5,746.5,748,750,752,754.5,757,758.5,760.5,762.5,764.5,767.5,771,774.5,777.5,779.5,781.5,784,786,789,792.5,795,798,801,804,806.5,809.5,813,815,817.5,819,822,824,827.5,830,832.5,836,839,842,846,849,850.5,853.5,856,860,862.5,865.5,869,873,876.5,879.5,883.5,887,891,894,897,901,905,909,913.5,918,923,925,929,931.5,934.5,936.5,939.5,942.5,945.5,949.5,952.5,957,961.5,966.5,971.5,975,981,985,990,994,999.5,1005.5,1009.5,1013.5,1018.5,1023,1026.5,1030,1033,1036.5,1038.5,1041,1043.5,1047.5,1050.5,1053.5,1057,1062,1065,1069,1073.5,1077.5,1083.5,1087,1092,1097,1102,1109,1115,1122,1130,1138.5,1148,1157.5,1166.5,1176,1182,1190,1196,1201.5,1207.5,1214.5,1219.5,1224.5,1229.5,1234,1238,1242,1245.5,1253,1259.5,1265.5,1271.5,1278,1286,1295,1303,1310.5,1315.5,1321.5,1329,1334.5,1341.5,1349,1358.5,1364,1370,1379,1385.5,1390.5,1395,1401,1404.5,1409,1414,1417.5,1425.5,1434,1445.5,1461,1473.5,1491.5,1506,1523,1538,1551.5,1561.5,1571,1579.5,1587.5,1598,1608,1618.5,1627.5,1638,1653,1662.5,1673.5,1684.5,1694.5,1703.5,1715.5,1727.5,1740,1754,1767.5,1782.5,1798,1814,1830,1846.5,1860.5,1871.5,1883,1892,1912,1933.5,1952,1967.5,1980,1989.5,1999,2006,2009,2012.5,2015.5,2015.5,2015.5,2012,2015.5,2015.5,2015.5,2015.5,2019,2019,2019,2026,2026,2032,2032,2035.5,2035.5,2042.5,2042.5,2049.5,2049.5,2049.5,2049.5,2049.5,2053,2053,2053,2049.5,2046,2046,2049.5,2052.5,2052.5,2056,2053,2053,2053,2053,2049.5,2049.5,2046,2046,2042.5,2046,2042.5,2042.5,2046,2046,2046,2049.5,2053,2053,2053,2056.5,2056.5,2060,2060,2060,2060,2056.5,2053,2049.5,2046,2046,2039.5,2036,2032.5,2026,2022.5,2026,2019.5,2016,2013,2016,2009.5,2009.5,2009.5,2012.5,2009,2012.5,2012.5,2012.5,2015.5,2015.5,2019,2019,2019,2019,2022,2019,2022.5,2025.5,2032.5,2039,2046,2049.5,2053,2056,2063,2063,2059.5,2059.5,2056.5,2053,2049.5,2049.5,2049.5,2046,2042.5,2046,2046,2053,2056.5,2059.5,2059.5,2063,2063,2066.5,2066.5,2059.5,2056,2053,2046,2042.5,2035.5,2029,2026,2022.5,2019,2019,2012.5,2012.5,2012.5,2015.5,2015.5,2015.5,2015.5,2019,2019,2019,2022.5,2022.5,2025.5,2025.5,2025.5,2029,2026,2026,2022.5,2022.5,2019,2019,2015.5,2012.5,2012.5,2009,2003,2003,1996.5,1993,1980,1970.5,1958,1946,1936.5,1918,1909.5,1898,1886,1880.5,1871.5,1866,1863,1855,1852.5,1849.5,1846.5,1846.5,1841,1841,1833,1830.5,1824.5,1822,1819,1814,1806,1801,1787.5,1775,1767,1756.5,1744.5,1735,1727.5,1720,1715.5,1713,1711,1713,1711,1710.5,1713,1713,1715,1715,1715.5,1718,1717.5,1717.5,1720,1717.5,1715,1713,1710.5,1705.5,1701.5,1697,1692,1689.5,1685,1678,1671,1667,1662.5,1657.5,1651,1642,1638,1633.5,1629.5,1629.5,1629,1627,1625,1625,1625,1625,1622.5,1616.5,1610.5,1608,1601.5,1597.5,1587,1583,1577,1571,1567,1563,1561,1555,1553,1549,1545.5,1543.5,1541.5,1537.5,1534,1528,1522.5,1519,1511,1504,1500,1493,1487.5,1482,1480.5,1477,1477,1475,1473,1475,1476.5,1478.5,1478.5,1482,1483.5,1485.5,1485.5,1487.5,1487.5,1487.5,1483.5,1482,1477,1471.5,1466,1462.5,1459.5,1454,1447.5,1444,1439,1435,1432,1430.5,1425,1422,1417.5,1414,1410.5,1407.5,1404.5,1398,1394.5,1391.5,1388.5,1385.5,1384,1381
744.5,746,747,748.5,750.5,753,755.5,757.5,759.5,761.5,763.5,765.5,769,772.5,776,778.5,780.5,782.5,784.5,787,790,793.5,796,799,802.5,805.5,808,811,814,817,819,820.5,823.5,826,829.5,832,835,838,841,845,847.5,850,852,855,857.5,861,863.5,867.5,871.5,874.5,878.5,881.5,884.5,888,891,895,898.5,903,907.5,911.5,915.5,920.5,925,928,931,934,936,939,940.5,944.5,947,950,953,958.5,963,967.5,972,976.5,981.5,986.5,494,0,1001.5,1006.5,1011.5,1015.5,1020.5,1023.5,1028,1032,1034,1036.5,1040.5,1042.5,1045.5,1048.5,1051.5,1055.5,1060,1064.5,1068,1072,1075.5,1079.5,1085,1089,1095,1100,1104,1111,1118,1124,1132,1140.5,1150,1160,1170,1178.5,1185.5,1193,1200,1206,1212.5,1217,1223,1228,1232,1234,1238,1243,1245.5,1253,1259.5,1267,1274,1280,1288,1296.5,1304.5,1313,1317,1324.5,1331.5,1336,1343,1350.5,1360,1365.5,1374.5,1380.5,1387.5,1393.5,1396.5,1404,1409.5,1414,1417,1422,1430,1440.5,1454.5,1466.5,1484,1498.5,1513,1526,1543.5,1553.5,1563.5,1571,1581.5,1589.5,1600,1610,1623.5,1631.5,1642.5,1658,1667,1675.5,1684.5,1696.5,1703.5,1715.5,1730,1742,1752,1770,1782.5,1795,1814,1827.5,1844,1857.5,1871.5,1880.5,1895,1915.5,1936.5,1952,1967,1983,1992.5,1999.5,2005.5,2012.5,2012.5,2016,2016,2015.5,2015.5,2012,2015.5,2019,2019,2022.5,2022.5,2022.5,2022.5,2029,2029,2035.5,2039,2039,2046,2046,2049.5,2053,2053,2053,2056.5,2056.5,2056.5,2056.5,2053,2053,2052.5,2056,2056,2056,2056,2056,2053,2053,2056.5,2056.5,2053,2049.5,2049.5,2049.5,2046,2049.5,2049.5,2046,2053,2053,2056.5,2059.5,2059.5,2063,2063,2063,2066,2066,2066,2066,2066,2060,2060,2056.5,2053,2049.5,2042.5,2039.5,2029,2026,2022.5,2019.5,2019.5,2016,2016,2012.5,2012.5,2009,2012.5,2012.5,2012.5,2012.5,2015.5,2015.5,2019,2019,2019,2019,2019,2022,2022,2022,2025.5,2029,2032.5,2039.5,2046,2049.5,2052.5,2059.5,2059.5,2059.5,2056.5,2049.5,2053,2049.5,2046,2046,2042.5,2039.5,2039.5,2039.5,2046,2049.5,2049.5,2049.5,2056,2056,2056,2056,2053,2049.5,2046,2042.5,2039,2035.5,2029,2026,2022.5,2025.5,2019,2019,2016,2019,2022,2022,2022,2022,2022,2025.5,2025.5,2025.5,2029,2029,2032.5,2032.5,2032.5,2029,2029,2026,2026,2022.5,2019,2019,2019,2015.5,2015.5,2012.5,2009.5,2002.5,1999.5,1990,1980,1967.5,1958,1949,1937,1927,1915.5,1903.5,1895,1889,1880.5,1877.5,1872,1866.5,1863.5,1858,1855,1849.5,1847,1844,1836,1833,1830.5,1824.5,1822,1814,1806,1798,1787.5,1777.5,1762,1751.5,1740,1732.5,1722.5,1717.5,1713,1713,1710.5,1710.5,1710.5,1715.5,1715.5,1717.5,1720,1722.5,1725,1725,1725,1725,1722.5,1722.5,1720,1713,1710.5,1705.5,1701.5,1699,1694.5,1689.5,1687,1680,1676,1673.5,1669,1662,1655.5,1651,1648.5,1644.5,1644.5,1640,1640,1638,1635.5,1633.5,1633.5,1629.5,1624.5,1618.5,1614.5,1610.5,1601.5,1595.5,1589.5,1583,1581,1577,1573,1567,1563,1561,1557,1553,1551,1547,1545.5,1541.5,1536,1532,1524,1521,1511,1507.5,1500.5,1496.5,1491,1487.5,1485.5,1485.5,1484,1482,1484,1484,1485.5,1485.5,1487,1489,1489,1489,1489,1489,1489,1487.5,1483.5,1480.5,1475,1469.5,1466,1463,1457.5,1452,1447.5,1444,1438.5,1435.5,1435.5,1430.5,1423.5,1419,1417.5,1410.5,1409,1406,1400,1396,1391.5,1388.5,1388.5,1385.5,1384
745.5,746.5,748,749.5,751,754,756,758.5,760,762.5,764.5,767.5,770,774,776.5,778.5,781,783,785.5,788,790.5,794,797,800,803.5,806.5,809,812.5,816,818,819.5,822.5,824.5,828.5,831.5,834,838,840.5,845,847,850,853,854.5,857,860,863,866,869.5,873.5,877,881,883,886.5,889,893,896.5,899.5,905,909,913,917.5,921.5,926,929.5,933,935,938,940,942,946,949,952,955.5,960,963.5,968.5,972.5,978,983,987.5,495,496.5,1002,1007,1012,1017,1020.5,1025.5,1029,1032,1036,1038.5,1040,1042.5,1046.5,1051,1053.5,1056.5,1060.5,1066.5,1070,1075,1078.5,1083.5,1088,1093,1098,1101,1107,1113,1118,1127,1135.5,1143.5,1153.5,1163,1173,1181,1189,1196,1203,1208.5,1212.5,1219.5,1223,1228,1232,1235.5,1239,1243,1246.5,1253,1262,1270,1278,1286,1294,1300.5,1307.5,1315.5,1320,1326,1331.5,1337,1344.5,1352,1361.5,1367,1373,1382.5,1390.5,1396.5,1401,1408,1414,1420.5,1425.5,1430,1439,1449,1462.5,1476.5,1491,1508,1521,1534,1547.5,1557.5,1567,1575.5,1581.5,1592,1602,1614.5,1625.5,1636,1644.5,1660,1669,1675.5,1687,1696.5,1706,1720.5,1730,1744.5,1757,1770,1785,1798,1814,1830,1846.5,1858,1869,1883.5,1894.5,1915.5,1936.5,1952,1970.5,1983.5,1993,1999,2006,2012.5,2012.5,2012.5,2016,2016,2019,2015.5,2015.5,2015.5,2019,2025.5,2025.5,2025.5,2025.5,2032.5,2036,2039,2042.5,2042.5,2046,2049.5,2053,2056.5,2060,2060,2060,2063,2066,2060,2060,2056.5,2056.5,2056.5,2056.5,2059.5,2059.5,2056.5,2056.5,2056.5,2056.5,2056.5,2056.5,2056.5,2056.5,2053,2053,2056.5,2056.5,2053,2059.5,2059.5,2059.5,2063,2063,2063,2069.5,2069.5,2069.5,2069.5,2069.5,2069.5,2069.5,2066,2063,2059.5,2059.5,2053,2049.5,2046,2036,2029,2026,2022.5,2019,2016,2019,2016,2012.5,2012.5,2015.5,2015.5,2015.5,2015.5,2015.5,2019,2019,2019,2019,2019,2019,2022,2022,2022,2022,2029,2032.5,2036,2042.5,2046,2049.5,2056,2056,2056,2053,2053,2049.5,2046,2049.5,2046,2043,2036,2036,2036,2039.5,2043,2046,2042.5,2042.5,2049.5,2049.5,2049.5,2049.5,2042.5,2042.5,2042.5,2039,2032.5,2032.5,2029,2029,2029,2025.5,2029,2025.5,2025.5,2029,2029,2029,2029,2029,2032.5,2032.5,2032.5,2036,2036,2036,2036,2039,2032.5,2032.5,2029,2026,2025.5,2022,2022,2022,2019,2019,2015.5,2015.5,2012.5,2006,1996,1989.5,1980,1970.5,1958,1946,1940,1930.5,1921,1912.5,1903.5,1894.5,1892,1889,1881,1878,1872.5,1866.5,1861,1855,1849.5,1847,1844,1838.5,1836,1827.5,1822,1814,1806,1792.5,1785,1772.5,1762,1747,1737.5,1730,1722.5,1715.5,1713,1713,1713,1713,1715.5,1718,1720,1722.5,1727.5,1730,1730,1730,1732.5,1730,1727.5,1725,1717.5,1713,1710.5,1703.5,1701.5,1701.5,1694.5,1692,1687,1684.5,1682.5,1678,1673.5,1668.5,1664.5,1662,1657.5,1655,1653,1651,1646.5,1646.5,1644.5,1640,1635.5,1629.5,1627,1618.5,1614.5,1605.5,1601.5,1597.5,1591.5,1587.5,1585,1581,1577,1573,1571,1569,1565,1561,1559,1555,1549,1545,1541.5,1536,1530,1522.5,1517,1511.5,1505.5,1500.5,1498.5,1494.5,1495,1493,1491,1491,1491,1493,1493,1493,1493,1493,1493,1493,1493,1493,1491,1489,1484,1480,1473,1471.5,1464.5,1462.5,1457.5,1452.5,1447,1444,1440.5,1437,1432,1428.5,1423.5,1420.5,1417.5,1414,1409,1404.5,1400,1394.5,1393,1391.5,1390,1387
745.5,747,748.5,750.5,752,754.5,757,759.5,761.5,764,766.5,768.5,772,775,777.5,780,782,784,786.5,788.5,791,795,797.5,801,804,807.5,810.5,813,817,819,821,823.5,827,829,832,836.5,839.5,843,846,849,852.5,854.5,857.5,859.5,862,864.5,868.5,872.5,876,880.5,883,885.5,888.5,892,895,899,902.5,906.5,910.5,915,919.5,923.5,927.5,930.5,934.5,936.5,939.5,941,944,946.5,949.5,953.5,957.5,961.5,965.5,970.5,974.5,979,983,988.5,993,997,1002,1007,1012,1017,1021.5,1025.5,1029,1033,1036,1038.5,1041,1044.5,1047.5,1052,1054.5,1058,1062.5,1068.5,1072,1077.5,1081,1085,1091,1095,1100,1104,1110,1116,1122,1130,1138.5,1145.5,1155.5,1165.5,1174,1182,1189,1197,1204,1208.5,1213.5,1218.5,1224,1228,1232,1235.5,1239,1243,1249,1257,1265.5,1273.5,1283,1291,1298,1304.5,1311.5,1318.5,1323,1329,1333,1340,1346,1354,1361.5,1370,1376,1385.5,1393.5,1399.5,1407.5,1415.5,1422.5,1428.5,1435.5,1440.5,1447,1459,1473.5,1487.5,1502,1515,1528,1540,1551.5,1561.5,1567,1575.5,1585.5,1594,1604,1619,1629.5,1636,1647,1657.5,1671.5,1678,1687,1699,1705.5,1720.5,1735,1747,1759.5,1772.5,1787.5,1800.5,1817,1833,1846.5,1863,1877.5,1892,1903.5,1922,1945.5,1958.5,1977,1990,1996,2002.5,2009.5,2012.5,2012.5,2012.5,2012.5,2016,2019,2019,2019,2022.5,2025.5,2025.5,2029,2029,2032.5,2036,2042.5,2046,2046,2049.5,2049.5,2053,2056.5,2063,2063,2066,2063,2066.5,2069.5,2066.5,2063,2063,2063,2060,2060,2060,2063,2063,2060,2060,2060,2060,2060,2060,2056.5,2053,2053,2053,2056.5,2056.5,2056.5,2059.5,2059.5,2063,2063,2063,2066,2069.5,2073,2073,2069.5,2069.5,2069.5,2069.5,2069.5,2066.5,2059.5,2056,2056,2046,2043,2036,2029,2026,2019,2019,2019,2012.5,2012.5,2012.5,2015.5,2012.5,2016,2016,2016,2016,2022,2019,2019,2019,2019,2019,2019,2019,2022,2025.5,2029,2036,2039.5,2046,2049.5,2052.5,2052.5,2056,2056.5,2053,2049.5,2049.5,2049.5,2046,2043,2039.5,2036,2032.5,2036,2036,2039.5,2039.5,2036,2039.5,2042.5,2042.5,2042.5,2039.5,2039.5,2042.5,2036,2036,2036,2035.5,2035.5,2035.5,2036,2032.5,2032.5,2036,2039.5,2039.5,2036,2036,2039.5,2039.5,2036,2036,2039.5,2039.5,2039.5,2042.5,2042.5,2039,2035.5,2032,2032,2029,2025.5,2025.5,2022,2025.5,2022,2019,2019,2012.5,2009,2002.5,1996,1986.5,1977,1967,1958,1949,1943,1933.5,1927.5,1922,1912.5,1906.5,1900.5,1898,1889,1880.5,1878,1872.5,1864,1858,1852.5,1849.5,1844.5,1841.5,1838.5,1830,1824.5,1814,1806,1795.5,1782.5,1772.5,1759,1747,1740,1730,1725,1722.5,1720.5,1715.5,1718,1720.5,1725,1725,1727.5,1732.5,1735,1735,1735,1732.5,1732.5,1730,1727.5,1725,1717.5,1713,1710.5,1706,1703.5,1699,1696.5,1694,1691.5,1691.5,1687.5,1682.5,1678,1675.5,1671,1668.5,1666.5,1662,1659.5,1655.5,1653.5,1653.5,1648.5,1642,1636,1631.5,1624.5,1618.5,1614.5,1610.5,1605.5,1601.5,1599.5,1595.5,1591.5,1587.5,1585,1581,1579,1575,1571,1569,1567,1563,1555,1553,1547,1541.5,1538,1532,1526.5,1518.5,1515,1511.5,1509.5,1507.5,1506,1502,1498,1498,1498,1500,1498,1496.5,1496.5,1495,1494.5,1494.5,1493,1493,1489,1485.5,1480,1477,1471.5,1469.5,1464.5,1463,1456,1452.5,1449,1445.5,1442,1439,1434,1428.5,1425.5,1420.5,1417,1414,1409,1404.5,1401.5,1398,1396.5,1394.5,1393
747,747.5,749.5,751.5,753.5,755.5,758,761,763,765,767.5,770.5,773.5,776,778.5,781,783.5,785.5,787.5,789.5,792.5,796,798.5,802,805.5,809,812,815.5,818,820,822.5,825,828,831,834,838,841,845,847.5,851.5,854,856,859.5,861.5,865,869,872.5,875.5,879.5,883,887,888.5,891.5,893.5,897,900.5,904.5,909,913,916,920,924.5,928,931,933.5,938,940.5,943,945,948,951.5,956.5,960,963.5,968.5,972,976,981,984.5,989.5,993,998,1003,1007,1011,1017,1020.5,1025.5,1029,1033,1036.5,1039.5,1042,1045.5,1048,1054,1056,1061,1065.5,1071,1074.5,1080,1084,1089,1093,1098,1104,1107,1112,1118,1124,1131,1139.5,1148,1157.5,1165.5,1174,1184,1191,1199,1204,1208.5,1213.5,1219.5,1224,1229,1232,1237,1242,1247,1250.5,1259.5,1268.5,1276.5,1287,1296.5,1302,1307.5,1314.5,1323,1326,1330.5,1336,1340,1347.5,1355.5,1363,1370,1377.5,1387.5,1396.5,1404.5,1412.5,1420.5,1427,1435.5,1444,1451,1457.5,1470,1482,1496.5,1507.5,1521,1532,1543.5,1553.5,1563.5,1571,1579.5,1587.5,1596,1608.5,1621,1629.5,1638,1649,1660,1671.5,1680,1689.5,1701.5,1713,1725,1739.5,1755,1767,1780,1790.5,1806,1819.5,1838.5,1855,1874.5,1886.5,1897.5,1916,1934,1955,1968,1980,1993,1996,2002.5,2009.5,2009.5,2012.5,2012.5,2016,2019,2019,2019,2022.5,2022.5,2029,2036,2036,2036,2039.5,2039.5,2046,2049.5,2053,2053,2056.5,2060,2060,2063,2066.5,2069.5,2066.5,2073.5,2070,2070,2070,2066.5,2066.5,2063,2066.5,2066.5,2063,2063,2060,2060,2060,2060,2060,2060,2056.5,2053,2060,2056.5,2053,2056.5,2056.5,2056.5,2063,2063,2063,2063,2069.5,2069.5,2069.5,2076.5,2073,2073,2073,2073,2070,2070,2063,2063,2059.5,2052.5,1016,2043,2032.5,2026,2022.5,2019,2019,2012.5,2012.5,2015.5,2012.5,2016,2016,2016,2019,2019,2022,2022,2022,2019,2019,2019,2019,2022.5,2022.5,2025.5,2029,2036,2043,2046,2052.5,2056,2056,2059.5,2060,2056.5,2053,2049.5,2052.5,2046,2039.5,2036,2036,2032.5,2032.5,2032.5,2032.5,2032.5,2032.5,2032.5,2036,2036,2036,2039.5,2039.5,2039.5,2042.5,2042.5,2039,2042.5,2042.5,2042.5,2042.5,2046,2043,2046,2049.5,2049.5,2049.5,2046,2049.5,2049.5,2046,2046,2049,2049,2046,2046,2049.5,2046,2039,2035.5,2035.5,2032,2029,2025.5,2029,2029,2025.5,2022,2019,2016,2012.5,2005.5,1999.5,1989.5,1983,1974,1964,1958,1952,1949,1936.5,1930.5,1922,1919,1910,1903.5,1901,1889.5,1883.5,1878,1872.5,1867,1861,1855.5,1852.5,1847,1844.5,1841.5,1836,1827.5,1819.5,1811.5,1798,1787.5,1775,1762,1749.5,1744.5,1737.5,1730,1727.5,1725.5,1723,1727.5,1727.5,1732.5,1732.5,1737,1737,1737,1739.5,1737,1735,1730,1730,1727.5,1720,1715,1711,1711,1708.5,1706,1701,1698.5,1698.5,1696,1694,1689.5,1685,1682.5,1680.5,1678,1673.5,1668.5,1668.5,1662,1657.5,1655.5,1653.5,1646.5,1640,1635.5,1629.5,1624.5,1620.5,1618.5,1614.5,1610.5,1608,1603.5,1601.5,1599.5,1595.5,1591.5,1589.5,1583,1581,1579,1577,1571,1567,1563,1559,1555,1549,1543.5,1537.5,1530,1526.5,1526.5,1522.5,1519,1517,1511,1507.5,1506,1506,1504,1504,1500,1500,1500,1498.5,1498.5,1494.5,1494.5,1491,1485.5,1484,1478.5,1475,1473.5,1468,1466,1461,1457.5,1454,1452.5,1445.5,1442,1439,1432,1428.5,1424,1420.5,1418.5,1415.5,1409,1406,1404.5,1401.5,1401.5,1399.5
747,748.5,750,752.5,754.5,756.5,760,762,764.5,766,769,772,775,777,780,782.5,784,786.5,789,791,794.5,797,800.5,803.5,807.5,810.5,813.5,816.5,819,821,823.5,827.5,829.5,832,836,839,841.5,845.5,848.5,852.5,854.5,858,861,865,868,871.5,875,879,884,887.5,890.5,892.5,894.5,897,900.5,903,907,911,914.5,918,922,925.5,929.5,932.5,935,939.5,941,943.5,946.5,951,954,958.5,963,967,970.5,974,978,981.5,986,990.5,993,997,1001,1006,1012,1016.5,1020.5,1024.5,1030,1034,1037.5,1041,1044.5,1047.5,1051,1055.5,1060,1063.5,1068.5,1072.5,1078.5,1083,1087,1093,1097,1102,1107,1110,1115,1121,1127,1134.5,1142.5,1150,1158.5,1166.5,1175,1183,1192,1200.5,1205,1209.5,1215.5,1220.5,1225.5,1229,1233,1238,1242,1247,1253,1262,1272.5,1280.5,1291,1300.5,1306,1312,1318.5,1326,1330,1331.5,1336,1341.5,1349,1357,1364,1370,1379,1389,1398,1406,1414,1422.5,1434,1442.5,1451,1459.5,1468,1478.5,1491,1504,1517,1526.5,1536,1547.5,1557.5,1565,1573.5,1581.5,1592,1600,1614.5,1625.5,1633.5,1644.5,1653.5,1662,1676,1687.5,1694,1708,1720.5,1732.5,1744.5,1759.5,1769.5,1782.5,1793,1803.5,1819.5,1838.5,1855,1875,1895,1910,1922,1943,1958,1974,1986.5,1996,1999.5,2002.5,2006,2006,2009,2009,2012.5,2016,2019,2022.5,2022.5,2025.5,2032.5,2036,2036,2042.5,2046,2046,2049.5,2052.5,2056,2059.5,2059.5,2063,2066,2066.5,2069.5,2073,2070,2073.5,2080.5,2077.5,2073.5,2073.5,2073.5,2070,2070,2070,2066.5,2063,2059.5,2059.5,2059.5,2059.5,2056.5,2060,2053,2053,2056.5,2053,2053,2053,2053,2056.5,2060,2063,2063,2063,2066.5,2066.5,2069.5,2073,2073.5,2073.5,2073.5,2073.5,2073.5,2073.5,2066.5,2063,2063,2056,2049,2043,2036,2029,2026,2019,2019,2012.5,2012.5,2009.5,2012.5,2016,2016,2016,2016,2016,2022,2019,2019,2016,2016,2019,2019,2022.5,2022.5,2029,2032.5,2043,2046,2052.5,2056,2063,2066.5,2066,2066.5,2063,2059.5,2056,2056,2052.5,2046,2039,2036,2029.5,2029.5,2026,2026,2022.5,2025.5,2025.5,2032.5,2036,2036,2036,2039.5,2039.5,2042.5,2042.5,2042.5,2046,2049.5,2049.5,2053,2052.5,2056,2056,2056,2056,2056,2053,2056,2056,2059.5,2056,2056,2056,2052.5,2056,2053,2053,2046,2042.5,2039,2032,2032,2029,2025.5,2029,2025.5,2022,2022,2016,2009,2002.5,1999.5,1992.5,1986.5,1977,1970.5,1964,1958,1952,1949,1939.5,1933.5,1928,1922,1916,1910,1901.5,1892.5,1886.5,1881,1875,1867,1861.5,1861.5,1858.5,1855.5,1852.5,1849.5,1841.5,1833,1825,1814,1803.5,1790.5,1777.5,1767,1757,1747,1739.5,1737,1732.5,1732,1734.5,1734.5,1734.5,1739.5,1739.5,1742,1742,1739.5,1739.5,1734.5,1734.5,1732.5,1730,1725,1718,1717.5,1713,1713,1711,1708.5,1706,1703.5,1703.5,1698.5,1696.5,1691.5,1687.5,1685,1685,1680,1676,1671,1666.5,1664,1662,1657.5,1653.5,1646.5,1642,1638,1633.5,1629.5,1627,1622.5,1618.5,1618.5,1616.5,1614.5,1610,1603.5,1601.5,1597.5,1595.5,1591.5,1589,1585,1581,1575,1573,1569,1565,1563,1555,1551,1545.5,1541.5,1539.5,1538,1532,1526,1522.5,1517,1515,1511,1511,1507.5,1504,1504,1502,1498.5,1498.5,1496.5,1494.5,1491,1485.5,1485.5,1480,1478.5,1475,1471.5,1468,1466,1463,1459,1456,1450.5,1447.5,1443.5,1437.5,1433.5,1430.5,1427,1424,1420.5,1417,1412.5,1410.5,1410.5,1409,1409
747.5,749,751,753.5,755,757.5,760.5,763.5,766,768,771,774,776,778.5,781,783.5,784.5,787.5,790,793.5,796,798.5,802,805,808.5,811.5,816,818.5,820.5,823,825.5,828.5,830.5,833,837,839.5,843,846.5,849.5,852.5,855.5,858.5,862.5,866.5,870.5,875,879,883,887.5,891,893.5,896,898,901,904,906,909.5,913,917,920,923,927,930,933,936.5,940,943,946,949.5,953,957,961.5,965,970,973.5,976.5,980,983,986,989.5,993,996.5,1000.5,1005.5,1010.5,1015.5,1019.5,1025.5,1031,1034,1038.5,1042,1045.5,1048,1052,1056,1061,1064.5,1070,1075.5,1081.5,1086,1091,1096,1100,1106,1111,1116,1120,1126,1132,1138.5,1145.5,1153.5,1161,1168.5,1177,1185.5,1193,1201.5,1206,1211,1215.5,1222,1227,1230.5,1232,1238,1244,1250.5,1255.5,1264.5,1275,1285.5,1296.5,1304.5,1312,1317,1321.5,1327.5,1331.5,1333,1337.5,1343,1349,1356.5,1364,1371.5,1381,1388.5,1399.5,1407.5,1417,1425.5,1435.5,1447.5,1455.5,1466.5,1475,1487.5,1500.5,1511.5,1522.5,1530,1539.5,1551.5,1559.5,1567,1577.5,1587.5,1596,1606,1618.5,1629.5,1640.5,1651,1657.5,1669,1680.5,1691.5,1703.5,1715.5,1727.5,1740,1752,1767,1775,1788,1795.5,1808.5,1824.5,1841,1858,1880.5,1898,1916,1934,1952,1971,1983.5,1993,1999,2002.5,2006,2009,2009,2005.5,2009,2012.5,2015.5,2015.5,2019,2022.5,2029,2032.5,2042.5,2046,2049.5,2052.5,2056,2056,2059.5,2063,2066.5,2066.5,2069.5,2069.5,2069.5,2073,2076.5,2080.5,2077.5,2084,2081,2081,2081,2077.5,2074,2070,2073.5,2073.5,2066.5,2063,2063,2059.5,2059.5,2056.5,2053,2049.5,2049.5,2049.5,2053,2049.5,2049.5,2049.5,2049.5,2053,2056.5,2056.5,2059.5,2063,2066.5,2066.5,2070,2073.5,2073.5,2073.5,2073.5,2074,2074,2070,2070,2066.5,2059.5,2056,2046,2039.5,2036,2032.5,2026,2019,2012.5,2012.5,2012.5,2012.5,2012.5,2012.5,2016,2016,2016,2019,2019,2016,2016,2019,2019,2019,2025.5,2029,2032.5,2039.5,2046,2052.5,2056,2063,2066.5,2069.5,2069.5,2073,2073.5,2066.5,2066.5,2059.5,2056,2049.5,2039,2039,2029.5,2029.5,2026,2022.5,2022,2019,2022,2025.5,2029,2032.5,2036,2036,2042.5,2042.5,2046,2049.5,2053,2053,2056.5,2059.5,2059.5,2063,2063,2063,2067,2063,2063,2063,2063,2066.5,2066.5,2066.5,2063,2059.5,2063,2059.5,2056.5,2049.5,2046,2042.5,2039,2032,2029,2029,2029,2025.5,2022,2019,2016,2009,2005.5,1999.5,1992.5,1983,1977,1974,1967.5,1961,1961,1955,1948.5,1942.5,1939.5,1933.5,1925,1916,1910,1901.5,1895,1889.5,1886.5,1878,1875.5,1872.5,1869.5,1867,1867,1864,1855.5,1850,1844.5,1835.5,1822.5,1811.5,1795.5,1788,1777.5,1767,1757.5,1752.5,1744.5,1742,1742,1742,1745,1745,1745,1750,1745,1747.5,1739.5,1737,1734.5,1732,1730,1725,1722.5,1722.5,1718,1720,1715.5,1713,1713,1710.5,1708,1705.5,1701.5,1696.5,1694,1692,1692,1685,1680,1676,1673.5,1671,1669,1664,1660,1653.5,1646.5,1642,1640,1636,1634,1631.5,1627,1627,1627,1625,1621,1616.5,1612.5,1608,1605.5,1601.5,1599.5,1593.5,1589,1585,1581,1579,1573,1571,1567,1563,1557,1555,1553,1549,1545,1538,1532,1524.5,1519,1519,1515,1511,1507.5,1507.5,1504,1502,1500.5,1496.5,1494.5,1491,1487.5,1485.5,1482,1480,1478.5,1475,1471.5,1468,1468,1464.5,1461,1457.5,1452.5,1445.5,1442,1440.5,1435.5,1433.5,1430.5,1425.5,1422.5,1420.5,1420.5,1419,1419,1419
748,749.5,752,754.5,756,759.5,762,765,767.5,770,772,775,777,780,782.5,784,786.5,788.5,791,794.5,797.5,800.5,803.5,806.5,810,814,817,819.5,821.5,824,827,830,832.5,835,838,840.5,844,847,850,853,855.5,859.5,863,867.5,871.5,876,881,885.5,890.5,893.5,896.5,898,901,904,905.5,908.5,912.5,915.5,919,923,925.5,929,932.5,934,936.5,941,943.5,946.5,950,955,958.5,963,967.5,971,975,977.5,980.5,983.5,987,990,993,996.5,1000.5,1005,1010.5,1016.5,1020.5,1026.5,1032,1036,1040,1043.5,1047.5,1049,1054,1059,1063,1067,1072,1076.5,1082.5,1088,1094,1098,1104,1111,1116,1121,1127,1131,1136.5,1142.5,1150,1157.5,1164,1172,1180,1187,1196,1202.5,1208.5,1213.5,1218.5,1223,1228,1232,1234,1239,1245.5,1252,1258,1268.5,1279,1291,1300.5,1310.5,1317,1323,1325.5,1330,1333,1334.5,1339,1344.5,1350.5,1357.5,1367,1373,1382.5,1391.5,1401.5,1410.5,1419,1430.5,1440.5,1450.5,1463,1471.5,1482,1493,1505.5,1516.5,1528.5,1535.5,1545.5,1553.5,1563,1573,1583.5,1591.5,1602,1612.5,1625.5,1635.5,1646.5,1655.5,1664,1676,1687,1696,1706,1722.5,1732.5,1744.5,1757,1772.5,1780,1790.5,1801,1811,1827.5,1843.5,1866,1886.5,1906.5,1925,1943,1961.5,1980.5,1989.5,2002.5,2009,2009,2009,2009,2009,2012,2012,2015.5,2015.5,2022.5,2019,2026,2032,2035.5,2046,2049.5,2056,2059.5,2063,2063,2066.5,2070,2070,2069.5,2073,2076.5,2076.5,2080,2080,2080.5,2084,2087.5,2087.5,2084.5,2084.5,2081,2077.5,2077.5,2074,2070,2066.5,2063,2063,2063,2059.5,2056.5,2049.5,2049.5,2046,2046,2042.5,2046,2046,2049.5,2046,2049.5,2053,2053,2056.5,2059.5,2063,2063,2066.5,2070,2070.5,2066.5,2070,2074,2074,2070.5,2070.5,2070.5,2063,2056,2049.5,2042.5,2039,2033,2029.5,2022.5,2016,2012.5,2012.5,2015.5,2015.5,2012.5,2016,2016,2016,2016,2016,2016,2016,2019,2019,2019,2025.5,2032.5,2039.5,2042.5,2049.5,2059.5,2063,2069.5,2073,2076.5,2080,2080.5,2077.5,2077.5,2070.5,2066.5,2063,2053,2042.5,2036,2032.5,2026,2025.5,2019,2019,2019,2022,2025.5,2025.5,2029,2036,2036,2042.5,2049.5,2049.5,2053,2056.5,2056.5,2060,2066.5,2066.5,2066.5,2066.5,2070.5,2070.5,2070.5,2067,2070.5,2070.5,2070.5,2074,2077.5,2073.5,2070,2070,2066.5,2063,2056.5,2053,2046,2042.5,2035.5,2035.5,2029,2029,2025.5,2022.5,2019,2016,2009,2002.5,1996,1989.5,1983.5,1977,1974,1970.5,1967.5,1967.5,1964.5,1955,1952,1948.5,1945.5,1939.5,1934,1925,1919,1916,1910,1901.5,1896,1893,1887.5,1884,1878.5,1878.5,1878.5,1872.5,1869.5,1864.5,1853,1844,1836,1822,1809,1798.5,1788,1777,1767,1762.5,1757.5,1757.5,1752.5,1752.5,1752.5,1755,1755,1750,1750,1747.5,1742,1739.5,1734.5,1734.5,1730,1727.5,1727.5,1725,1725,1720,1720,1720,1718,1715.5,1713,1708,1703.5,1703.5,1699,1696.5,1692,1687,1685,1680,1678,1675.5,1671.5,1666.5,1660,1658,1651,1649,1644,1642,1640,1638,1633.5,1638,1633.5,1631.5,1627,1620.5,1616.5,1612.5,1610.5,1605.5,1603.5,1597.5,1593.5,1591,1587,1583,1581,1577,1571,1567,1565,1563,1557,1551,1543.5,1538,1530,1524.5,1522.5,1520.5,1515,1511,1509,1507.5,1505.5,1503.5,1500.5,1496.5,1492.5,1489.5,1487.5,1483.5,1482,1480,1478.5,1476.5,1473.5,1469.5,1470,1464.5,1461,1456,1451,1447,1445.5,1444,1440.5,1435.5,1433.5,1432,1427,1428.5,1428.5,1428.5,1428.5
748.5,750,753,755,757.5,760,763,765.5,768,770.5,773.5,776,778.5,781,783,785,787.5,790,794,796.5,799.5,802,805.5,808.5,811.5,815.5,818,820.5,823,825,828.5,831,833.5,837,839.5,842.5,845.5,848,851,853.5,856,860,864.5,868.5,873.5,877.5,883,887,892,895.5,898.5,901,903,905,908,911,914,917.5,921,925,928,931,933.5,935,938.5,941,944.5,948,952.5,956.5,960.5,965.5,969.5,973.5,975.5,979,982.5,984.5,987,990.5,994,997,1001.5,1005.5,1010.5,1016.5,1022.5,1027,1033,1036.5,1041,1045.5,1049,1051,1056,1061,1064.5,1069,1074,1078.5,1085.5,1091,1097,1103,1109,1116,1121,1127,1132,1137.5,1141.5,1148,1154,1161,1169,1174,1182,1190,1197,1204,1209.5,1214.5,1220.5,1225.5,1230.5,1233,1235.5,1240.5,1248,1255.5,1263,1272.5,1284,1295,1304.5,1316,1321.5,1325.5,1328.5,1333,1334.5,1337.5,1342,1346.5,1353,1362,1366.5,1375,1385.5,1394.5,1404.5,1414,1424,1434,1444,1456,1468,1478.5,1487.5,1500,1511,1524.5,1534,1541.5,1549.5,1559,1569,1579.5,1587.5,1598,1608,1618.5,1631.5,1642.5,1651,1662,1669,1680.5,1692,1703.5,1715.5,1730,1745,1751.5,1764.5,1780,1793,1800.5,1811.5,1822,1838.5,1857.5,1877.5,1900.5,1925,1937,1958.5,1974.5,1993,1999.5,2006,2012.5,2012,2015.5,2012,2012,2012,2015.5,2015.5,2019,2022.5,2025.5,2029,2035.5,2046,2053,2056.5,2059.5,2066.5,2066.5,2070,2070,2070,2073,2073,2076.5,2080,2083.5,2083.5,2084,2087.5,2091,2091,2091,2087.5,2087.5,2084.5,2084.5,2077.5,2077.5,2070,2070,2063,2059.5,2056,2056.5,2053,2049.5,2046,2042.5,2042.5,2043,2039.5,2039.5,2039.5,2042.5,2046,2049.5,2049.5,2049.5,2053,2059.5,2059.5,2063,2063,2066.5,2070.5,2070.5,2070.5,2067,2067,2067,2067,2063,2059.5,2053,2046,2046,2039,2029.5,2029.5,2022.5,2019,2015.5,2019,2019,2019,2016,2019,2019,2019,2019,2019,2022,2022,2022,2022,2029,2036,2042.5,2053,2056.5,2063,2066,2076.5,2080,2084,2087.5,2091,2087.5,2081,2077.5,2077.5,2070.5,2059.5,2049.5,2042.5,2036,2029,2025.5,2022,2019,2019,2019,2025.5,2025.5,2032.5,2036,2042.5,2042.5,2049.5,2053,2059.5,2063,2063,2066,2066.5,2073.5,2077.5,2077.5,2077.5,2081,2081,2081,2081,2081,2084.5,2081,2081,2077.5,2073.5,2076.5,2073,2066.5,2063,2056.5,2049.5,2042.5,2039,2035.5,2035.5,2032.5,2029,2022,2016,2012.5,2009,2002.5,1996,1989.5,1983.5,1980,1977,1974,1970.5,1970.5,1964.5,1961.5,1964.5,1961.5,1955.5,1952,1945.5,1942.5,1936.5,1934,1931,1925,1913,1910.5,1905,1899,1896,1893.5,1893.5,1887.5,1881.5,1878.5,1875.5,1864,1855.5,1844,1836,1819.5,1809,1796,1785.5,1777.5,1769.5,1769.5,1765,1760,1760,1760,1760,1755,1755,1750,1747,1744.5,1742,1737,1735,1732.5,1735,1735,1735,1730,1727.5,1727.5,1725,1723,1718,1715.5,1710.5,1708,1703.5,1699,1696.5,1694,1692,1687,1682.5,1682.5,1678,1673.5,1669,1664,1660,1658,1655.5,1651,1648.5,1644.5,1642.5,1642.5,1640,1636,1633.5,1631.5,1625,1623,1618.5,1616.5,1612.5,1605.5,1603.5,1597.5,1597.5,1593,1591,1585,1581,1577,1575,1571,1565,777.5,1551,1543.5,1539.5,1532,1528,1524.5,1519,1515,1511,1511,1507.5,1503.5,1502,1498.5,1496.5,1492.5,1489.5,1487.5,1485.5,1485.5,1484,1482,1478.5,1475,1473,1470,1464.5,1461,1456,1452.5,1451,1447,1445.5,1442,1440.5,1439,1435.5,1437,1435.5,1435.5,1438.5
749,751,753.5,755.5,758,760,763.5,766,769,771.5,774.5,777,779.5,781.5,784,786,789,792,795,797.5,801,804,807,810.5,813,816.5,819.5,821.5,824,827,830,832.5,835.5,838.5,841,843.5,846.5,849,852.5,854.5,858.5,861,865.5,870,874.5,879.5,885,889.5,893,896,899,901.5,904.5,906,909,912.5,916.5,920,924,927,929.5,932.5,935,936.5,939.5,942.5,945.5,949.5,953.5,957.5,962.5,967.5,971.5,975.5,979,980.5,983,985,987.5,990.5,994,997.5,1002.5,1006.5,1011.5,1017.5,1022.5,1029,1034,1038.5,1043,1047.5,1051,1053,1057,1062,1066.5,1071,1075.5,1081.5,1087,1094,1101,1107,1113,1119,1125,1131,1137,1141.5,1146,1152,1159,1164,1171,1176.5,1184.5,1191,1198,1204,1211,1217,1221.5,1226.5,1231.5,1233,1235.5,1243,1249,1258,1267.5,1277.5,1288.5,1299,1310,1320,1325.5,1330,1331.5,1334.5,1337.5,1340.5,1343.5,1350,1356,1363.5,1373,1379.5,1388.5,1399.5,1409.5,1419,1429,1439,1449,1461,1471.5,1484,1492.5,1505.5,1517,1530,1537.5,1547.5,1557,1565,1575,1587.5,1595.5,1606,1614,1627.5,1638,1648.5,1658,1664,1673.5,1687,1698.5,1710.5,1722.5,1740,1751.5,1762,1775,1787.5,1800.5,1814,1825,1832.5,1849,1869,1889,1916,1937,1958.5,1971.5,1983.5,1996.5,2006,2015.5,2019,2015.5,2019,2015.5,2012.5,2012.5,2016,2019,2022,2022,2029,2036,2039,2046,2056.5,2060,2063,2066,2069.5,2073,2073,2076.5,2080,2080,2083.5,2083.5,2087,2091,2087.5,2091,2094.5,2094.5,2094.5,2091,2091,2087.5,2084,2081,2077.5,2077.5,2070,2063,2059.5,2056,2056.5,2053,2046,2042.5,2039.5,2039.5,2036,2036,2036,2039.5,2039.5,2039,2042.5,2046,2049.5,2053,2056,2059.5,2063,2063,2063,2067,2067,2067,2067,2067,2063.5,2063.5,2063.5,2056.5,2053,2049.5,2046,2046,2036,2036,2029.5,2026,2025.5,2025.5,2022,2022,2019,2022.5,2022.5,2022.5,2022.5,2022.5,2025.5,2029,2029,2032.5,2035.5,2042.5,2046,2053,2063,2069.5,2073,2076.5,2087.5,2091,2094.5,2094.5,2094.5,2088,2084.5,2081,2070.5,2063,2049.5,2046,2036,2032.5,2029,2025.5,2022.5,2019,2022.5,2025.5,2029,2032.5,2036,2042.5,2049.5,2053,2056.5,2063,2069.5,2069.5,2073,2076.5,2080.5,2081,2084.5,2084.5,2088,2088,2088,2088,2088,2091,2087.5,2091,2084,2080.5,2076.5,2073,2069.5,2066,2060,2053,2049.5,2042.5,2039,2035.5,2032.5,2029,2025.5,2019,2012.5,2009,2005.5,1999.5,1996,1989.5,1980,1980,1980,1977,1977,1973.5,1970.5,1973.5,1970.5,1970.5,1970.5,1964.5,1961.5,1958.5,1955,1952,1949,1937,1934.5,1931.5,1922,1916.5,1913.5,1907.5,1905,1899,1899,1893,1889.5,1878,1867,1858,1844.5,1830.5,1814,1806,1793,1785.5,1777,1777,1772,1769.5,1767,1765,1764.5,1760,1760,1755,1750,1744.5,1744.5,1744.5,1742,1742,1744.5,1744.5,1740,1740,1737.5,1735,1732.5,1730,1725.5,1720.5,1713,1710.5,1708,1705.5,1701.5,1696.5,1692,1689.5,1689.5,1684.5,1680.5,1675.5,1671.5,1671.5,1666.5,1664.5,1660,1660,1653.5,1651,1651,1648.5,1644.5,1642.5,1633.5,1631.5,1627,1627,1623,1620.5,1616.5,1610.5,1605.5,1606,1601.5,1599.5,1593,1589,1585,1585,1581,1575,1567,1559,1551,1543.5,1539.5,1534,1530,1526,1521,1517,1515,1509.5,1507.5,1503.5,1502,1498.5,1496.5,1494.5,1492.5,1489.5,1491,1489,1487.5,1483.5,1480.5,1480,1475,1469.5,1466,1461.5,1457.5,1456,1452.5,1452.5,1451,1447,1447.5,1449,1447,1447,1449,1449
750,752,754,756,758,761,763.5,767,769.5,772.5,775.5,778,780,782,784.5,787,789.5,792.5,796,798.5,802,805,808,811.5,814.5,818,820.5,823,826,828.5,831,834.5,837,840,842.5,845,847.5,850,853,855.5,859,863,867.5,872.5,876.5,882,886,890.5,894.5,898,899.5,903,905.5,908,910,913.5,917.5,921,925,929,932,933.5,936.5,939.5,941,943.5,946.5,951,955.5,960,964.5,968.5,972.5,977.5,979,981.5,983.5,986,987.5,991.5,994.5,998.5,1002.5,1007.5,1013.5,1018.5,1023,1030,1036,1039,1044,1048.5,1052.5,1055.5,1060,1065.5,1069,1074,1078.5,1084.5,1090,1097,1103,1110,1115,1122,1128,1135,1139,1145,1149,1153,1160,1165.5,1172,1177.5,1185.5,1191,1198,1206,1212,1218,1223,1228,1231.5,1234.5,1238,1244.5,1250.5,1259.5,1269.5,1281.5,1292.5,1303.5,1314.5,1322.5,1328.5,1333,1336,1339,1340.5,1342,1346.5,1353,1357.5,1368.5,1376,1385.5,1393.5,1404.5,1414,1424,1432.5,1444,1454.5,1466,1476.5,1487.5,1498.5,1511.5,1524,1536,1543.5,1555,1565,1573,1583,1593.5,1604,1614.5,1625,1633.5,1644.5,1653,1662,1671,1678,1692,1701,1715.5,1732.5,1747,1762,1775,1787.5,1801,1814,1827.5,1835.5,1849,1868.5,1886.5,1903.5,1931,1949,1968,1980.5,1996.5,2009.5,2016,2019,2019,2022,2016,2016,2016,2016,2019,2022.5,2025.5,2025.5,2032.5,2036,2046,2049.5,2056,2063,2069.5,2069.5,2069.5,2076.5,2076.5,2080,2080,2083.5,2087.5,2091,2091,2095,2098.5,2098.5,2102,2102,2098,2098,2094.5,2091,2084,2084,2080.5,2073.5,2066.5,2063,2059.5,2059.5,2056.5,2049.5,2046,2042.5,2039.5,2036,2036,2032.5,2036,2032.5,2039.5,2039,2042.5,2046,2049.5,2053,2056,2059.5,2063,2059.5,2063,2063,2067,2067,2070.5,2070.5,2067,2067,2063.5,2063.5,2056.5,2056.5,2053,2049.5,2042.5,2039.5,2032.5,2032.5,2032.5,2032.5,2032.5,2032.5,2029,2032,2029,2032,2032,2032,2032,2035.5,2035.5,2039,2042.5,2049.5,2053,2059.5,2066.5,2073.5,2080.5,2087.5,2094.5,2098,2102,2098.5,2098.5,2091.5,2088,2081,2077.5,2066.5,2059.5,2049,2042.5,2036,2032.5,2029,2026,2026,2026,2029,2035.5,2039,2046,2049.5,2053,2056,2059.5,2066.5,2073,2073,2080,2080,2084,2087.5,2091,2091,2094.5,2094.5,2094.5,2094.5,2098,2098,2094.5,2094.5,2091,2087.5,2084,2080,2076.5,2073,2063,2056.5,2053,2046,2042.5,2035.5,2035.5,2029,2022.5,2022.5,2015.5,2009,2005.5,2005.5,1999.5,1992.5,1986.5,1983,1986,1983,1983,1980,1980,1980,1986.5,1986.5,1986.5,1986.5,1983,1983,1977,1977,1970.5,1961.5,1961.5,1952,1946.5,1940.5,1934.5,1928.5,1925.5,1923,1916.5,1913.5,1907.5,1896,1889.5,1880.5,1866.5,1849.5,1833,1819.5,1811,1798.5,1788,1788,1780,1777,1774.5,1774.5,1772,1769.5,1767,1764.5,1762,1757,1754,1754,1754,1754,1751.5,1754,1751.5,1749.5,1747,1747,1739.5,1739.5,1730,1727.5,1723,1718,1718,1710.5,1705.5,1703.5,1699,1699,1699,1694.5,1689.5,1684.5,1680.5,1680.5,1675.5,1675.5,1671.5,1669,1664.5,1660,1657.5,1653.5,1648.5,1644.5,1640,1636,1633.5,1631.5,1629.5,1625,1620.5,1616.5,1614.5,1612.5,1608,1606,1601.5,1599.5,1595.5,1591,1587,1583,1575,1567,1559,1553,1545,1541.5,1538,1532,1526,1522.5,1519,1517,1511.5,1509.5,1505.5,1504,1500,1498.5,1496.5,1494.5,1496.5,1494.5,1491,1489,1485.5,1484,1480,1476.5,1471.5,1468,1464.5,1461.5,1461.5,1459.5,1458,1458,1456,1456,1457.5,1457.5,1457.5,1461
751,753,754.5,756.5,758,761,764,767,770,772.5,776,779,781,783,785.5,788,791,793.5,796.5,800,802.5,805.5,809,812.5,816.5,819,821.5,824,827.5,830,832.5,835.5,838.5,841,843.5,846,848,851.5,854,856.5,860,863.5,868.5,873,878,883,888,891,895,898,901,903,905.5,909,911,915,919,923,927,930.5,932.5,935,937,940,942.5,945,948,952.5,957,961.5,965.5,969.5,974.5,977.5,980,982.5,984.5,986,988.5,991.5,996.5,999.5,1003.5,1008.5,1014.5,1020.5,1025.5,1031.5,1037,1041,1045.5,1050,1054.5,1058.5,1062.5,1068.5,1072.5,1077.5,1082.5,1087,1092,1100,1106,1113,1118,1125,1131,1136,1143,1147,1151,1157.5,1163,1167.5,1174.5,1179.5,1186.5,1193.5,1200.5,1207,1215,1219,1225.5,1229.5,1233,1238,1239.5,1246.5,1254.5,1264.5,1273.5,1284.5,1295,1306,1316,1325.5,1331.5,1336,1337.5,1340.5,1343.5,1346.5,1350.5,1356,1364,1373,1382,1392,1401.5,1411,1421,1429,1439,1451,1461,1471.5,1484,1491,1504,1517,1530,1540,1551,1561,1569,1579,1591.5,1603.5,1614.5,1625,1634,1642,1653,1660,1666.5,1675.5,1685,1696.5,1708,1722.5,1739.5,1755,1769.5,1782.5,1795.5,1808.5,1822,1835.5,1846.5,1860.5,1877.5,1897.5,1916,1939.5,1958,1980.5,1993,2006,2016,2019,2025.5,2025.5,2022.5,2019,2019,2015.5,2015.5,2019,2026,2026,2029.5,2032.5,2039.5,2046,2052.5,2059.5,2063,2066.5,2066.5,2069.5,2073,2080,2083.5,2080,2087.5,2087.5,2094.5,2094.5,2098.5,2098.5,2098.5,2098.5,2102,2102,2098.5,2095,2091,2087.5,2084,2076.5,2076.5,2070,2063,2063,2056.5,2053,2049.5,2046,2042.5,2039.5,2039.5,2036,2036,2036,2032.5,2039.5,2042.5,2042.5,2046,2049.5,2053,2056,2059.5,2063,2063,2063,2063,2067,2067,2067,2063.5,2067,2067,2067,2063.5,2063.5,2056.5,2059.5,2056,2052.5,2046,2043,2042.5,2039,2039,2035.5,2035.5,2032,2035.5,2035.5,2035.5,2039,2039,2039,2042.5,2042.5,2049.5,2049.5,2052.5,2059.5,2063,2070,2074,2081,2088,2094.5,2094.5,2098.5,2098.5,2098.5,2091.5,2088,2084.5,2074,2070,2059.5,2052.5,2046,2039,2035.5,2032,2032,2032,2032,2039,2042.5,2046,2053,2056,2056,2063,2066.5,2073,2076.5,2076.5,2080,2084,2087.5,2091,2094.5,2094.5,2098.5,2098.5,2102,2098,2102,2101.5,2105,2098,2094.5,2094.5,2091,2083.5,2080,2076.5,2069.5,2063,2056.5,2053,2049.5,2039,2035.5,2032,2026,2022.5,2019,2012,2009,2009,2002.5,1996,1989.5,1989.5,1993,1989.5,1989.5,1989.5,1986.5,1996,1999,1999,2002.5,2009,2006,2002.5,2005.5,2002.5,1996,1990,1983.5,1977.5,1971.5,1964.5,1955.5,1952.5,1943.5,1944,1931.5,1931.5,1925.5,1922,1910.5,1898.5,1886.5,1872.5,1855,1841,1827.5,1814,1806,1798,1795.5,1793,1788,1785,1782.5,1782.5,1780,1775,1775,1772.5,1767.5,1765,1767.5,1764.5,1762,1764.5,1762,1759,1756.5,1754,1749.5,1747,1737.5,1732.5,1727.5,1725,1725,1718,1715.5,1710.5,1708,1706,1706,1706,1701,1699,1694.5,1689.5,1689.5,1684.5,1680.5,1675.5,1671.5,1669,1665,1662.5,1657.5,1648.5,1646.5,1642.5,1640,1638,1633.5,1631.5,1627,1625,1622.5,1618.5,1616.5,1614.5,1610,1606,1604,1599.5,1595.5,1591,1583,1577,1569,1559,1553,1549,1543,1540,1532,1528,1524,1520.5,1513,1513.5,1509.5,1505.5,1504,1502,1502,1498.5,1500.5,1500,1496.5,1495,1491,1489.5,1486,1482,1478.5,1473,1473,1470,1470,1466,1466,1464.5,1466.5,1466,1468,1466.5,1469.5,1468
752.5,754,755,757,758.5,761.5,764,767,770.5,773,776.5,779.5,781.5,783.5,786.5,789,792,794,797.5,800.5,804,807,810,813.5,817,820,822.5,825.5,828.5,831,834.5,837.5,839.5,842.5,844.5,847,849.5,852,854,857.5,861,864.5,869.5,874,879,884,888.5,892,895,898.5,901,904,906,908.5,912.5,915,919,923,928,931,933.5,936.5,939,942,943.5,946.5,950.5,954,958.5,963,966,969.5,974.5,978,981.5,983.5,985.5,987.5,990,994,997.5,1002.5,1006.5,1011.5,1018,1023,1028.5,1033.5,1039,1044,1048,1054.5,1058,1062.5,1067.5,1071.5,1077.5,1083.5,1087,1091,1097,1103,1109,1115,1121,1127,1133,1139,1145,1150,1153,1158.5,1164.5,1169.5,1174.5,1181,1188.5,1194.5,1201.5,1208.5,1216,1222,1228,1230.5,1235.5,1238,1241.5,1249.5,1256.5,1264.5,1276.5,1287,1297.5,1308.5,1319,1328.5,1333,1337.5,1342,1345,1347.5,1352,1356,1365.5,1370,1380.5,1390.5,1400,1408,1419,1426,1435.5,1446,1454.5,1465,1477,1486,1495,1507.5,1518.5,1530,1545,1555,1565,1577,1589.5,1599.5,1612.5,1620.5,1631.5,1640,1649,1660,1666.5,1675.5,1685,1692,1706,1718,1730,1744.5,1759.5,1777.5,1787.5,1800.5,1816.5,1830,1843.5,1857.5,1871.5,1889.5,1910,1928,1949,1971,1986.5,1999.5,2012.5,2022.5,2029,2025.5,2025.5,2022.5,2022.5,2019,2019,2019,2022.5,2022.5,2029.5,2033,2036,2042.5,2049.5,2052.5,2063,2066.5,2070,2073,2076.5,2076.5,2080,2083.5,2083.5,2087.5,2094.5,2094.5,2098,2098,2101.5,2105.5,2105.5,2105.5,2101.5,2101.5,2098,2094.5,2091,2083.5,2080,2073,2069.5,2063,2059.5,2056.5,2053,2049.5,2046,2042.5,2042.5,2039.5,2036,2032.5,2036,2036,2036,2042.5,2046,2046,2053,2059.5,2063,2066.5,2063,2066.5,2066.5,2063,2067,2067,2067,2067,2063.5,2063.5,2063.5,2063.5,2063.5,2059.5,2063,2059.5,2059.5,2059.5,2056,2049.5,2049.5,2049.5,2049.5,2046,2042.5,2039,2042.5,2042.5,2046,2049.5,2046,2056,2052.5,2052.5,2056,2059.5,2063,2067,2074,2074,2081,2088,2091.5,2095.5,2098.5,2098.5,2094.5,2088,2088,2081,2077.5,2066.5,2063,2056,2049.5,2042.5,2039,2039,2039,2039,2042.5,2046,2049.5,2053,2056,2059.5,2063,2070,2073,2080,2083.5,2083.5,2087.5,2087.5,2091,2094.5,2094.5,2102,2098.5,2098.5,2102,2105.5,2105.5,2105,2105,2105.5,2101.5,2098,2094.5,2091,2087,2083.5,2076.5,2069.5,2063,2060,2053,2049.5,2042.5,2039,2029,2029,2026,2022.5,2015.5,2012,2006,2006,1999,1999,1996,1996,1996,1999.5,1999.5,2005.5,2016,2016,2019,2025.5,2025.5,2025.5,2025.5,2029,2019,2012.5,2009.5,2006,1993,1987,1977.5,1974.5,1965,1962,1959,1950,1947,1940.5,1934.5,1919,1907.5,1892,1878,1863.5,1849.5,1830.5,1822,1811.5,1806,1803,1800.5,1798,1795.5,1795,1792.5,1790,1787.5,1782.5,1780,1780,1780,1777.5,1775,1775,1769.5,1767,1767.5,1762,1754,1751.5,1745,1742.5,1737.5,1735,1730,1725,1722.5,1720.5,1715.5,1715.5,1715.5,1715.5,1713,1708,1703.5,1701,1699,1697,1694.5,1687,1680.5,1678,1673.5,1669,1662.5,1657.5,1651,1644.5,1644.5,1642.5,1640,1638,1633.5,1631.5,1629,1625,1622.5,1620.5,1618.5,1614.5,1610,1608,1604,1595.5,1589,1583,1575,1567,1561,1555,1549,1545,1539.5,1534,1528,1522.5,1519,1517,1513.5,1509.5,1509.5,1505.5,1505.5,1503.5,1503.5,1505.5,1502,1498,1498.5,1494.5,1491,1487.5,1484,1482.5,1478.5,1478.5,1477,1476.5,1475,1475,1475,1475,1476.5,1476.5,1476.5,1478.5
753,754.5,756,757.5,759,761.5,764.5,767.5,770.5,774,777,779.5,782,784.5,787,790.5,792.5,795.5,798,801.5,804.5,807.5,810.5,814,817.5,820.5,824,826.5,830,832.5,835.5,839,842,844.5,847,849.5,850.5,853,856,859,862.5,867,871,875,880.5,884.5,888.5,892.5,896,898.5,901,904.5,906,909.5,912.5,915.5,920.5,923.5,928,931.5,934.5,937.5,940,943,945,948,951.5,955.5,960,963,967.5,971.5,975,979,982,984.5,986,988.5,991.5,994.5,999.5,1003.5,1009.5,1014.5,1019.5,1025.5,1030.5,1036.5,1042,1046.5,1051,1056,1061,1065.5,1071,1076.5,1081.5,1087,1090,1094,1100,1107,1112,1118,1123,1129,1135,1143,1147,1152,1155.5,1161,1164.5,1170.5,1177.5,1183,1190,1196.5,1203.5,1209.5,1218,1224,1229,1233,1237,1240.5,1244.5,1250.5,1256.5,1267.5,1277.5,1289.5,1300.5,1311.5,1321,1330,1336,1340.5,1345,1350.5,1352,1357.5,1364,1373,1379,1390.5,1401.5,1406.5,1416,1426,1432.5,1443,1451,1459.5,1470,1482.5,1489.5,1500,1511.5,1522.5,1536,1549,1561,1571,1583,1595.5,1608,1618.5,1629.5,1638,1651,1655.5,1666.5,1673.5,1680.5,1689.5,1698.5,1710.5,1722.5,1735,1752,1767,1780,1793,1806,1824.5,1835.5,1852,1863.5,1881,1898,1919,1937,1955,1977.5,1993,2009.5,2019,2026,2032.5,2029,2029,2029,2026,2019,2019,2022.5,2022.5,2026,2029.5,2033,2039,2046,2053,2056,2066.5,2070,2073.5,2073.5,2076.5,2080,2083.5,2087,2091,2094.5,2098.5,2102,2101.5,2105,2105,2109,2109,2109,2105.5,2102,2098,2098,2094.5,2084,2080,2076.5,2069.5,2066,2060,2060,2056.5,2053,2049.5,2046,2042.5,2042.5,2039.5,2039.5,2036,2039.5,2042.5,2046,2049.5,2053,2053,2059.5,2063,2066.5,2066.5,2063,2066.5,2066.5,2063,2063,2063,2063,2063,2063,2067,2067,2063,2063,2063,2063,2059.5,2063,2059.5,2060,2056.5,2056.5,2053,2053,2046,2046,2049.5,2049.5,2052.5,2052.5,2056,2059.5,2059.5,2059.5,2063,2063,2067,2070.5,2074,2077.5,2081,2088,2088,2091.5,2091.5,2094.5,2091,2087.5,2081,2077.5,2073.5,2070,2059.5,2056.5,2053,2046,2046,2042.5,2042.5,2049.5,2053,2056.5,2059.5,2063,2066.5,2066.5,2073.5,2080.5,2080.5,2084,2087.5,2087,2091,2094.5,2098,2098,2098,2102,2105.5,2102,2105.5,2105.5,2109,2109,2109,2109,2105.5,2105.5,2102,2098.5,2091,2091,2083.5,2076.5,2069.5,2066,2056.5,2053,2049.5,2046,2039,2036,2032.5,2032.5,2029,2025.5,2015.5,2015.5,2009,2009,2002.5,2002.5,2002.5,2009,2009,2019,2025.5,2032.5,2035.5,2039,2046,2049.5,2046,2042.5,2039,2032.5,2029,2022.5,2012.5,2009,2000,1993.5,1987.5,1984.5,1978,1971.5,1965.5,1962,1956.5,1947,1931.5,1919,1901,1886,1872,1855,1843.5,1830,1827.5,1822,1819.5,1817,1814,1811.5,1806,1806,1803,1800.5,1795.5,1793,1793,1790.5,1788,1785.5,1782.5,1780,1772.5,1770,1764.5,1759.5,1754,1747,1742.5,1740,1737.5,1732.5,1732.5,1727.5,1725,1727.5,1725.5,1725.5,1723,1718,1715.5,1713,1708,1708,1703.5,1699,1694.5,1687,1682.5,1676,1671,1662.5,1657.5,1653.5,1651,1646.5,1644.5,1642.5,1638,1636,1634,1631.5,1627,1627,1624.5,1620.5,1618.5,1612,1610,1604,1597.5,1591,1585,1577,1571,1565,1557,1551,1547,1539.5,1534,1528,1524,1522.5,1520.5,1517,1515,1513,1511.5,1511.5,1511.5,1509.5,1507.5,1506,1504,1502,1498.5,1496.5,1491,1489.5,1489.5,1485.5,1485.5,1485.5,1484,1484,1484,1486,1485.5,1485.5,1485.5,1487.5
754.5,756,756,758,760,761.5,764.5,767.5,771,774.5,778,780,782.5,785,787.5,791,793.5,796,799,802.5,805,808.5,812,815,818.5,821,824.5,828.5,831,834.5,838,840.5,843.5,846,849,851,853,855,858,860.5,864,868.5,873,876.5,881,886,890.5,893.5,897,899,902,905,908,909.5,913,916.5,920.5,924.5,929,933,935.5,938.5,942,944,946.5,949.5,952.5,957,961.5,964.5,968,972,975.5,979,982,984.5,987.5,989,993.5,996.5,1002,1007.5,1011.5,1018,1023,1028.5,1033.5,1037.5,1043,1047.5,1053,1059,1063.5,1069,1074.5,1080.5,1086,1090,1094,1098,1103,1108,1115,1121,1126,1132,1138,1145,1150,1155,1159,1163,1168.5,1174.5,1180,1186.5,1192.5,1200.5,1207.5,1213.5,1219.5,1228,1233,1237,1239,1242,1245.5,1251.5,1259.5,1269.5,1280.5,1292.5,1303.5,1313,1324,1331.5,1337.5,1343.5,1349,1353.5,1357.5,1364,1370,1379,1387.5,1398.5,1408,1414.5,1424.5,1431,1439,1446,1456.5,1465,1473.5,1484.5,1495,1504,1515,1528,1541.5,1553,1567,1579,1591.5,1603.5,1616.5,1629.5,1638,1646.5,1655.5,1662,1671,1678,1685,1694,1703.5,1713,1727.5,1742,1755,1767,1785,1795.5,1811,1836,1846.5,1863.5,1878,1895,1916,1934,1949,1968,1986.5,1999.5,2012.5,2022.5,2029,2032.5,2029,2029,2029,2026,2026,2026,2022.5,2029.5,2033,2033,2036,2042.5,2049.5,2056.5,2059.5,2070.5,2074,2077.5,2077.5,2084,2087.5,2091,2095,2098.5,2102,2102,2105.5,2101.5,2105,2109,2109,2109,2113,2109.5,2102,2102,2098.5,2094.5,2084.5,2084,2076.5,2070,2069.5,2060,2060,2060,2056.5,2053,2049.5,2046,2046,2042.5,2039,2036,2039,2046,2049.5,2053,2056.5,2059.5,2063,2063,2066.5,2066.5,2066.5,2063,2063,2063,2059.5,2059.5,2059.5,2059.5,2059.5,2063,2066.5,2063,2063,2066.5,2070,2066.5,2066.5,2066,2066,2063,2063,2059.5,2059.5,2053,2056,2052.5,2052.5,2052.5,2059.5,2059.5,2063,2063,2063,2063,2063,2067,2067,2070.5,2074,2077.5,2077.5,2084.5,2088,2088,2084.5,2087.5,2080.5,2080.5,2076.5,2069.5,2066,2060,2056.5,2053,2053,2053,2056,2056,2056.5,2066,2069.5,2070,2073.5,2077.5,2077.5,2084,2084,2091,2094.5,2094.5,2095,2098.5,2098,2098,2101.5,2098,2102,2098.5,2102,2105.5,2109,2109,2109,2112.5,2112.5,2112.5,2109,2105.5,2102,2098.5,2094.5,2091,2083.5,2080,2069.5,2066.5,2059.5,2056,2049.5,2049.5,2046,2046,2039.5,2039.5,2036,2032.5,2025.5,2019,2019,2019,2016,2012.5,2019,2022.5,2029,2036,2039,2046,2053,2056.5,2060,2060,2060,2053,2049.5,2046,2039,2032.5,2029,2019,2012.5,2006.5,2003,1997,1987.5,1984.5,1981,1975,1965,1953,1940.5,1925,1909.5,1892,1874.5,1863,1852,1849,1844,1841,1830,1827.5,1825,1825,1822,1819.5,1817,1814,1814,1811.5,1806,1801,1798.5,1796,1790.5,1785,1780,1775,1769.5,1762,1757,1752,1749.5,1747,1745,1742.5,1740,1737.5,1737,1734.5,1734.5,1732.5,1730,1727.5,1727.5,1723,1720.5,1718,1713,1703.5,1699,1692,1687,1678,1673.5,1664.5,1660,1657.5,1653.5,1651,1646.5,1646.5,1644.5,1640,1638,1636,1633.5,1629.5,1627,1622.5,1620.5,1614,1610,1604,1595,1589,1581,1577,1571,1563,1555,1551,1543.5,1539.5,1534,1532,1526,1524,1522.5,1520.5,1520.5,1517,1516.5,1517,1515,1513,1511,1511,1509.5,1505.5,1503.5,1500,1498,1496.5,1496.5,1495,1493,1493,1495,1491,1493,1494.5,1494.5,1494.5,1492.5
755,756,757,758.5,760.5,762.5,764.5,768,771.5,775,777.5,780,783,785.5,789,791.5,794.5,796.5,799.5,802.5,806,809,812.5,816.5,819.5,823,826,829.5,831.5,835.5,838.5,842,844.5,847.5,850.5,852.5,855,857,860,863.5,867,870,874.5,878.5,882.5,886.5,890.5,894.5,896.5,899,902.5,906,907.5,911,914,917.5,922,926,930,934,937.5,939.5,942.5,945,948,951,954,958.5,962,965,969,973.5,976.5,981,983,985,989,992,995.5,999.5,1004.5,1009.5,1014.5,1019.5,1025.5,1029.5,1035,1039.5,1043.5,1049,1055,1060,1066,1071,1076.5,1083,1089,1093,1097,1101,1106,1111,1116,1122,1128,1134,1140,1147,1152,1158,1162,1166.5,1170.5,1176.5,1183,1190,1197,1203.5,1211,1215.5,1224.5,1230.5,1234,1237,1240.5,1244,1248,1254,1262,1271,1281.5,1292.5,1305,1316,1324,1333,1340.5,1347.5,1353.5,1359,1365.5,1370,1379.5,1387.5,1395,1406,1414,1423,1429,1437.5,1444.5,1454.5,1461,1470.5,1479,1488,1496.5,1509.5,1518.5,1534,1549,1561,1573,1585,1599.5,1610,1622.5,1633.5,1642,1651,1660,1666.5,1673.5,1680,1687.5,1698.5,1708.5,1720,1732.5,1747,1759.5,1772,1788,1803.5,1819.5,1838.5,1855,1872,1886,1907.5,1925,1943,1958,1980.5,1989.5,2006,2016,2022.5,2029,2032.5,2032.5,2032.5,2029,2029,2025.5,2029,2032.5,2032.5,2039,2039,2042.5,2046,2049.5,2056.5,2067,2070.5,2077.5,2081,2084,2087.5,2091,2094.5,2098.5,2102,2105.5,2109,2105.5,2105.5,2105,2109,2109,2109.5,2109.5,2109.5,2103,2099.5,2095.5,2092,2088,2081,2074,2073.5,2070,2063,2060,2060,2060,2053,2053,2049.5,2049.5,2042.5,2042.5,2042.5,2046,2049.5,2053,2056.5,2059.5,2063,2066.5,2070,2070,2070,2066.5,2066.5,2063,2063,2063,2059.5,2059.5,2059.5,2059.5,2063,2063,2066.5,2066.5,2070,2070,2069.5,2069.5,2069.5,2069.5,2070,2066.5,2066.5,2059.5,2063,2059.5,2056,2059.5,2059.5,2059.5,2063,2063,2063,2063,2063,2063.5,2063.5,2063.5,2063.5,2067,2067,2070.5,2077.5,2074,2077.5,2077.5,2076.5,2073,2069.5,2066,2063,2059.5,2056,2056,2056,2059.5,2059.5,2059.5,2063,2069.5,2073,2076.5,2084,2084,2087.5,2087.5,2091,2094.5,2098,2098,2098,2098.5,2102,2098,2101.5,2098,2098,2098,2102,2102,2105.5,2109,2109,2112.5,2116,2116,2116,2112.5,2112.5,2109,2102,2102,2098.5,2091,2087,2076.5,2073,2070,2066.5,2059.5,2059.5,2056,2056,2052.5,2052.5,2049,2046,2039.5,2039.5,2032.5,2032.5,2029,2029,2029,2032.5,2039,2046,2053,2056.5,2063,2063,2066,2066,2066,2060,2060,2056.5,2053,2046,2039.5,2036,2029.5,2026,2019.5,2013.5,2010,2000.5,1997.5,1991,1981.5,1971,1955.5,1943,1928,1912.5,1901,1883,1874.5,1871.5,1866,1857.5,1849.5,1844,1846.5,1838.5,1838.5,1838.5,1836,1830.5,1828,1828,1822,1817,1811.5,1809,1803.5,1798.5,1793,1788,1783,1772,1767,1764.5,1762,1759.5,1756.5,1754,1751.5,1749.5,1752.5,1752.5,1747,1747,1742,1739.5,1739.5,1737,1734.5,1730,1723,1718,1713,1703.5,1694.5,1689.5,1682.5,1673.5,1669,1662,1662.5,1657.5,1653.5,1651,1648.5,1646.5,1644,1642,1640,1638,1633.5,1631.5,1627,1620.5,1616.5,1610,1604,1597.5,1589,1583,1577,1569,1563,1555,1549,1545,1540,1536,1532,1530,1526,1526,1524.5,1524.5,1524.5,1522.5,1519,1517,1517,1515,1515,1511.5,1511.5,1509.5,1507.5,1506,1506,1502,1502,1502,1502,1502,1502,1504,1502,1502,1500.5
756,757,758,759.5,761.5,762.5,765,768,772,775.5,778,781,783.5,785.5,790,792.5,795.5,797.5,800.5,803.5,806.5,809.5,814,817,820.5,823.5,828,830.5,833,837,840,843,846,849.5,851.5,853.5,856.5,858.5,861,865,868.5,873,876,880,883.5,888,892,895,897.5,900.5,903.5,907,909,912,915,917.5,922,926,930,934.5,937.5,940.5,943,946,949.5,952.5,957,960,964,967,970.5,974,978,981.5,984.5,987.5,991,994,997,1002,1006.5,1012.5,1016.5,1022,1027.5,1032.5,1036,1041.5,1043.5,1050.5,1056,1062,1069,1074,1079,1086,1092,1096,1100,1103,1107,1112,1118,1124,1130,1135,1141.5,1148,1154,1160,1164,1168.5,1173,1181,1185.5,1193.5,1200.5,1207.5,1213.5,1220.5,1226.5,1233,1237,1239,1242,1247,1252,1257,1263.5,1273.5,1283,1294,1304.5,1317.5,1325.5,1336,1344.5,1350.5,1357.5,1365.5,1371.5,1379.5,1385.5,1395,1403,1410.5,1419,1427.5,1435.5,1442.5,1449,1456,1466.5,1473.5,1484.5,1495,1506,1517,1528.5,1543.5,1555,1567,1581,1593.5,1605.5,1616.5,1629.5,1642,1649,1657.5,1664,1669,1678,1682.5,1692,1701,1713,1722.5,1737.5,1752,1764.5,1782.5,1801,1814,1833,1852,1869.5,1886,1904.5,1922,1939.5,1955,1971,1983.5,1996,2012.5,2019,2029,2035.5,2032.5,2029,2032.5,2029,2025.5,2025.5,2029,2032.5,2036,2039,2039,2042.5,2049.5,2053,2056.5,2067,2070.5,2081,2084,2091,2094.5,2098,2102,2105.5,2109,2105.5,2109,2109,2105.5,2105,2105.5,2105.5,2109.5,2103,2103,2099.5,2096,2088.5,2085,2081,2074,2074,2070,2070,2059.5,2060,2060,2056.5,2056.5,2056.5,2056.5,2053,2049.5,2049.5,2049.5,2053,2053,2059.5,2059.5,2063,2063,2070,2070,2070,2070,2066.5,2066.5,2059.5,2056,2056,2052.5,2052.5,2056,2056,2059.5,2063,2066.5,2066.5,2070,2073,2069.5,2073,2073,2073,2073,2070,2066.5,2063,2059.5,2063,2059.5,2059.5,2059.5,2059.5,2059.5,2059.5,2063,2059.5,2063,2059.5,2059.5,2059.5,2053,2056,2056,2059.5,2063,2063,2066.5,2063,2063,2063,2063,2063,2059.5,2059.5,2056,2059.5,2059.5,2063,2070.5,2074,2077.5,2080.5,2080,2087,2094.5,2094.5,2094.5,2094.5,2101.5,2101.5,2105.5,2101.5,2101.5,2102,2102,2102,2102,2101.5,2101.5,2098,2102,2102,2105.5,2109,2113,2112.5,2116,2116,2119.5,2119.5,2116,2116,2109,2109,2102,2098.5,2095,2087.5,2084,2076.5,2073.5,2070,2066.5,2066.5,2070.5,2063,2063,2063,2063,2056,2052.5,2052.5,2049,2049,2046,2046,2046,2049.5,2053,2059.5,2063,2066.5,2069.5,2073,2073,2069.5,2066,2066,2063,2056.5,2053,2049.5,2046,2039.5,2036,2036,2026.5,2023,2020,2013.5,2006.5,1993.5,1984,1971.5,1958,1948.5,1933.5,1921,1907,1898,1889,1883.5,1877.5,1871.5,1863,1860.5,1857.5,1855,1852.5,1849.5,1847,1844.5,1841.5,1836,1828,1825,1819.5,1814.5,1809,1803.5,1798.5,1793.5,1785.5,1780,1774.5,1775,1772.5,1770,1767.5,1767.5,1764.5,1764.5,1767,1762,1759.5,1759.5,1755,1755,1752.5,1747,1742,1737,1730,1723,1715.5,1703.5,1697,1689.5,1682.5,1678,1669,1666.5,1664.5,1662,1658,1658,1655.5,1651,1651,1646.5,1644.5,1640,1635.5,1631.5,1627,1620.5,1616.5,1610,1604,1595,1589,1583,1575,1567,1561,1553,1547,1543,1543,1540,1536,1534,1534,1534,1532,1532,1528,1528,1524.5,1524,1524,1522.5,1519,1518.5,1516.5,1515,1515,1511.5,1511.5,1511.5,1511,1511,1511,1509.5,1509.5,1507.5,1507.5,1505.5
