4634.5,4634.5,4618,4618,4602,4602,4602,4620.5,4605,4593,4596.5,4586.5,4627,4653.5,4660.5,4704,4726,4763.5,2677.5,2701,2701,2701,2701,2677.5,2654.5,5094.5,5031,4950,4928,4850,4811.5,4755.5,4701,4647.5,4596,4562,4528.5,4512,4512,4512,4512,4562,4596,4630.5,4683,4737.5,4755.5,4774,4792.5,4811.5,4792.5,4774,4792.5,4755.5,4755.5,4737.5,4719.5,4720.5,4702,4685,2281,2264,2264,2264,2264,2281,2298,2298,2315,4665,4683,2387,4737.5,4774,4774,4793,4775,4813.5,4795.5,4795.5,4815.5,4836,4836,4818.5,4818.5,4836,4856.5,4874.5,4892.5,4931.5,4913,4934.5,4974.5,4996.5,5037,5037,5060,5079,5102,5102,5121,5121,5075,5075,5034,4993,4974.5,4916.5,4877,4842.5,4808.5,4759.5,4759.5,4713,4677,4677,4656.5,2503.5,2483,4714,4744,4795.5,2463,2463,2443.5,2443.5,2443.5,2443.5,2424.5,2424.5,2405.5,2405.5,2405.5,2405.5,2405.5,2387,2405.5,2405.5,2405.5,2405.5,2405.5,2424.5,2443.5,2483,2483,2503.5,2524,2524,2544.5,2566,2587.5,2587.5,2587.5,2587.5,2587.5,2587.5,2587.5,2566,2566,2566,2566,2566,2566,2566,4765.5,4765.5,4781,4797,4781,4781,4749.5,4734.5,4713,4682.5,4697.5,4662,4677,4677,4687,4723.5,4775.5,4792,4847,4885.5,4960,4978,5018.5,5079,5098,5160.5,5181,5222,5220.5,5220.5,5219,5197,5132,5110.5,5068.5,5027.5,4986.5,4946,4946,4946,4926.5,2503.5,4928,4967.5,4948.5,2524,4988,2544.5,5027.5,5048,5068.5,5110.5,5132,2544.5,2544.5,2544.5,2544.5,2544.5,2544.5,2544.5,2544.5,2544.5,2544.5,2566,2566,2566,2587.5,2587.5,2587.5,2587.5,2609.5,2609.5,2609.5,2609.5,2631.5,2631.5,2609.5,2609.5,2609.5,2609.5,2609.5,2587.5,2566,2566,2566,2566,2566,2566,2566,2587.5,2566,2587.5,2587.5,2609.5,2609.5,2609.5,2609.5,2631.5,2631.5,2631.5,2631.5,2631.5,2631.5,2631.5,2631.5,2609.5,2587.5,2587.5,2587.5,2587.5,2587.5,2587.5,2587.5,2587.5,2587.5,2587.5,2587.5,5197,5197,5197,5175.5,5197,5153.5,5153.5,5132,5110.5,5090,5091,5029,5009.5,4990.5,4971.5,4953,4913,4874.5,4892.5,4911,4929.5,4948.5,4947,4987,5007,5027.5,5048,5068.5,5068.5,5089,5110.5,5110.5,5132,5111.5,5091,5050.5,5012,4956,4902.5,4847,4797,4713,2524,2503.5,2503.5,2483,2443.5,2443.5,2424.5,2405.5,0,0,0,0,0,0,0,0,0,0,0,0,0,0,0,0,0,0,0,315.5,316,317,0,319,321,322.5,323.5,659,658.5,658,657.5,657,654.5,653,651.5,650,648.5,647,644.5,644,642,641,639.5,639,638,637,636.5,636,634.5,634,633.5,632.5,632,630.5,629.5,628.5,628,626.5,625.5,624.5,623.5,622,621,620,619,619,617.5,617,617,616,615.5,615.5,615,614.5,614,614,614,613.5,613,613,612.5,612.5,612.5,612.5,612,611.5,612,612,611.5,611,611,610,608.5,608.5,608,607.5,606.5,606.5,606,606,605.5,605.5,605.5,605,605,605,605,605,605.5,606,606,606,606.5,606.5,607,608,608,608.5,609.5,610,610.5,611.5,612,612.5,613.5,614,614.5,615.5,616.5,617.5,618.5,619,620.5,622,623,623.5,625,626,627,628,313.5,314,0,1293.5,2661.5,2650,2656,2650,2649.5,2644,2633,2621.5,2605.5,2594,2578.5,2556.5,2546,2541,2525.5,2515.5,2500,2489.5,2479,2474,2463.5,2453.5,2448.5,2443.5,2439,2434,2434,2429,2419.5,2410.5,2406,2396.5,2392,2378,2374,2360.5,2361,2356.5,2348,2349,2349,2350,2345.5,2346,2337.5,2329.5,2326,2318,2305,2296,2274.5,2262,2245,2228,2207,2190.5,2179,2166.5,2162.5,2162.5,2162.5,2158.5,2151,2147,2135.5,2120,2105.5,2098,2087.5,2084,2066.5,2053,2042.5,2035.5,2032.5,2025.5,2016,2006,1999.5,1996,1990,1990,1983,1977,1974,993,990,987,1955,980.5,977.5,974.5,968.5,965,959,956,950.5,944.5,938.5,936,933,930,930,927.5,927.5,924.5,924.5,922,919,916.5,913.5,913.5,911,908.5,905.5,905.5,900.5,897.5,892.5,890,887.5,882.5,882.5,879.5,877,877,877,874.5,874.5,874.5,874.5,874.5,874.5
4632.5,4616,4616,4618,4599.5,4583.5,4583.5,4583.5,4586.5,4574,4596.5,2443.5,2483,4647.5,4668,4696.5,2631.5,2654.5,2677.5,2677.5,2677.5,2677.5,2677.5,2677.5,2654.5,2631.5,2609.5,2566,4911,4870,4830.5,4756,4719.5,4648.5,4596,4562,4545.5,4512,4512,4529,4529,4562.5,4613.5,4683.5,4719.5,4755.5,4792.5,4811,4830,4849,4849,4811.5,4793,4793,4775,2332.5,2315,2298,2298,2264,2264,2247.5,2247.5,2247.5,2247.5,2264,2281,2298,2332.5,2332.5,2368.5,2387,2405.5,2424.5,2443.5,2443.5,2463,2483,2483,2524,2524,2544.5,2544.5,2544.5,2544.5,2566,2566,2566,2609.5,2631.5,2631.5,2654.5,2677.5,2677.5,2701,2701,2725,2725,2725,2725,2725,2701,2701,2677.5,2654.5,2631.5,2631.5,2609.5,2609.5,2587.5,2587.5,2587.5,2587.5,2587.5,2566,2566,2544.5,2544.5,2544.5,2524,2503.5,2503.5,2483,2483,2483,2463,2463,2443.5,2443.5,2424.5,2424.5,2424.5,2424.5,2424.5,2405.5,2387,2405.5,2405.5,2405.5,2405.5,2424.5,2424.5,2443.5,2463,2503.5,2503.5,2524,2544.5,2544.5,2566,2566,2587.5,2587.5,2587.5,2587.5,2587.5,2609.5,2609.5,2609.5,2609.5,2609.5,2609.5,2609.5,2609.5,2609.5,2609.5,2609.5,4778,4778,4778,4762.5,4747.5,4733,4733,4696.5,4689.5,4675,4668,4697.5,4734.5,4749.5,4802.5,4835,4873.5,4929.5,4982,5046,5088,5125.5,5188,5228.5,5225,5245.5,2701,2677.5,2631.5,5175.5,5132,5110.5,5048,5027.5,4987,4987,4966.5,2524,2524,2524,2544.5,2544.5,2544.5,2544.5,2544.5,5027.5,5048,5090,5110.5,5110.5,5153.5,5197.5,5220.5,5291,5365,5526.5,5645,5752,2566,2566,2566,2566,2566,2587.5,2587.5,2609.5,2609.5,2609.5,2609.5,2609.5,2631.5,2631.5,2631.5,5380.5,2631.5,2631.5,2631.5,2609.5,2587.5,2587.5,2587.5,2587.5,2587.5,2587.5,2587.5,2587.5,2587.5,2587.5,2609.5,2609.5,2609.5,2631.5,2631.5,2631.5,2631.5,2631.5,2654.5,2631.5,2631.5,2631.5,2631.5,2631.5,2609.5,2587.5,2609.5,5111.5,5111.5,5111.5,5113,5113,5133.5,5154,5154,5175.5,5175.5,5175.5,5175.5,5153.5,5153.5,5153.5,5132,5132,5111.5,5113,5070.5,5031,5012,5012,4993,4956,4916.5,4895,4913,4913,4931.5,4948.5,4948.5,4967.5,4966.5,4986.5,5027.5,5027.5,5048,5068.5,5090,5091,5070.5,5050.5,5050.5,4993,4956,4920,4885.5,4813.5,4781,2544.5,2524,2524,2503.5,2463,2463,2443.5,2424.5,2405.5,2387,0,0,0,0,0,0,0,0,0,0,0,0,0,0,0,0,0,315.5,316,317,317.5,318.5,0,321.5,323,324,657.5,658,657,656.5,655.5,653.5,652,650,648.5,647,645,644,642.5,641,640.5,639,638,637,636.5,636,634.5,634.5,633.5,632.5,632,631,630,629,627.5,627,626,625,624,623,622,621,620,619,619,617,617,617,616,615.5,615.5,614.5,614,614,613.5,613.5,613,612.5,612.5,612.5,612.5,612,612,611.5,611.5,611.5,611.5,610,610,609.5,609,608.5,607.5,607,606.5,606.5,606,606,605,604.5,604.5,604.5,604.5,604.5,604.5,605,605,605,605,605,606,606,606,606.5,607,608,608.5,609,610,610.5,611,612,612.5,613,614,614,615,616,617,618,619,620,621.5,622.5,624,624.5,626,626.5,627.5,628,629,314,1293.5,2650,2650,2644,2638,2638,2627,2616,2604.5,2594,2578,2567,2550.5,2540.5,2535.5,2520,2515,2510.5,2494.5,2489.5,2479,2474,2463.5,2453.5,2448.5,2443.5,2434,2434,2424,2419.5,2406,2405.5,2392,2387.5,2382.5,2369.5,2360.5,2356.5,2348,2348,2344,2340,2335.5,2331.5,2323,2323.5,2319.5,2311,2299,2290,2273,2251.5,2239.5,2222,2210.5,2198.5,2182.5,2174.5,2170.5,2170.5,2166.5,2163,2155,2155,2147,2131.5,2120,2105.5,2098,2087.5,2081,2066.5,2049.5,2039,2029,2029,2022,2012.5,2002.5,1996.5,1996,1990,1986.5,1980,1977,1974,1970.5,1967.5,1961.5,983.5,1952,1945.5,977.5,1936.5,968.5,965,956,950.5,947.5,944.5,938.5,933,933,930,927.5,927.5,924.5,922,922,919,916.5,913.5,913.5,911,908.5,905.5,903,900.5,897.5,892.5,890,885,882.5,879.5,879.5,877,877,874.5,874.5,874.5,874.5,874.5,877,877
4631.5,4614.5,4614.5,4598,4616,4599.5,4583.5,4583.5,4586.5,4589,2424.5,2443.5,4601,4627,4668,4711,2609.5,2654.5,2654.5,2677.5,2677.5,2677.5,2677.5,2677.5,2654.5,2631.5,2609.5,4971.5,4931.5,4872,4851.5,4775,4719.5,4683.5,4630.5,4596,4579,4562,4545.5,4529,4562.5,4596.5,4648.5,4701,4774,4792.5,4849,4868,4887.5,4868.5,4888.5,4850,4831.5,4813.5,4794,2315,2315,2281,2264,2247.5,2231,2231,2231,2231,2247.5,2264,2281,2315,2350.5,2350.5,2387,2405.5,2424.5,2443.5,2463,2483,2483,2524,2544.5,2544.5,2566,2587.5,2587.5,2587.5,2587.5,2587.5,2609.5,2609.5,2631.5,2654.5,2677.5,2677.5,2701,2725,2749,2749,2774,2749,2749,2774,2774,2749,2749,2701,2677.5,2654.5,2654.5,2631.5,2631.5,2631.5,2609.5,2609.5,2609.5,2609.5,2609.5,2609.5,2587.5,2587.5,2587.5,2566,2566,2544.5,2524,2524,2503.5,2503.5,2483,2463,2463,2443.5,2443.5,2443.5,2443.5,2424.5,2424.5,2424.5,2424.5,2424.5,2424.5,2424.5,2443.5,2443.5,2463,2483,2483,2503.5,2524,2544.5,2566,2566,2587.5,2587.5,2609.5,2609.5,2631.5,2631.5,2631.5,2631.5,2631.5,2631.5,2631.5,2631.5,2654.5,4532,4628.5,2654.5,2654.5,4749,4778,4778,4763.5,4726,4726,4712,4712,4690,4690,4690,4696.5,4725.5,4762.5,4793,4831,4879,4958.5,5016,5075.5,5093.5,5154.5,5198.5,5237,5252.5,5252.5,2749,2701,2701,2654.5,5176,5111.5,5069.5,5049,2544.5,2524,2524,2524,2524,2566,2566,2566,2566,2566,2566,2566,5031,5050.5,5070.5,5070.5,5111.5,5110.5,5153.5,5175.5,5291,5417,5526.5,5645,5645,5740.5,5828.5,2587.5,2587.5,2587.5,2609.5,2609.5,2609.5,2631.5,2631.5,2631.5,2631.5,2631.5,2631.5,2654.5,2631.5,2631.5,2631.5,2631.5,2609.5,2609.5,2587.5,2587.5,2609.5,2609.5,2609.5,2609.5,2609.5,2609.5,2631.5,2631.5,2631.5,2631.5,2631.5,2631.5,2631.5,2631.5,2631.5,2631.5,2631.5,2631.5,2609.5,2609.5,2609.5,2587.5,2587.5,5091,5070.5,5050.5,5072.5,5072.5,5094.5,5114.5,5114.5,5135,5158,5178.5,5155.5,5155.5,2631.5,2631.5,2609.5,5113,5113,5114.5,5094.5,5075,5056,5037,4996.5,4978,4938,4938,4916.5,4934.5,4931.5,4950,4950,4948.5,4967.5,4987,5007,5007,5027.5,5049,5049,5050.5,5031,5034,4996.5,4938,4902.5,4885.5,4830,4797,4781,2544.5,2544.5,2524,2503.5,2483,2463,2443.5,2424.5,2405.5,2387,0,0,0,0,0,0,0,0,0,0,0,0,0,0,0,0,0,316.5,317,318,318,319,320.5,321.5,323,324,655.5,656,655.5,654.5,654,652.5,651,649.5,647.5,645.5,644.5,643,642,640.5,639.5,638.5,637.5,636.5,636,635,634.5,633.5,633,632.5,631,630.5,629.5,628.5,627.5,627,625.5,624.5,623.5,623,621.5,621.5,620,619.5,619,617.5,617,616.5,616.5,615.5,615.5,614.5,614,613.5,613.5,612.5,612.5,612.5,612.5,612.5,612,611.5,611,611,611,610.5,610.5,610,609.5,609,608,607.5,607,606,605.5,605.5,604.5,604,604,604,603.5,603.5,603.5,603.5,603.5,603.5,603.5,603.5,604,604,605,605,605.5,606.5,606.5,607.5,608,609,609.5,610.5,611,612,612.5,613,613.5,614.5,614.5,616,617,618,618.5,619.5,621,622,623,624.5,625.5,626.5,627.5,628,629,629.5,0,1288.5,2633,2633,2627,2621.5,2604.5,2604.5,2588.5,2571.5,2561,2550.5,2540,2535,2519.5,2514.5,2504,2499,2494.5,2489,2479,2474,2468.5,2453.5,2443.5,2438.5,2438.5,2434,2429,2419.5,2405.5,2405.5,2387.5,2387,2378,2369.5,2360.5,2347,2347.5,2348,2339.5,2335.5,2321.5,2317.5,2317.5,2313.5,2309.5,2301,2288.5,2276.5,2259,2247,2230.5,2218,2202,2190,2178,2170.5,2170.5,2170.5,2163,2163,2155,2155,2143,2131.5,2120,2105.5,2094.5,2084,2077.5,2063,2049.5,2035.5,2025.5,2025.5,2019,2012.5,2002.5,1993,1996,1990,1986.5,1983,1977,1973.5,1973.5,1967.5,1964.5,1961,1958,1952,1946,1946,1940,965,959,956,950.5,944.5,941.5,936,933,930,927.5,924.5,924.5,922,919,916.5,916.5,913.5,911,911,908.5,905.5,903,900.5,897.5,892.5,887.5,885,879.5,879.5,877,877,877,874.5,877,877,877,877,877,879.5
4631.5,4631.5,4614.5,4614.5,4632.5,4616,4599.5,4618,4618,4605,2424.5,2424.5,4612,4651.5,4687,4728,2587.5,2609.5,2631.5,2631.5,2631.5,2654.5,2654.5,2631.5,2631.5,2609.5,2609.5,2566,2544.5,4890.5,4870,4830.5,4756,4719.5,4683,4648.5,4613.5,4613.5,4596.5,4580,4614.5,4649.5,4685,4738,4793,4830.5,4868,4887,4887,4887.5,4888.5,4850,4831.5,4833.5,2332.5,2315,2298,2298,2264,2247.5,2231,2231,2231,2247.5,2247.5,2264,2298,2332.5,2368.5,2387,2424.5,2443.5,2443.5,2483,2483,2503.5,2524,2544.5,2566,2566,2587.5,2609.5,2609.5,2609.5,2609.5,2631.5,2631.5,2654.5,2677.5,2701,2701,2725,2749,2749,2774,2799,2825,2799,2825,2825,2825,2799,2774,2749,2725,2701,2677.5,2677.5,2654.5,2654.5,2631.5,2631.5,2654.5,2654.5,2631.5,2631.5,2631.5,2609.5,2609.5,2609.5,2609.5,2587.5,2566,2544.5,2544.5,2544.5,2503.5,2503.5,2503.5,2483,2483,2483,2483,2483,2463,2443.5,2463,2443.5,2443.5,2443.5,2463,2483,2483,2503.5,2503.5,2524,2524,2544.5,2566,2587.5,2587.5,2609.5,2609.5,2631.5,2654.5,2654.5,2654.5,2654.5,2654.5,2677.5,2677.5,2677.5,2677.5,2677.5,2677.5,2677.5,2677.5,4744,2677.5,4772,4758,4744,4744,4744,4744,4707,4693.5,4707,4698,4726,4763.5,4792.5,4869.5,4900.5,4956,5030,5089,5131.5,2825,5212,2825,2799,2799,2799,2774,2749,2701,2677.5,2654.5,2631.5,2609.5,2587.5,2566,2566,2566,2566,2587.5,2587.5,2587.5,2587.5,2587.5,2587.5,2587.5,2587.5,2609.5,2609.5,2587.5,5070.5,5113,5154,5154,5219,5288.5,5361.5,5438.5,5465,5492.5,5548,2609.5,2609.5,2609.5,2609.5,2609.5,2609.5,2631.5,2631.5,2631.5,2654.5,2654.5,2654.5,2654.5,2631.5,2631.5,2631.5,2631.5,2631.5,2631.5,2609.5,2609.5,2631.5,2631.5,2631.5,2631.5,2631.5,2654.5,2631.5,2631.5,2654.5,2654.5,2654.5,2654.5,2631.5,2631.5,2631.5,2631.5,2631.5,2631.5,2609.5,2609.5,2609.5,2609.5,2609.5,2609.5,5070.5,5050.5,5075,5075,5098,5117.5,5140.5,5140.5,5160.5,5181,5201.5,5178.5,5158,5158,5137.5,5158,5137.5,5117.5,5079,5060,5060,5060,5023,5000,4960,4942,4960,4956,4934.5,4931.5,4931.5,4948.5,4967.5,4967.5,5007.5,5007.5,5007.5,5029,5031,5031,4993,4996.5,4960,4920,4868.5,4851.5,4835,4781,4781,2544.5,2524,2524,2503.5,2483,2463,2443.5,2424.5,2405.5,0,0,0,0,0,0,0,0,0,0,0,0,0,0,0,0,0,0,317,317.5,318,318.5,319.5,320.5,322.5,324,324.5,655.5,655.5,655,654.5,653.5,652,650.5,648,647,645.5,644,642,641.5,640,639,638,637,636.5,635,634.5,634,633,632.5,631,631,630,629,628.5,627.5,626.5,625.5,625,623.5,623,622,621.5,621,620,619,618,617.5,617,616.5,615.5,615.5,614.5,614.5,613.5,613.5,613,612.5,612.5,612,611.5,611,611,611,611,610.5,610.5,610,609.5,609,608,607.5,607,606,605.5,605,604.5,604,604,603.5,603.5,603.5,603.5,603,603,603,603,603,603,603.5,603.5,603.5,604,605,605.5,606.5,606.5,607.5,608.5,609,609.5,611,611.5,612,613,613.5,614.5,614.5,616,616.5,617.5,618.5,619.5,620.5,621.5,623,624.5,624.5,626.5,627.5,627.5,628.5,629.5,1277.5,2627.5,2621.5,2621.5,2610,2599,2593.5,2587.5,2582,2571.5,2555.5,2540,2529,2524,2519,2514,2504,2493.5,2493.5,2484,2474,2468.5,2463.5,2458.5,2448.5,2443.5,2434,2434,2429.5,2420,2410,2405.5,2396.5,2387,2378,2369.5,2360.5,2347,2342.5,2338.5,2334,2330,2321.5,2317,2313,2309,2305,2296.5,2288,2275.5,2258.5,2247,2238.5,2222,2206,2194,2186.5,2179,2174.5,2170.5,2167,2163,2163,2159,2147,2131.5,2120,2105.5,2091,2080.5,2073.5,2059.5,2049.5,2035.5,2025.5,2022,2019,2012.5,2002.5,1996,1996,1990,1986.5,1986.5,1980,1976.5,1976.5,1973.5,1973.5,1970.5,1967.5,1964,1958,1955,1952,1942.5,962,956,950.5,944.5,941.5,936,933,930,927.5,924.5,924.5,922,919,916.5,916.5,913.5,911,908.5,908.5,905.5,903,897.5,897.5,892.5,890,887.5,882.5,879.5,877,877,877,877,877,877,877,877,877,879.5
4666.5,4666.5,4666.5,4668,4668,4651,4651,4669.5,4653,4636.5,4639.5,4608,4678,4678,4734.5,4755,4775.5,4835,4868.5,4938,5015,2609.5,2631.5,2609.5,2609.5,2609.5,2566,2544.5,4967.5,4909,4887.5,4849,4792.5,4737.5,4719,4683,4647.5,4647.5,4648.5,4648.5,4666.5,4702,4757,4794,4831.5,4868.5,4887.5,4906.5,4906.5,4906.5,4907.5,4888.5,4870,4854,4836,4818.5,4781,2298,2264,2247.5,2247.5,2231,2231,2247.5,2264,2281,2315,2350.5,2368.5,2405.5,2443.5,2483,2483,2503.5,2524,2524,2544.5,2566,2566,2587.5,2609.5,2609.5,2609.5,2631.5,2631.5,2631.5,2654.5,2654.5,2677.5,2701,2725,2749,2774,5149.5,5175.5,5175.5,5238,5238,5256.5,5256.5,5238,5256.5,5230.5,2825,2799,2774,2749,2725,2701,2701,2677.5,2677.5,2677.5,2654.5,2654.5,2654.5,2654.5,2654.5,2654.5,2654.5,2631.5,2631.5,2609.5,2609.5,2609.5,2566,2566,2544.5,2524,2544.5,2544.5,2524,2524,2503.5,2503.5,2483,2483,2483,2463,2463,2483,2483,2503.5,2503.5,2524,2524,2544.5,2544.5,2566,2566,2587.5,2609.5,2609.5,2631.5,2631.5,2654.5,2654.5,2654.5,2677.5,2677.5,2701,2701,2701,2701,2701,2701,2701,2701,2701,4781.5,2701,4753.5,4753.5,4740,4726.5,4713.5,4690,4703,4716.5,4753.5,4767.5,4819.5,4872.5,4912,4957.5,5030,5072.5,2851,2877.5,2877.5,2877.5,2877.5,2851,2851,2825,2799,2749,2725,2701,2677.5,2654.5,2631.5,2609.5,2587.5,2587.5,2587.5,2609.5,2609.5,2609.5,2609.5,2609.5,2631.5,2631.5,2631.5,2631.5,2631.5,2631.5,2631.5,5037,5034,5053,5072.5,5092.5,5113,5133.5,5133.5,2609.5,2609.5,2631.5,2631.5,2631.5,2631.5,2654.5,2654.5,2654.5,2654.5,2654.5,2654.5,2654.5,2654.5,2677.5,2677.5,2677.5,2677.5,2677.5,2654.5,2654.5,2654.5,2654.5,2654.5,2654.5,2654.5,2654.5,2677.5,2677.5,2677.5,2654.5,2654.5,2654.5,2654.5,2654.5,2654.5,2654.5,2631.5,2631.5,2631.5,2631.5,2609.5,2609.5,2631.5,2609.5,2609.5,2609.5,2609.5,5094.5,5079,5079,5144.5,5144.5,5168.5,5188,5188,5232,5232,5228.5,5228.5,5204.5,5160.5,5160.5,5140.5,5144.5,5125.5,5106.5,5088,5069.5,5051.5,4992.5,4969.5,4929.5,4946.5,4942,4938,4938,4934.5,4953,4950,4969,4990.5,4990.5,5012,5012,4993,4974.5,4960,4942,4924.5,4890.5,4857,4818.5,4802.5,4765.5,4765.5,4728,2544.5,2524,2503.5,2483,2463,2443.5,2424.5,0,0,0,0,0,0,0,0,0,0,0,0,0,0,0,0,0,0,0,317,318,318.5,319.5,320.5,321,323,324,654.5,655,654.5,654,653.5,653,651,650,648,646.5,645.5,643.5,642,641,640,638.5,637.5,637,636,635,634,633.5,632.5,631.5,631,630.5,629,629,627.5,627,626,625.5,625,624,623,622.5,621.5,621,620,619,619,618,617,616.5,615.5,615.5,615,614.5,613.5,613.5,612.5,612.5,612.5,612,611.5,611,611,610.5,610.5,610,609.5,609,609,608,608,607,606,605.5,605,604.5,603.5,603.5,603,603,602.5,602.5,602.5,602,602,602,602,602.5,602.5,602.5,603,603.5,603.5,604,605,605.5,606,607,608,609,609.5,611,611,611.5,612.5,613.5,614,614.5,615.5,616,617,618.5,619,620,621.5,622.5,623.5,624.5,626.5,627,628,629,629,0,1272.5,1272.5,1272.5,1272.5,2587.5,2576.5,2571,2561,2561,2550,2539.5,2529.5,2524,2519,2508.5,2503.5,2493.5,2483.5,2478,2473.5,2463.5,2458.5,2448.5,2443.5,2439,2434,2425,2425,2415,2405.5,2401,2392,2382.5,2378,2365,2360.5,2351,2342.5,2334,2329.5,2325.5,2317,2317,2313,2309,2300.5,2301,2288.5,2275.5,2267.5,2255.5,2243,2226.5,2214.5,2202.5,2190.5,2186.5,2179,2170.5,2170.5,2163,2163,2159,2143,2127.5,2113,2098,2084,2076.5,2070,2059.5,2046,2035.5,2025.5,2022,2022,2016,2006,1996,1996,1993,1989.5,1986.5,1983.5,1980,1980,1977,1977,1980,1977,1973.5,1970.5,1967.5,1964.5,1958.5,962,956,953.5,944.5,941.5,936,933,930,927.5,924.5,924.5,922,919,916.5,913.5,913.5,911,908.5,905.5,905.5,903,897.5,895,892.5,890,885,882.5,879.5,879.5,877,877,877,877,877,877,877,879.5,879.5
4719.5,4719.5,4720.5,4720.5,4720.5,4739.5,4703.5,4722.5,4703.5,4688.5,4672,4691,4691,4727,4747,4784.5,4825.5,4864,4920,4956,2587.5,2587.5,2587.5,2587.5,2587.5,2566,2566,2524,4909,4907.5,4887.5,4887,4830,4792.5,4755.5,4755.5,4719,4701,4701,4737.5,4737.5,4775,4793,4850,4888.5,4907.5,4926.5,4946,4946,4926.5,4907.5,4909,4872,4854,4815.5,4818.5,4801.5,2281,2264,2247.5,2247.5,2247.5,2247.5,2264,2281,2315,2350.5,2387,2443.5,2463,2483,2503.5,2544.5,2544.5,2544.5,2566,2566,2566,2566,2587.5,2609.5,2587.5,2631.5,2631.5,2631.5,2631.5,2654.5,2654.5,2701,2701,2725,2749,2774,2799,5140,5157.5,5183.5,5201.5,5201.5,5219.5,5219.5,5219.5,5212,2825,2799,2774,2749,2725,2725,2701,2701,2677.5,2701,2677.5,2677.5,2677.5,2677.5,2677.5,2677.5,2677.5,2677.5,2677.5,2677.5,2631.5,2631.5,2631.5,2609.5,2609.5,2609.5,2587.5,2587.5,2587.5,2566,2544.5,2544.5,2503.5,2503.5,2503.5,2483,2483,2483,2483,2503.5,2503.5,2524,2524,2524,2544.5,2544.5,2566,2566,2587.5,2609.5,2609.5,2631.5,2654.5,2654.5,2654.5,2677.5,2677.5,2677.5,2701,2701,2701,2701,2701,2701,2701,2701,4726.5,2701,2701,4713.5,4713.5,4700.5,4724.5,4711.5,4700.5,4700.5,4737.5,4750.5,4788,4851.5,4865.5,4934,5004,2877.5,2905,2932.5,2932.5,2932.5,2932.5,2905,2877.5,2851,2825,2799,2749,2725,2701,2677.5,2654.5,2631.5,2631.5,2631.5,2631.5,2631.5,2631.5,2631.5,2631.5,2631.5,2654.5,2654.5,2654.5,2654.5,2654.5,2654.5,2654.5,2654.5,2654.5,2654.5,5117.5,5137.5,2654.5,2654.5,2654.5,2654.5,2654.5,2677.5,2677.5,2677.5,2677.5,2677.5,2677.5,2677.5,2677.5,2677.5,2677.5,2701,2701,2701,2701,2701,2701,2701,2701,2677.5,2677.5,2677.5,2677.5,2677.5,2701,2701,2701,2701,2701,2701,2701,2677.5,2677.5,2654.5,2654.5,2654.5,2654.5,2654.5,2631.5,2631.5,2631.5,2631.5,2631.5,2631.5,2631.5,2654.5,2654.5,5117.5,5102,5149.5,5168.5,5168.5,5217.5,5217.5,5217.5,5237,5257,5232,5212,5212,5192.5,5192.5,5173.5,5173.5,5117.5,5099.5,5081.5,5064,5030,4972.5,4948.5,4948.5,4941.5,4935.5,4929.5,4924.5,4942,4960,4956,4974.5,4993,5015,4996.5,4996.5,4960,4942,4924.5,4890.5,4873.5,4840.5,4809,4787,4771,4749.5,4734.5,2544.5,2544.5,2524,2503.5,2483,2463,2443.5,0,0,0,0,0,0,0,0,0,0,0,0,0,0,0,0,0,0,0,0,318,318.5,319.5,320,321,322.5,654,654.5,654.5,654.5,654,653,653,652,650.5,649.5,648,646,644.5,642.5,642,640,639.5,638,637.5,636,635,634.5,633.5,632.5,631.5,631,630.5,629.5,629,628,627.5,627,626,625.5,625,624,623.5,623,622,621.5,621,620,619,618,617.5,617,616,615.5,615,614.5,613.5,613,612.5,612.5,612,611.5,611.5,611,610.5,610.5,609.5,609.5,609,609,608.5,607.5,607,606.5,605.5,605,604.5,603.5,603,603,602.5,602.5,602.5,602,602,601.5,601.5,601.5,601.5,601.5,601.5,601.5,602.5,602.5,603.5,603.5,604.5,605,606,607,607.5,608.5,609.5,610,611,611.5,612.5,613,614,614,615,615.5,617,617.5,619,620,621,622,623.5,624.5,626,627,627.5,629,629.5,314.5,1267,1272.5,1272.5,1272.5,2561,2555.5,2555.5,2550,2545,2534,2529,2524,2519,2513.5,2508.5,2498.5,2488,2478,2473,2463.5,2458.5,2453.5,2448.5,2438.5,2434,2429.5,2425,2420,2415,2405.5,2401,2392,2382.5,2373.5,2369.5,2355.5,2346.5,2342.5,2333.5,2325,2320.5,2316.5,2312.5,2312.5,2308.5,2304.5,2305,2296.5,2288.5,2276.5,2259,2251,2239.5,2218.5,2210.5,2198.5,2186.5,2182.5,2178,2170.5,2166.5,2158.5,2158.5,2143.5,2127.5,2112.5,2098,2084,2073,2066.5,2056.5,2046,2035.5,2032.5,2025.5,2025.5,2016,2009,2002.5,1999,1996,1992.5,1989.5,1986.5,1986.5,1986,1986,1986,1986.5,1983.5,1980,1983,1980.5,1977.5,1971.5,962,956,953.5,947.5,941.5,936,933,930,927.5,924.5,922,919,916.5,916.5,913.5,911,911,908.5,905.5,903,903,897.5,895,895,890,887.5,885,882.5,879.5,879.5,879.5,877,877,877,877,879.5,879.5,879.5
4774,4793,4775,4775,4775,4775,4794,4794,4757,4757,4741.5,4741.5,4778,4798,4815.5,4836,4895,4913,2566,2587.5,2566,2566,2566,2566,2566,2544.5,2524,2524,2483,2463,2463,4906.5,4868.5,4868.5,4850,4812,4793,4811.5,4792.5,4774,4793,4830.5,4850,4870,4909,4947,4946,4946,4946,4947,4907.5,4890.5,4872,4836,4836,4818.5,4801.5,2281,2264,2264,2247.5,2264,2281,2298,2315,2368.5,2405.5,2443.5,2483,2524,2566,2566,2587.5,2587.5,2587.5,2587.5,2587.5,2587.5,2587.5,2587.5,2587.5,2587.5,2609.5,2609.5,2609.5,2631.5,2631.5,2654.5,2677.5,2701,2725,2749,2749,2774,2799,2825,5140,5157.5,5175.5,5175.5,2825,2825,2799,2774,2774,2749,2725,2701,2701,2677.5,2677.5,2677.5,2677.5,2677.5,2677.5,2677.5,2677.5,2677.5,2677.5,2677.5,2677.5,2677.5,2677.5,2677.5,2677.5,2677.5,2677.5,2654.5,2654.5,2654.5,2654.5,2631.5,2609.5,2609.5,2587.5,2566,2544.5,2524,2524,2524,2503.5,2503.5,2503.5,2503.5,2524,2524,2524,2544.5,2544.5,2544.5,2587.5,2587.5,2609.5,2631.5,2631.5,2631.5,2654.5,2677.5,2677.5,2677.5,2677.5,2701,2701,2701,2725,2725,2701,2725,2725,2725,2725,2725,2725,2725,2725,4735.5,4723,4711.5,4699,4735.5,2774,2799,2825,2851,2877.5,2932.5,2960.5,2989.5,2989.5,2989.5,2989.5,2960.5,2932.5,2905,2877.5,2825,2799,2774,2749,2701,2701,2677.5,2654.5,2654.5,2654.5,2654.5,2654.5,2654.5,2654.5,2654.5,2654.5,2654.5,2677.5,2677.5,2677.5,2677.5,2654.5,2654.5,2654.5,2654.5,2654.5,2654.5,2654.5,2654.5,2677.5,2677.5,2677.5,2701,2701,2701,2701,2701,2701,2701,2701,2701,2725,2725,2725,2725,2725,2725,2725,2725,2725,2725,2725,2725,2725,2725,2725,2725,2725,2749,2725,2725,2701,2701,2701,2701,2677.5,2677.5,2654.5,2654.5,2654.5,2654.5,2654.5,2654.5,2654.5,2654.5,2654.5,2654.5,2677.5,2701,2725,2749,2774,2799,5249.5,2825,5275.5,5275.5,5249.5,5294.5,5268.5,2825,5223.5,5204.5,5204.5,2799,5149.5,2799,2799,2799,2799,2799,2774,2774,2749,2725,4956,4948.5,4941.5,4958.5,4969.5,4987,5005,5005,4982,4982,4964,4969.5,4929.5,4895.5,4879,4846.5,4815,4778,4740.5,4725.5,2587.5,2566,2566,2544.5,2544.5,2524,2483,0,0,0,0,0,0,0,0,0,0,0,0,0,0,0,0,0,0,0,317.5,317.5,318,318.5,319,320,321,652.5,653.5,653.5,654,654.5,653.5,653.5,653,652.5,651.5,650,649,647,646,644.5,642.5,641.5,640,638.5,637.5,636.5,635.5,634.5,634,633,632,631,630.5,630,629,628.5,628,627,627,626,625.5,624.5,624.5,623.5,623,623,622,621.5,620.5,620,619,618,617,616.5,615.5,615.5,614.5,613.5,613.5,612.5,612.5,611.5,611,611,611,610,609.5,609.5,609.5,609,609,608,607.5,607,605.5,605.5,605,604,603.5,603,603,602,602.5,602,602,601.5,601.5,601,601,601,601,601,601,601,602,602.5,603,604,604.5,605.5,606,607,608.5,609.5,610,611,611.5,612,613,614,614,615,615.5,616.5,617.5,618.5,619,620.5,622,622.5,624,625,626,627,628.5,629,314,0,1267,1267,2550,1267,2545,2539.5,2539.5,2539.5,2524,2524,2513.5,2513.5,2508.5,2503,2498,2483,2478,2468,2463,2453.5,2448.5,2443.5,2434,2429.5,2429.5,2420,2415,2415,2405.5,2401,2392,2387,2373.5,2364.5,2355.5,2342,2338,2329,2329,2320,2315.5,2316.5,2312.5,2312.5,2308.5,2304.5,2301,2292.5,2284,2271.5,2254.5,2243,2230.5,2214.5,2202,2193.5,2181.5,2174,2166,2158.5,2154.5,2147,2131.5,2116.5,2105,2094.5,2080,2069.5,2063,2056.5,2046,2039,2032.5,2025.5,2025.5,2022.5,2009,2005.5,2002.5,1999.5,1996,1992.5,1989.5,1989.5,1989.5,1989.5,1992.5,1993,1990,1990,1989.5,1986.5,1984,971.5,962,959,953.5,947.5,941.5,936,933,930,927.5,924.5,922,919,916.5,913.5,913.5,911,908.5,908.5,905.5,903,900.5,900.5,897.5,895,892.5,890,887.5,885,882.5,882.5,882.5,879.5,879.5,879.5,879.5,879.5,879.5,879.5
4868,4849,4849,4849,4849,4830.5,4830.5,4830.5,4830.5,4830.5,4812,4812,4831.5,4851.5,4870,4909,4950,4950,5009.5,5009.5,5029,2566,2566,2587.5,2566,2566,2544.5,2524,4966.5,4966.5,4986.5,4966.5,4947,4907.5,4888.5,4870,4850,4868.5,4868,4830,4868.5,4868.5,4907.5,4928,4967.5,4967.5,4966.5,4966.5,4966.5,4947,4928,4909,4872,4854,4836,4818.5,4801.5,2298,2281,2281,2281,2281,2298,2315,2350.5,2387,2443.5,2503.5,2524,2566,2587.5,2631.5,2631.5,2631.5,2609.5,2609.5,2609.5,2587.5,2587.5,2566,2587.5,2587.5,2587.5,2609.5,2609.5,2609.5,2631.5,2654.5,2677.5,2701,5023,5023,2749,2774,2774,5089,5089,5131.5,5149.5,5149.5,2774,2774,2774,2749,2749,2725,2725,2701,2701,2677.5,2677.5,2677.5,2677.5,2677.5,2677.5,2677.5,2677.5,2677.5,2701,2677.5,2701,2701,2701,2701,2701,2725,2725,2725,2701,2701,2701,2701,2677.5,2631.5,2631.5,2609.5,2587.5,2587.5,2566,2544.5,2524,2524,2524,2524,2544.5,2544.5,2544.5,2544.5,2544.5,2566,2566,2587.5,2609.5,2609.5,2631.5,2631.5,2654.5,2677.5,2677.5,2677.5,2677.5,2701,2701,2701,2725,2725,2725,2725,2725,2725,2725,2725,2725,4735.5,4735.5,4735.5,4735.5,4735.5,4735.5,4773.5,4786.5,4837.5,4876.5,4903,2905,2932.5,2960.5,2989.5,2989.5,2989.5,2989.5,2960.5,2960.5,2932.5,2877.5,2851,2799,2799,2749,2725,2725,2701,2677.5,2677.5,2677.5,2677.5,2677.5,2677.5,2677.5,2677.5,2677.5,2677.5,2701,2701,2701,2701,2677.5,2677.5,2677.5,2677.5,2677.5,2677.5,2677.5,2677.5,2701,2701,2725,2749,2749,2749,2749,2749,2749,2749,2749,2749,2749,2749,2749,2749,2749,2749,2749,2774,2774,2774,2774,2774,2774,2774,2774,2774,2749,2774,2749,2749,2725,2725,2725,2701,2701,2677.5,2677.5,2677.5,2677.5,2677.5,2677.5,2677.5,2677.5,2677.5,2701,2701,2725,2749,2774,2825,2851,2851,2877.5,2905,2877.5,2905,2905,2905,2877.5,2877.5,2877.5,2877.5,2851,2851,2851,2851,2851,2851,2851,2825,2825,2825,2799,2799,2774,2749,2749,2725,4999,4999,4975.5,4992.5,4992.5,4975.5,4941.5,4902,4892.5,4838,4823,4807.5,4755,4733,4704,2609.5,2587.5,2587.5,2566,2566,2544.5,2524,0,0,0,0,0,0,0,0,0,0,0,0,0,0,0,0,0,0,0,318,0,318,318.5,319,319.5,320.5,653.5,654,654,654,654,654,653.5,653.5,653,652.5,651,650,648.5,647.5,646,644,642.5,641.5,640,638.5,637.5,636.5,635.5,634,633.5,632.5,631.5,631,630,629,629,628.5,628,627,626.5,626,625.5,625,624.5,624,623.5,623,623,621.5,621.5,620.5,619.5,619,618,617,616,615.5,615,614.5,613.5,612.5,612.5,612,611,611,610.5,610,609.5,609.5,609,609,608.5,607.5,607,606.5,605.5,605,604.5,603.5,603.5,603,602,602,601.5,601.5,601.5,601,601,600.5,600.5,600.5,600.5,601,601,601,601.5,602,603,603.5,604,605,606,607,608,609,610,610.5,611.5,612,613,613,614,615,615.5,616.5,617,618.5,619,620.5,621.5,622.5,624,624.5,626.5,626.5,628,629,314,0,0,1267,1267,1267,1272.5,2519,2524,2519,2519,2513.5,2513.5,2508.5,2503.5,2503.5,2493,2483,2473,2468,2458,2448.5,2444,2434,2429,2429,2424.5,2419.5,2415,2410,2401,2396.5,2387.5,2382.5,2373,2360,2355.5,2342,2332.5,2328.5,2319.5,2315.5,2311,2311.5,2312.5,2312.5,2308,2308.5,2300.5,2296.5,2288,2274.5,2254.5,2246,2225.5,2213.5,2197.5,2181,2169.5,2165.5,2154,2146.5,2139,2135,2124,2109,2098,2087.5,2080,2069.5,2066,2060,2049.5,2042.5,2032.5,2029,2025.5,2022.5,2016,2009,2002.5,2002.5,2002.5,1999,1999,1996,1996,1996,1999,1999.5,2003,2000,1996.5,1993.5,974.5,971.5,962,959,953.5,947.5,941.5,936,933,930,927.5,924.5,922,919,913.5,913.5,911,911,908.5,905.5,905.5,903,900.5,897.5,897.5,895,892.5,890,887.5,885,885,885,882.5,882.5,879.5,879.5,879.5,879.5,879.5,879.5
4906.5,4906.5,4906.5,4887.5,4907.5,4887.5,4887.5,4868.5,4868.5,4868.5,4868.5,4907.5,4907.5,4907.5,4928,4967.5,4988,5007.5,5029,5029,5029,5009.5,5009.5,2587.5,2566,2566,2566,2544.5,5027.5,5027.5,5048,5048,5027.5,5007,4966.5,4966.5,4947,4946,4926,4906.5,4907.5,4947,4967.5,4967.5,5007.5,5007.5,4987,4986.5,5007,4966.5,4947,4909,4890.5,4854,4854,4815.5,4798,2315,2315,2298,2315,2332.5,2350.5,2387,2387,2443.5,2483,2544.5,2587.5,2609.5,2631.5,2631.5,2654.5,2654.5,2631.5,2631.5,2631.5,2609.5,2587.5,2587.5,2566,2566,2587.5,2587.5,2587.5,2609.5,4924.5,2631.5,4952.5,4958.5,4982,5006,5006,5030,5047,5047,2749,5064,5081.5,5075.5,5075.5,2725,2725,2701,2701,2677.5,2677.5,2677.5,2654.5,2654.5,2677.5,2677.5,2677.5,2677.5,2654.5,2677.5,2677.5,2677.5,2677.5,2677.5,2701,2701,2725,2725,2725,2725,2725,2725,2725,2749,2725,2725,2725,2677.5,2677.5,2654.5,2631.5,2609.5,2609.5,2566,2544.5,2544.5,2544.5,2544.5,2544.5,2544.5,2544.5,2544.5,2566,2566,2566,2587.5,2587.5,2609.5,2631.5,2631.5,2654.5,2677.5,2677.5,2677.5,2677.5,2701,2701,2701,2701,2725,2725,2725,2725,2725,2725,2749,4761.5,4761.5,4761.5,4773.5,4773.5,4773.5,4786.5,4811.5,4850.5,4837.5,4876.5,4916.5,2932.5,2932.5,2960.5,2960.5,2989.5,2989.5,2989.5,2960.5,2960.5,2932.5,2877.5,2851,2825,2799,2774,2749,2725,2701,2701,2701,2701,2701,2701,2725,2725,2725,2725,2725,2725,2725,2725,2725,2725,2725,2725,2701,2701,2725,2725,2749,2749,2749,2774,2774,2774,2799,2799,2799,2799,2799,2799,2799,2799,2774,2799,2799,2799,2799,2799,2799,2799,2799,2799,2799,2799,2799,2799,2799,2799,2774,2774,2774,2749,2749,2725,2725,2725,2701,2701,2701,2677.5,2701,2701,2701,2701,2725,2725,2749,2774,2799,2851,2851,2877.5,2932.5,2932.5,2932.5,2960.5,2960.5,2960.5,2932.5,2932.5,2932.5,2905,2905,2905,2905,2905,2905,2905,2905,2877.5,2877.5,2877.5,2877.5,2851,2851,2825,2825,2799,2799,2774,5013,5013,4989,4972.5,4972.5,4940,4884.5,4869.5,4815.5,4801,4801,4749,2631.5,2631.5,2609.5,2587.5,2587.5,2587.5,2566,2566,0,0,0,0,0,0,0,0,0,0,0,0,0,0,0,0,0,0,0,318,318.5,319,319.5,319,320,321,654.5,655,654.5,655,654.5,654,653.5,653.5,653,652.5,651.5,651,649.5,648.5,647.5,646,644,643,641,640,638,637.5,636.5,635.5,634,633.5,632.5,631.5,630.5,629.5,629,628.5,628,628,627,626.5,626,625.5,625,625,624,624,623.5,623,623,621.5,621,620.5,619.5,618.5,617.5,616.5,616,615,614.5,614,613.5,612.5,612,611,611,610,610,609.5,609.5,609,609,608.5,607.5,606.5,606,605.5,605,604,603.5,603,603,602.5,601.5,601.5,601.5,601.5,600.5,600.5,600.5,600.5,600.5,600,601,601,601,601.5,601.5,602.5,603.5,604,605,606.5,606.5,608,609,610,610.5,611.5,612,612.5,613.5,614,615,615.5,616.5,617,618,619,620,621,622,623.5,624.5,626,626.5,628,628.5,629.5,630.5,0,0,1272.5,1272.5,1272.5,1272.5,2509,2509,1272.5,2514,2514,2508.5,2498.5,2498.5,2493.5,2483,2473,2468.5,2453.5,2448.5,2443.5,2434,2429,2419.5,2424,2419.5,2410.5,2405.5,2401,2392,2387.5,2377.5,2368.5,2355,2341.5,2332.5,2324,2315,2311,2302,2302,2302.5,2306.5,2307,2303,2303,2300,2291,2278.5,2266,2249.5,2241,2221,2208.5,2188.5,2177,2161,2157.5,2146,2138.5,2127.5,2127.5,2113,2101.5,2094.5,2083.5,2073,2073,2066,2060,2056.5,2046,2036,2032.5,2029,2025.5,2019,2012.5,2002.5,1999.5,2002.5,1999,1999,1999.5,1999,1999,2006,2006,2009.5,2010,2006.5,1997,1997.5,971.5,965,959,953.5,947.5,941.5,936,933,930,927.5,924.5,922,916.5,913.5,911,911,908.5,908.5,905.5,903,900.5,900.5,897.5,897.5,895,895,892.5,890,887.5,887.5,885,885,882.5,882.5,882.5,879.5,879.5,879.5,879.5
4986.5,4986.5,4966.5,4966.5,4966.5,4966.5,4947,4926.5,4947,4907.5,4926.5,4947,4947,4967.5,4966.5,5007.5,5027.5,5069.5,5069.5,5069.5,5049,5049,5029,5050.5,5029,5029,5049,5069.5,5048,5048,5089,5089,5089,5048,5048,5027.5,5027.5,5027.5,5007,4988,4988,4988,5009.5,5031,5050.5,5050.5,5029,5007,5007,4986.5,4946,4907.5,4888.5,4851.5,4833.5,4833.5,4833.5,4813.5,2350.5,2332.5,2368.5,2368.5,2405.5,2424.5,2424.5,2483,2524,2587.5,2609.5,2609.5,2654.5,2654.5,2677.5,2654.5,2677.5,2654.5,2631.5,2631.5,2609.5,2587.5,2587.5,2587.5,2587.5,2587.5,4920,4942,4924.5,4929.5,4952.5,4935.5,4958.5,4982,5006,4989,5006,5006,5006,5023,5016,5033.5,5028,5046,2677.5,2654.5,2654.5,2654.5,2654.5,2654.5,2654.5,2654.5,2654.5,2654.5,2654.5,2677.5,2654.5,2677.5,2677.5,2677.5,2677.5,2701,2701,2701,2725,2749,2749,2749,2749,2749,2749,2749,2749,2749,2749,2725,2701,2677.5,2654.5,2654.5,2631.5,2587.5,2566,2566,2566,2566,2566,2544.5,2544.5,2544.5,2566,2566,2566,2587.5,2587.5,2609.5,2631.5,2631.5,2654.5,2654.5,2677.5,2677.5,2677.5,2677.5,2701,2701,2701,2725,2725,2725,2725,2725,2725,2749,2749,4748.5,2774,4773.5,4773.5,4811.5,4811.5,4824.5,4850.5,4890,4916.5,4944,2905,2960.5,2989.5,2989.5,2989.5,2989.5,2989.5,2989.5,2932.5,2932.5,2905,2851,2825,2799,2799,2774,2749,2725,2725,2725,2725,2725,2725,2725,2749,2749,2749,2749,2749,2749,2749,2749,2749,2749,2774,2749,2774,2774,2774,2774,2774,2825,2825,2825,2825,2851,2851,2851,2851,2851,2851,2851,2851,2851,2851,2825,2825,2825,2825,2825,2825,2825,2825,2825,2825,2825,2825,2825,2825,2799,2799,2774,2774,2749,2749,2749,2725,2725,2701,2701,2701,2725,2725,2725,2725,2749,2749,2774,2825,2825,2877.5,2905,2932.5,2960.5,2960.5,2989.5,2989.5,2989.5,2989.5,2989.5,2960.5,2960.5,2960.5,2960.5,2960.5,2960.5,2932.5,2932.5,2932.5,2932.5,2932.5,2905,2905,2905,2877.5,2877.5,2877.5,2851,2851,2825,2825,2799,2774,2774,2749,2749,2749,2725,2725,4839,4824.5,4772,2677.5,2654.5,2631.5,2609.5,2609.5,2587.5,0,0,0,0,0,0,0,0,0,0,0,0,0,0,0,0,0,0,0,0,0,0,319.5,319.5,320,320,320.5,655.5,655.5,332.5,656,655.5,655,654.5,654.5,653.5,653,653,652,651,650.5,649,648,647,646,644,643,641.5,640,638.5,637.5,636.5,635.5,634,633.5,632.5,631,630,629,629,628.5,628,628,627,626.5,626,626,625.5,625,625,624.5,624,624,623,622.5,622,621,620,619,618,617,616,615.5,615,614.5,613.5,612.5,612.5,611.5,611,610.5,610.5,609.5,609.5,609,609,607.5,607.5,606.5,606,605.5,604.5,604,603.5,603,602.5,602,601.5,601.5,601.5,600.5,600.5,600.5,600.5,600,600.5,600,600.5,600.5,601,601.5,602,602.5,603.5,604,605,606,607,608,608.5,610,610.5,611.5,612,613,613,614,615,615.5,616.5,617,618,619,620,621,622,623.5,624.5,625.5,626.5,627.5,628,629,630,316,0,1272.5,1272.5,1272.5,2499,2504,2509,2514,2514,2514,2504,2504,2498.5,2488.5,2474,2469,2463.5,2454,2444.5,2439.5,2429.5,2420,2420,2419.5,2415,2410.5,2401,2391.5,2387,2378,2369,2354.5,2341.5,2328,2315.5,2302.5,2298,2289,2285,2285,2293.5,2293.5,2298,2294,2294.5,2290,2282,2273.5,2261,2248.5,2232.5,2212,2200,2188,2168.5,2153.5,2149.5,2138.5,2131,2124,2120,2105.5,2102,2094.5,2083.5,2073,2073,2069.5,2063,2059.5,2053,2042.5,2036,2036,2029,2019,2009.5,2002.5,1999,1996,2002.5,1999,2002.5,2002.5,2006,2006,2010,2010,2013.5,2010.5,2010.5,971.5,968.5,962,959,953.5,947.5,941.5,938.5,933,930,927.5,924.5,922,919,913.5,911,908.5,908.5,905.5,905.5,903,900.5,900.5,897.5,897.5,895,895,892.5,890,890,890,890,887.5,885,882.5,882.5,879.5,879.5,879.5,879.5
5090,5068.5,5048,5048,5048,5048,5027.5,5007,5007,5007,5007,5007,5007,5027.5,5048,5048,5069.5,5069.5,5090,5069.5,5069.5,5069.5,5049,5049,5049,5049,5049,5069.5,5069.5,5068.5,5089,5132,5132,5089,5089,5089,5090,5090,5069.5,5049,5050.5,5050.5,5050.5,5072.5,5072.5,5072.5,5049,5049,5007,4986.5,4946,4947,4909,4890.5,4870,4870,4868.5,4850,4830.5,4811.5,2405.5,2443.5,2443.5,2463,4815.5,4839,4859.5,2587.5,2631.5,2631.5,2654.5,2677.5,2677.5,2677.5,2677.5,2654.5,2654.5,2631.5,2631.5,2609.5,4993,4974.5,4978,2587.5,2587.5,2587.5,4942,4946.5,4952.5,4975.5,4958.5,4982,4982,4965,4989,4989,2701,4982,4999,5010,5028,2677.5,2677.5,2654.5,2654.5,2654.5,2654.5,2654.5,2654.5,2654.5,2654.5,2654.5,2654.5,2654.5,2654.5,2654.5,2654.5,2654.5,2701,2701,2725,2725,2725,2749,2749,2774,2774,2774,2774,2774,2774,2774,2774,2749,2749,2725,2701,2677.5,2654.5,2631.5,2609.5,2587.5,2587.5,2587.5,2566,2566,2566,2566,2566,2587.5,2587.5,2609.5,2609.5,2631.5,2631.5,2631.5,2654.5,2654.5,2677.5,2677.5,2677.5,2677.5,2701,2701,2701,2725,2725,2725,2725,2749,2749,2749,2749,2774,2774,2799,4811.5,4837.5,4837.5,4850.5,4876.5,4916.5,4944,4944,2932.5,2960.5,2989.5,2989.5,2989.5,2989.5,2989.5,2960.5,2960.5,2932.5,2905,2877.5,2851,2825,2799,2774,2749,2749,2749,2725,2725,2749,2749,2749,2749,2774,2774,2774,2774,2774,2774,2774,2799,2799,2799,2799,2799,2799,2825,2825,2851,2851,2877.5,2877.5,2905,2905,2905,2905,2932.5,2932.5,2932.5,2905,2905,2905,2877.5,2877.5,2877.5,2877.5,2851,2851,2851,2851,2851,2851,2851,2851,2851,2825,2825,2825,2799,2799,2774,2774,2774,2749,2725,2725,2725,2725,2749,2749,2749,2749,2774,2774,2799,2825,2851,2851,2905,2905,2960.5,2960.5,2989.5,2989.5,3018.5,3018.5,2989.5,2989.5,2989.5,2989.5,2989.5,2989.5,2989.5,2989.5,2989.5,2960.5,2960.5,2960.5,2960.5,2960.5,2960.5,2960.5,2932.5,2932.5,2905,2905,2877.5,2877.5,2851,2851,2825,2799,5030,4989,4957.5,2749,2749,4863,2701,2701,2654.5,2654.5,2631.5,2609.5,2609.5,2609.5,0,0,0,0,0,0,0,0,0,0,0,0,0,0,0,0,0,0,0,0,0,320.5,320.5,321,321,321.5,658,657,656.5,656.5,656,655.5,654.5,654.5,654.5,653.5,653,652.5,651,651,650,649,648,647,645.5,643.5,643,641.5,640,639,637.5,636.5,635.5,634,633.5,632.5,631,630,629.5,628.5,628.5,628,627.5,627,626.5,626.5,626,625.5,625.5,625.5,625,625,624.5,624,623.5,622,621.5,620.5,620,618.5,618,616.5,616,615,614.5,613.5,613,612.5,612,611.5,610.5,610,610,609,609,608.5,607.5,607,606.5,606,605,604.5,604,603.5,602.5,602.5,601.5,601.5,601,600.5,600.5,600.5,600.5,600.5,600.5,600.5,600.5,600.5,600.5,601,602,602,602.5,603,604.5,605,605.5,607,607.5,608.5,609.5,610.5,611.5,611.5,613,613,614,615,615.5,616.5,617,618,619,620,621,622,623,624,624.5,626,627.5,628.5,629,630,630.5,0,0,1277.5,1277.5,1277.5,1277.5,2499.5,2499.5,2504,1277.5,2499.5,2499.5,2494.5,2484,2469.5,2469.5,2460,2449.5,2444.5,2439.5,2425,2420,2415.5,2410,2405.5,2405.5,2396.5,2387,2373,2364,2351,2332.5,2324,2311,2290,2286,2281.5,2273,2272.5,2272.5,2281,2285,2289.5,2289,2289.5,2281,2277,2268.5,2256.5,2239.5,2224,2207.5,2195.5,2180,2165,2149.5,2138,2127,2116,2112.5,2105.5,2098.5,2094.5,2091,2080,2073,2073,2073,2066,2063,2056.5,2046,2039.5,2032.5,2022.5,2012.5,2006,1996.5,1990,1990,1989.5,1996,1996,993,990,987,983.5,980.5,980.5,2014.5,2015,968.5,965,959,956,950.5,944.5,941.5,936,933,930,927.5,924.5,919,916.5,913.5,911,908.5,908.5,905.5,903,903,900.5,900.5,900.5,900.5,897.5,897.5,895,895,892.5,892.5,890,890,885,885,882.5,879.5,879.5,879.5,877
5110.5,5132,5132,5111.5,5132,5090,5090,5090,5090,5069.5,5048,5068.5,5090,5090,5068.5,5110.5,5110.5,5110.5,5090,5090,5090,5069.5,5049,5049,5049,5069.5,5048,5090,5090,5089,5132,5153.5,5153.5,5132,5153.5,5153.5,5153.5,5154,5133.5,5133.5,5113,5155.5,5155.5,5155.5,5199,5176,5154,5154,5090,5090,5068.5,5048,4966,4946,4946,4946,4946,4926,4946,4926.5,4907.5,4888.5,4890.5,4892.5,4874.5,4898.5,4920,4964,2654.5,2654.5,2677.5,2701,2701,2701,2701,2701,2677.5,2654.5,2631.5,2609.5,2609.5,2609.5,2609.5,2609.5,2609.5,2609.5,2631.5,2654.5,2654.5,2677.5,2677.5,2677.5,5016,2701,2701,2701,2701,2701,2701,2701,2677.5,2677.5,2677.5,2677.5,2654.5,2654.5,2677.5,2677.5,2677.5,2677.5,2677.5,2677.5,2677.5,2677.5,2677.5,2677.5,2677.5,2677.5,2677.5,2725,2725,2725,2749,2774,2774,2774,2774,2774,2799,2799,2799,2799,2774,2774,2749,2749,2725,2701,2677.5,2654.5,2631.5,2631.5,2609.5,2609.5,2609.5,2609.5,2609.5,2609.5,2609.5,2609.5,2609.5,2654.5,2631.5,2631.5,2631.5,2631.5,2654.5,2654.5,2654.5,2654.5,2654.5,2654.5,2677.5,2677.5,2701,2701,2701,2725,2725,2749,2749,2774,2774,2799,2799,2825,2825,2851,4917.5,4944,4944,2905,2932.5,2932.5,2960.5,2960.5,3018.5,3018.5,2989.5,2989.5,2989.5,2989.5,2960.5,2932.5,2905,2877.5,2825,2799,2799,2774,2774,2749,2749,2749,2749,2749,2774,2774,2774,2774,2774,2774,2774,2774,2774,2774,2799,2799,2799,2799,2825,2825,2851,2851,2851,2877.5,2905,2905,2932.5,2932.5,2932.5,2932.5,2932.5,2932.5,2960.5,2932.5,2932.5,2905,2905,2905,2905,2877.5,2877.5,2877.5,2877.5,2877.5,2851,2851,2851,2851,2851,2851,2851,2851,2825,2799,2799,2799,2774,2749,2749,2749,2749,2749,2774,2774,2774,2774,2799,2799,2825,2851,2877.5,2905,2932.5,2932.5,2960.5,2989.5,2989.5,3018.5,3018.5,3018.5,3018.5,3018.5,3018.5,3018.5,3018.5,3048.5,3018.5,3018.5,3018.5,3018.5,3018.5,2989.5,2989.5,2989.5,2989.5,2989.5,2989.5,2960.5,2960.5,5275.5,2932.5,5230.5,5203,5175.5,5158.5,5072.5,5056,4998.5,4982.5,4942.5,4927,4863,4863,4824.5,4801,2654.5,2631.5,2631.5,2609.5,2609.5,2609.5,0,0,0,0,0,0,0,0,0,0,0,0,0,0,0,0,0,0,0,0,0,0,0,0,0,323,658.5,657.5,657,656,655.5,654.5,654,653.5,652.5,652.5,651.5,651,650.5,649.5,649,648,647,645.5,644.5,643,642,640.5,640,638,637.5,636,634.5,633.5,632.5,631,630.5,629.5,628.5,628.5,628.5,628,627,627,627,626.5,626,626,625.5,625.5,625,624.5,624.5,623.5,623,622,621,620,619.5,618,617,616,616,615,615,614,613,612,612,611,610.5,610,609,609,608.5,607.5,607,606.5,605,605,604.5,604,603.5,602.5,602.5,601.5,601,601,601,600.5,600.5,600.5,600.5,600.5,601,600.5,600.5,601,601.5,602,602.5,602.5,603.5,604.5,604.5,605.5,606.5,607.5,608.5,609.5,610.5,611.5,611.5,613,613.5,614,614.5,615.5,616,617,618,619,620,621,622,623,624,625,626,627.5,628,629,629.5,631,0,0,0,1283,1283,1283,1283,1283,2495,2489.5,1283,2485,2485,2475.5,2465,2465,2455.5,2450.5,2435.5,2430.5,2425.5,2411,2406.5,2406,2405.5,2396.5,2382.5,2378,2368.5,2355.5,2342,2325,2307.5,2294.5,2282,2270,2265.5,2265.5,2261,2265,2272.5,2277,2285,2289,2285,2277,2272.5,2260,2252,2239.5,1099.5,2199.5,2191.5,2172,2160.5,2142,2134.5,2119.5,2109,2105.5,2098.5,2094.5,2094.5,2087.5,2083.5,2076.5,2076.5,2076.5,2069.5,2066,2056.5,2046,2039.5,2029,2019,2012.5,2003,1986.5,1983.5,1977,1980,1986.5,1986,990,987,983.5,980.5,977.5,974.5,2029.5,968.5,965,962,956,953.5,950.5,944.5,938.5,936,933,930,927.5,924.5,919,916.5,913.5,911,908.5,908.5,905.5,903,903,900.5,900.5,900.5,903,900.5,900.5,900.5,897.5,895,895,892.5,890,887.5,885,882.5,879.5,879.5,877,877
5175.5,5175.5,5175.5,5175.5,5175.5,5175.5,5153.5,5132,5132,5111.5,5111.5,5132,5132,5154,5132,5132,5154,5154,5154,5133.5,5111.5,5091,5091,5091,5069.5,5091,5091,5090,5110.5,5110.5,5153.5,5175,5197,5153.5,5175.5,5175.5,5175.5,5154,5176,5155.5,5178.5,5178.5,5199,5199,5199,5220.5,5220.5,5197.5,5154,5154,5132,5069.5,5049,5007,5007,5027.5,5027.5,4987,4987,4988,2524,2544.5,4950,4953,4934.5,4956,4960,5023,2654.5,2677.5,2701,2701,5149.5,2725,2725,2701,2677.5,2677.5,2654.5,2631.5,2609.5,2631.5,2631.5,2609.5,2609.5,4996.5,5000,5000,5005,2677.5,5051.5,5033.5,5033.5,5033.5,5033.5,5033.5,2701,2701,2701,2701,2701,2701,2701,2701,2701,2701,2701,2677.5,2677.5,2677.5,2677.5,2677.5,2677.5,2701,2701,2701,2701,2701,2701,2701,2701,2749,2749,2774,2774,2799,2799,2799,2799,2799,2799,2799,2799,2774,2774,2749,2725,2725,2701,2677.5,2654.5,2631.5,2631.5,2631.5,2631.5,2631.5,2631.5,2631.5,2631.5,2631.5,2631.5,2654.5,2654.5,2631.5,2631.5,2631.5,2654.5,2631.5,2654.5,2654.5,2654.5,2654.5,2654.5,2677.5,2701,2701,2725,2749,2749,2774,2799,2799,2799,2825,2825,2851,2877.5,2877.5,2877.5,4971.5,2905,2932.5,2960.5,2960.5,2960.5,2989.5,2989.5,2989.5,2989.5,2989.5,2989.5,2960.5,2932.5,2932.5,2905,2877.5,2825,2825,2799,2774,2774,2774,2749,2749,2749,2749,2774,2774,2774,2774,2774,2774,2774,2774,2774,2799,2799,2799,2799,2799,2799,2825,2825,2851,2877.5,2877.5,2905,2932.5,2932.5,2960.5,2960.5,2960.5,2960.5,2960.5,2960.5,2960.5,2932.5,2932.5,2905,2905,2905,2905,2877.5,2877.5,2877.5,2877.5,2851,2851,2851,2851,2851,2851,2851,2825,2825,2825,2825,2799,2799,2774,2774,2774,2774,2774,2774,2799,2799,2799,2825,2825,2851,2877.5,2905,2905,2932.5,2960.5,2960.5,2989.5,2989.5,3018.5,3048.5,3018.5,3018.5,3018.5,3048.5,3048.5,3048.5,3048.5,3048.5,3018.5,3018.5,3018.5,3018.5,3018.5,3018.5,3018.5,3018.5,3018.5,2989.5,2989.5,2989.5,2960.5,2960.5,5258.5,5230.5,5203,5141.5,5125,5082,5024.5,4993.5,4952,4927,4887,4863,2701,2677.5,2654.5,2631.5,2631.5,2631.5,2609.5,2609.5,0,0,0,0,0,0,0,0,0,0,0,0,0,0,0,0,0,0,0,0,0,0,0,0,324,324.5,659.5,658.5,332,656.5,655.5,654.5,653.5,652.5,652,651.5,651,650.5,649.5,649.5,648.5,647.5,647,646,644.5,643,642,641,640,638.5,637.5,636,635,634,633,632,631,630,629.5,629.5,628.5,628.5,628.5,628,627.5,627,627,626.5,626,626,625.5,625,624.5,624,623.5,622,621.5,621,620,619,618,617,616.5,616,615,614.5,613.5,613,612.5,611.5,611,610,609.5,609,608.5,607.5,607,606.5,605.5,605,604.5,603.5,603,602.5,602,601,601,601,601,600.5,600.5,600.5,600.5,601,601,600.5,601,601.5,601.5,602,602.5,602.5,603.5,604.5,605,606,607,607.5,608.5,609.5,610.5,611,611.5,612.5,613.5,614,614.5,615.5,616,617,618,619,620,621,621.5,623,623.5,624.5,626,627,627.5,629,629.5,630.5,314,0,0,1283,1283,1283,1283,1283,1283,2486,2486,1283,2480.5,2475.5,2466,2456,2451,2451,2436,2431,2421,2411,2401.5,2401.5,2396.5,2387,2378,2373.5,2360,2346.5,2338,1189,2304,2286.5,1170.5,2270,2266,2266,2261.5,2261,2268.5,2272.5,2281,2280.5,2276.5,2272,2264,2251.5,2247.5,2231,2211,2195.5,2180,2160.5,2149.5,2131,2120,2112.5,2105.5,2098.5,2094.5,2094.5,2094.5,2094.5,2087.5,2084,2080.5,2080,2076.5,2069.5,2060,2042.5,2036,2029,2016,2006,1996.5,1977.5,1974.5,1968,1968,996.5,993,990,987,983.5,977.5,974.5,971.5,968.5,965,962,956,956,953.5,947.5,944.5,941.5,936,933,930,927.5,924.5,922,916.5,913.5,911,908.5,908.5,905.5,903,903,903,900.5,903,903,903,900.5,900.5,897.5,895,895,892.5,887.5,885,882.5,879.5,877,877,874.5,872.5
5154,5175.5,5175.5,5175.5,5175.5,5197,5197,5175.5,5154,5154,5154,5154,5197.5,5197.5,5176,5176,5176,5176,5176,5155.5,5133.5,5113,5113,5113,5113,5133.5,5133.5,5133.5,5154,5197.5,5219,5219,5242,5220.5,5220.5,5220.5,5222,5222,5201.5,5204.5,5204.5,5201.5,5245.5,5267,5267,5288.5,5265,5265,5243.5,5220.5,5197.5,5155.5,5091,5091,5049,5070.5,5070.5,5049,5029,5029,4990.5,5012,4993,5015,5018.5,5023,5046,5046,5093.5,5136,5136,5179.5,5173.5,5173.5,5192.5,5212,5188,5188,5164,5164,5121,5121,5102,5083,5106.5,5083,5064.5,5088,5069.5,5075.5,5093.5,5075.5,5075.5,5081.5,5064,5064,5064,5106.5,2774,2749,2749,2749,5136,2749,5154.5,5173.5,2749,2749,2749,2749,2749,2725,2725,2749,2749,2725,2725,2725,2725,2725,2749,2774,2774,2799,2799,2825,2851,2851,2851,2851,2851,2851,2851,2825,2825,2825,2774,2774,2774,2725,2725,2677.5,2677.5,2677.5,2654.5,2654.5,2654.5,2654.5,2654.5,2677.5,2677.5,2701,2701,2701,2701,2701,2701,2701,2701,2701,2701,2701,2725,2725,2749,2749,2749,2774,2774,2799,2825,2825,2825,2851,2851,2877.5,2877.5,2877.5,2905,2905,2932.5,2932.5,2932.5,2960.5,2960.5,2989.5,2989.5,2989.5,2989.5,2989.5,2960.5,2960.5,2932.5,2932.5,2877.5,2851,2825,2825,2799,2799,2774,2774,2774,2774,2749,2749,2774,2774,2774,2774,2774,2774,2774,2774,2774,2799,2799,2774,2774,2825,2799,2799,2825,2851,2851,2851,2877.5,2905,2905,2932.5,2960.5,2960.5,2960.5,2989.5,2989.5,2960.5,2960.5,2932.5,2932.5,2905,2905,2905,2905,2877.5,2877.5,2877.5,2877.5,2877.5,2851,2851,2851,2851,2851,2825,2825,2825,2825,2799,2799,2774,2774,2774,2774,2799,2799,2799,2825,2825,2825,2825,2851,2877.5,2905,2932.5,2932.5,2960.5,2989.5,2989.5,3018.5,3048.5,3018.5,3048.5,3048.5,3048.5,3079,3079,3079,3079,3079,3079,3048.5,3048.5,3079,3048.5,3079,3079,3079,3048.5,3048.5,3048.5,3018.5,3018.5,2989.5,2960.5,2960.5,5230.5,5186,5125,5108.5,5066,5008.5,4982.5,4942.5,4917.5,2749,2701,2701,2654.5,2631.5,2631.5,2631.5,2631.5,0,0,0,0,0,0,0,0,0,0,0,0,0,0,0,0,0,0,0,0,0,0,0,325.5,325.5,326,663,661,333.5,325.5,657,656,654,653,652,651.5,651,650.5,650,649.5,649,648.5,647.5,647,646,645.5,644.5,643,642,641,640,638.5,637.5,636,635,634.5,633,631.5,631.5,630.5,630,629.5,629.5,628.5,628.5,628,628,627.5,627.5,627,626.5,626,625.5,625,624.5,624,622.5,621.5,621,620,619.5,618.5,618,617.5,616,615.5,615,614.5,614,612.5,612.5,611,610.5,610,609,608.5,607,606.5,606,605,605,604.5,604,603,602.5,602.5,602,601,601,601,601,600.5,600.5,601,601,601,601,601.5,602,602,602.5,602.5,603,604,605,605,606,607,608,608.5,609.5,610.5,611,611.5,612.5,613.5,614,614.5,615.5,616,617,618,619,620,621,621.5,623,623.5,624.5,625.5,627.5,628,629,629.5,630.5,314,0,0,1283,1283,1283,1283,1283,1283,1283,2467.5,1283,1283,2462,2452,2452,2442,2437,2432,2426.5,2421,2406.5,2401.5,2397,2392,2387,2378,2369.5,2356,1198,2334,2317,2304.5,2288,2279,2271,2271,2266.5,2262.5,2261.5,2265.5,2269,2268.5,2268.5,2272.5,2264,2255.5,2247.5,2239,2223,2207,2191.5,2172.5,2157,2142,2131,2120,2112.5,2102,2102,2098,2101.5,2105.5,2098,2098,2091,2091,2091,2084,2073,2063,2046,2036,2026,2016,2003,1987,1974.5,1971.5,1964.5,1961.5,1961.5,993,990,987,980.5,974.5,968.5,968.5,962,959,959,956,953.5,950.5,947.5,944.5,941.5,938.5,936,930,927.5,924.5,922,919,916.5,913.5,911,908.5,905.5,903,905.5,903,903,903,903,903,903,900.5,897.5,895,892.5,890,887.5,882.5,879.5,877,874.5,872.5,870,870
5154,5154,5197.5,5219,5197,5241,5241,5197.5,5197.5,5154,5176,5176,5220.5,5220.5,5199,5199,5220.5,5220.5,5199,5199,5199,5155.5,5155.5,5155.5,5176,5199,5176,5220.5,5220.5,5242,5265,5288.5,5288.5,5267,5269.5,5269.5,5249,5252.5,5232,5232,5212,5212,5277.5,5298,5318.5,5315,5315,5288.5,5288.5,5288.5,5242,5199,5155.5,5133.5,5113,5113,5092.5,5092.5,5050.5,5072.5,5034,5015,5037,5018.5,5064.5,5069.5,5093.5,5117.5,5161,5186,5212,5230.5,5249.5,5249.5,5288,5262,5262,5262,5237,5237,5237,5237,5217.5,5237,5217.5,5262,5242.5,5223.5,5249.5,5249.5,5230.5,5219.5,5219.5,5246,5201.5,5183.5,5183.5,2851,2851,2851,2851,2825,5193.5,5193.5,5212,2825,2825,2825,2799,2799,2799,2799,2799,2799,2774,2774,2774,2774,2799,2799,2799,2825,2825,2851,2851,2877.5,2877.5,2877.5,2905,2905,2905,2905,2905,2905,2877.5,2877.5,2877.5,2851,2851,2799,2774,2749,2725,2725,2725,2725,2725,2725,2725,2749,2749,2774,2774,2749,2774,2749,2749,2749,2774,2749,2749,2749,2774,2749,2774,2774,2774,2799,2799,2825,2825,2851,2851,2851,2877.5,2877.5,2905,2905,2905,2932.5,2932.5,2932.5,2960.5,2960.5,2960.5,2960.5,2960.5,2989.5,2960.5,2960.5,2960.5,2932.5,2932.5,2905,2851,2851,2825,2799,2774,2799,2774,2774,2774,2774,2749,2749,2749,2774,2774,2774,2774,2774,2774,2774,2774,2774,2774,2774,2774,2774,2774,2799,2799,2825,2851,2851,2851,2905,2905,2932.5,2932.5,2960.5,2989.5,2989.5,2960.5,2960.5,2960.5,2960.5,2932.5,2932.5,2905,2877.5,2877.5,2877.5,2851,2851,2851,2851,2851,2851,2851,2825,2825,2825,2825,2825,2799,2799,2774,2774,2774,2774,2774,2799,2799,2799,2825,2825,2825,2825,2851,2877.5,2905,2932.5,2932.5,2932.5,2960.5,2989.5,2989.5,3048.5,3048.5,3048.5,3048.5,3048.5,3079,3079,3110,3110,3110,3110,3110,3110,3110,3110,3142,3110,3110,3110,3110,3079,3079,3048.5,3018.5,3018.5,2989.5,2960.5,2932.5,2932.5,5136,5092.5,2851,2825,2825,2774,2749,2701,2701,2654.5,2654.5,2631.5,0,0,0,0,0,0,0,0,0,0,0,0,0,0,0,0,0,0,0,0,0,0,0,327,327,327,666.5,667,664.5,662,660,325.5,656,655,654,652.5,652,650.5,650.5,650.5,649.5,649.5,649,648.5,647.5,647,646.5,645.5,644.5,643.5,643,642,641,640,638.5,637.5,636,635,634.5,633,632.5,631.5,631,630.5,630,629,629,629,628.5,627.5,627.5,627,627,626.5,626.5,626,625,624,623.5,622.5,621.5,621,620,620,618.5,618,617,616.5,615.5,615,614,613.5,612.5,611.5,611,610,609.5,608.5,607.5,607,606.5,605.5,605,604,604,603,603,602.5,602.5,602,601,601,601,601,601,601,601,601,601.5,602,602,602,602.5,602.5,603,604,605,605,606,607,608,608.5,609.5,610.5,611,611.5,612.5,613.5,613.5,614.5,615,616.5,617,618,619,619.5,621,621.5,623,623.5,625,625.5,627,628,629,629.5,630.5,631,314,0,1283,1283,1283,1283,1283,1283,1283,2427.5,1283,1283,1277.5,2444,2443,2437.5,2437.5,2432.5,2426.5,2421.5,2416.5,2406.5,2401.5,2392.5,2387.5,2378.5,2365,2356.5,2343.5,2331,2317.5,2301,2288.5,2276.5,2276.5,2271.5,2271.5,2267,2266.5,2270,2274,2273.5,2273,2268.5,2260,2255.5,2247.5,2239.5,2223,2203.5,2187.5,2172.5,2157,2146,2131,2116,2109,2105.5,2101.5,2098,2102,2109.5,2109.5,2102,2098.5,2094.5,2094.5,2087.5,2076.5,2063,2042.5,2032.5,2022.5,2009.5,1996.5,1984,1971,1961.5,1958.5,1955.5,1955,990,987,980.5,977.5,971.5,965,965,962,959,959,956,953.5,953.5,950.5,947.5,944.5,941.5,936,933,930,924.5,922,919,916.5,913.5,911,908.5,905.5,905.5,905.5,903,903,905.5,905.5,903,903,900.5,897.5,895,892.5,890,885,879.5,877,874.5,872.5,872.5,0,0
5111.5,5154,5175.5,5175.5,5197,5241,5264,5219,5197.5,5176,5176,5199,5220.5,5243.5,5222,5199,5243.5,5243.5,5243.5,5222,5199,5199,5199,5199,5199,5220.5,5222,5243.5,5265,5288.5,5312.5,5312.5,5315,5293.5,5273,5273,5277.5,5257,5242.5,5223.5,5223.5,5204.5,5249.5,5223.5,5288,5262,5257,5298,5318.5,5293.5,5291,5267,5201.5,5178.5,5158,5114.5,5114.5,5117.5,5117.5,5098,5102,5083,5064.5,5112,5093.5,5117.5,5167.5,5167.5,5193.5,5238,5238,5283,5283,5275.5,5321,5314,5314,5314,5308,5314,5288,5314,5360.5,5340.5,5340.5,5388,5395.5,5368,5376,5404,5385,5366,5347.5,5329,5311,5311,5265,5265,5265,5265,5255.5,5283,5255.5,5255.5,5273.5,5273.5,5310.5,5321,5321,5334,5354.5,5349,5369.5,5369.5,5369.5,5391,5369.5,5369.5,5417,5417,5443.5,5422,5449.5,5449.5,5429,5477,5456.5,5456.5,5436,5477,2960.5,2960.5,2960.5,2960.5,2960.5,2932.5,5810,2905,2905,2851,2851,5909,5916,2774,2774,2774,2774,2774,2799,2799,2825,2825,2825,2825,2825,2799,2799,2799,2825,2799,2799,2799,2799,2799,2825,2825,2825,2825,2825,2825,2851,2877.5,2851,2877.5,2877.5,2905,2932.5,2932.5,2932.5,2960.5,2960.5,2989.5,2989.5,2960.5,2960.5,2989.5,2960.5,2960.5,2932.5,2932.5,2932.5,2905,2905,2877.5,2851,2825,2799,2774,2774,2749,2749,2749,2749,2774,2749,2749,2749,2749,2774,2774,2774,2774,2749,2749,2749,2749,2749,2749,2749,2774,2774,2774,2799,2825,2825,2825,2851,2877.5,2877.5,2932.5,2932.5,2932.5,2932.5,2960.5,2960.5,2960.5,2960.5,2932.5,2905,2905,2905,2877.5,2877.5,2851,2825,2825,2825,2799,2799,2799,2799,2799,2799,2799,2799,2799,2774,2774,2774,2774,2774,2774,2774,2774,2799,2799,2825,2825,2825,2825,5183.5,5210,5210,5228,5273.5,5292,2960.5,2960.5,2960.5,3018.5,3018.5,3048.5,3048.5,3079,3079,3110,3142,3110,3142,3142,3142,3142,3174.5,3174.5,3142,3142,3142,3142,3110,3110,3079,3079,3048.5,3048.5,3018.5,2989.5,2960.5,2932.5,2905,2877.5,2877.5,2851,2825,2774,0,0,2677.5,2654.5,2631.5,0,0,0,0,0,0,0,0,0,0,0,0,0,0,0,0,0,0,0,0,0,0,0,0,0,329,672,670,669,667,663.5,661.5,326,656.5,654.5,653.5,652,651.5,650.5,650,650,649.5,649,649,648.5,647.5,647,647,646.5,645.5,645,643.5,643,642,641,639.5,638,637,636,635.5,634,633.5,632.5,632,631,631,630.5,629.5,629.5,628.5,628,628,628,627.5,626.5,626.5,626,625,624,624,622.5,622,621,621,620,619,618.5,618,617,616,615.5,614.5,614,613,611.5,611.5,610.5,610,609,608,607,606.5,605.5,605,605,604,603.5,603,603,602.5,602,602,602,601,601,601,601,601.5,601.5,601.5,602,602,602.5,602.5,602.5,603.5,604,605,605,606,607,608,608.5,609,610.5,611,611.5,612,613.5,613.5,614.5,615,616,617,617.5,619,619.5,621,621.5,622.5,623,624.5,625.5,626.5,628,629,629.5,631,631,632,0,0,1283,1288.5,1283,1283,1283,1283,1283,2427.5,2436,2435,2439.5,2439,2443,2437.5,2437,2432,2421.5,2416.5,2411.5,2406.5,2406,2397,2378.5,2374,2356.5,2343.5,2331,2313.5,2305.5,2293,2281,2277,2281,2276.5,2271.5,2271,2278.5,2278,2278,2277,2272.5,2268,2264,2255.5,2247.5,2231,2211,2191.5,2180,2164.5,2149.5,2138.5,2119.5,2116,2116.5,2112.5,2113,2120.5,2121,2121,2113.5,2109.5,2102,2098,2094.5,2080.5,2063,2042.5,2029,2022.5,2009.5,1996.5,1984,1968,1961.5,1955.5,1946.5,1955,990,983.5,980.5,2145,968.5,965,962,962,959,959,956,956,953.5,953.5,950.5,947.5,944.5,941.5,936,930,927.5,922,919,916.5,913.5,911,908.5,908.5,908.5,905.5,905.5,905.5,905.5,905.5,903,903,900.5,897.5,892.5,890,887.5,882.5,879.5,874.5,874.5,872.5,870,0,0
5091,5133.5,5154,5197.5,5219,5264,5287,5242,5220.5,5199,5199,5199,5222,5222,5222,5199,5222,5243.5,5243.5,5243.5,5222,5222,5199,5199,5243.5,5220.5,5243.5,5243.5,5288.5,5312.5,5312.5,5336.5,5336.5,5318.5,5298,5302.5,5282,5288,5249.5,5230.5,5212,5238,5256.5,5256.5,5294.5,5288,5308,5323,5343.5,5365,5361.5,5336.5,5245.5,5222,5201.5,5158,5160.5,5140.5,5140.5,5121,5125.5,5106.5,5088,5136,5142.5,5167.5,5193.5,5193.5,5219.5,5264.5,5264.5,5283,5310.5,5329.5,5348.5,5340.5,5340.5,5340.5,5360.5,5368,5368,5368,5388,5415.5,5423.5,5472.5,5472.5,5452.5,5481.5,5462,5492,5484.5,5435.5,5447.5,5429.5,5399,5381,5381,5333.5,5333.5,5304.5,5304.5,5322,5322,5311,5311,5347.5,5357,5376,5415.5,5388,5429,5422,5443.5,5417,5395.5,5417,5443.5,5422,5471,5477,5477,5477,5484.5,5534,5534,5534,5563,5542.5,5584.5,5658,5673,5726,3018.5,3018.5,5869.5,5922,5979,5979,2932.5,5956.5,6052,6025.5,2825,2825,2799,2799,2825,2825,2851,2877.5,2877.5,2877.5,2877.5,2877.5,2851,2877.5,2851,2877.5,2851,2851,2851,2851,2851,2851,2877.5,2877.5,2851,2851,2877.5,2877.5,2877.5,2877.5,2905,2905,2932.5,2932.5,2960.5,2960.5,2960.5,2989.5,2989.5,2989.5,2960.5,2960.5,2932.5,2932.5,2960.5,2905,2905,2877.5,2877.5,2851,2851,2825,2825,2799,2774,2749,2749,2749,2749,2749,2749,2749,2749,2749,2749,2749,2749,2749,2725,2749,2749,2749,2725,2725,2725,2749,2749,2749,2774,2774,2774,2799,2799,2825,2851,2851,2877.5,2877.5,2905,2932.5,2932.5,2932.5,2932.5,2905,2905,2905,2877.5,2851,2851,2851,2825,2799,2799,2799,2774,2774,2774,2774,2774,2774,2774,2774,2774,2774,2774,2774,2774,2774,2774,2774,2774,2799,2799,2799,2799,2825,2825,2851,2851,2877.5,2851,2905,2905,2905,2932.5,2932.5,2989.5,3018.5,3018.5,3048.5,3079,3079,3110,3142,3142,3174.5,3174.5,3174.5,3174.5,3207.5,3207.5,3207.5,3207.5,3174.5,3174.5,3174.5,3174.5,3142,3110,3110,3079,3048.5,3018.5,2989.5,2932.5,2932.5,2905,2877.5,2851,2799,0,0,2725,2677.5,2631.5,0,0,0,0,0,0,0,0,0,0,0,0,0,0,0,0,0,0,0,0,0,0,0,0,0,0,0,344.5,672.5,671,669,665,661.5,659.5,657,655,653.5,652,651.5,650,650,650,649.5,649.5,648.5,648.5,648.5,647.5,647,647,646.5,645.5,645,644,643,641.5,641,639.5,638,637,636,635.5,634.5,634,633,632,632,630.5,630.5,630,629.5,628.5,628,628,627,627,626.5,626,625,624.5,624,623,622,621.5,620.5,620.5,620,619.5,618.5,617.5,617,616,615,614.5,613.5,612,611.5,610.5,610.5,609,608,607.5,606.5,606,605,605,604.5,604.5,603.5,603.5,603,602.5,602.5,602,602,601.5,601.5,601.5,601.5,601.5,602,602,602,602.5,602.5,603,604,604.5,605,605.5,606,607,607.5,608.5,609,610.5,610.5,611.5,612,613,613.5,614.5,615,615.5,617,617,619,619.5,620.5,621.5,622.5,623,624.5,625.5,626.5,627.5,628.5,629,630,631,631.5,633,0,0,1283,1283,1283,1277.5,1277.5,1277.5,1277.5,1277.5,2422,2425.5,2434.5,2433.5,2428.5,2427.5,2426.5,2421.5,2421,2411.5,2406.5,2401.5,2397,2387.5,2369.5,2356.5,2339,2335,2317.5,2301,2293,2281,2281,2281,2276.5,2275.5,2270,2274,2274,2277.5,2277,2281,2272.5,2268,2264,2256,2239,2227,2207,2195.5,2176,2160.5,2145.5,2134.5,2131,2124,2128,2124.5,2132.5,2136.5,2129,2125,2121,2109.5,2102,2094.5,2084,2066.5,2046,2032.5,2019,2012.5,1999.5,1986.5,1977,1974,1977,1976.5,1986.5,987,983.5,977.5,974.5,2316,2327.5,965,962,959,959,959,959,959,956,953.5,950.5,947.5,944.5,938.5,936,930,927.5,922,919,916.5,913.5,911,908.5,908.5,908.5,905.5,905.5,905.5,905.5,903,903,900.5,897.5,892.5,890,885,882.5,877,874.5,872.5,872.5,870,867.5,867.5
5070.5,5113,5133.5,5197.5,5219,5287,5310.5,5265,5199,5199,5199,5222,5222,5222,5222,5201.5,5222,5243.5,5267,5267,5243.5,5243.5,5243.5,5243.5,5243.5,5265,5288.5,5288.5,5312.5,5312.5,5336.5,5361.5,5340,5343.5,5302.5,5328.5,5288,5314,5275.5,5238,5246,5228,5292,5292,5329.5,5321,5340.5,5381,5395.5,5417,5412.5,5386.5,5340,5293.5,5273,5228.5,5208,5188,5168.5,5192.5,5173.5,5154.5,5179.5,5161,5161,5193.5,5219.5,5246,2877.5,2877.5,2905,2905,2932.5,2932.5,2932.5,2932.5,2932.5,2932.5,2932.5,2960.5,2960.5,2960.5,2960.5,2989.5,3018.5,5522,5552,3079,5593,5605,5605,5599,5580,5561.5,5543,5525,5457,5457,5408,5408,5377,5425,5377,5394,5411.5,5399,5405.5,5424,5433,5423.5,5415.5,5456.5,5449.5,5471,5471,5422,5443.5,5471,5477,5498.5,5505,5534,5542.5,5572.5,5593,5623.5,5623.5,5654.5,5654.5,5676,5741.5,5787.5,5835,5909,5961,5984,6039.5,6067,6067,6038,6070.5,6047,6079.5,6085,6052,2877.5,2877.5,2877.5,2905,2905,2932.5,2932.5,2932.5,2932.5,2932.5,2932.5,2932.5,2932.5,2932.5,2932.5,2905,2905,2932.5,2905,2905,2905,2905,2905,2905,2932.5,2932.5,2932.5,2932.5,2932.5,2932.5,2960.5,2960.5,2989.5,2989.5,2989.5,2989.5,2989.5,2989.5,2989.5,2989.5,2960.5,2932.5,2905,5923.5,2877.5,2877.5,5961,6025.5,6100.5,2825,2799,2799,2774,2749,2749,2749,2749,2749,2749,2749,2749,2725,2725,2725,2725,2701,2701,2725,2701,2701,2701,2725,2701,2725,2725,2725,2725,2749,2774,2774,2774,2799,2799,2799,2825,2851,2851,2851,2877.5,2877.5,2877.5,2877.5,2877.5,2851,2851,2851,2825,2825,2774,2774,2749,2749,2725,2725,2725,2725,2725,2725,2725,2725,2725,2725,2749,2749,2749,2749,2774,2774,2774,2774,2799,2799,2799,2825,2799,2825,2851,2851,2851,2877.5,2877.5,2905,2932.5,2960.5,2989.5,3018.5,3048.5,3048.5,3079,3110,3142,3142,3174.5,3174.5,3207.5,3207.5,3207.5,3241,3241,3241,3241,3241,3207.5,3207.5,3174.5,3142,3142,3110,3079,0,0,0,0,0,0,0,0,0,0,0,0,0,0,0,0,0,0,0,0,0,0,0,0,0,0,0,0,356,356,356.5,356.5,355.5,355,354.5,354,353.5,352.5,351,349.5,347,345.5,344,673,671,666.5,335,333,657.5,654.5,653.5,652,652,650.5,650,650,650,650,649.5,649,649,648.5,648,647.5,647.5,647,646.5,645,644.5,642.5,641.5,641,639,638.5,637.5,636.5,635,634.5,633.5,633,632,631.5,630.5,630.5,629.5,629.5,628.5,627.5,627.5,627,626,625.5,625,624,624,622.5,622,621.5,620.5,620.5,620,619.5,618.5,617.5,617,616.5,615.5,614.5,614,612.5,612,611,610.5,609.5,608.5,608,607,606,605.5,605,604.5,604.5,604,603.5,603.5,603.5,603,602.5,602.5,602.5,601.5,601.5,602,602,602,602,602,602.5,603,603,603.5,604.5,605,605.5,606,607,607.5,608.5,609,610,610.5,611,611.5,612.5,613.5,614,614.5,615.5,616,617,618,619,620,621.5,622.5,623.5,624.5,625,626,627.5,629,629.5,630.5,631,631,632.5,0,0,1283,1283,1277.5,1277.5,1277.5,1277.5,1277.5,1272.5,2417,2430,2437.5,2437.5,2433.5,2437,2441.5,2440.5,2430.5,2421,2416,2416,2406.5,2387,2382.5,2360.5,2347,2334,2321.5,2313,2304.5,2300.5,2292,2292,2292,2291,2286,2290,2294.5,2294,2293.5,2293.5,2293.5,2289,2285,2281,2264,2243.5,2231.5,2215.5,2195.5,2176.5,2165,2142,2139,2135.5,2136,2136,2140,2144.5,2136.5,2132.5,2125,2110.5,2106,2094.5,2084,2066.5,2046,2036,2019,2012.5,2006,1993,1986.5,1986.5,1986,1992.5,2006,987,983.5,977.5,974.5,2298.5,2313,965,962,962,962,962,962,962,959,956,953.5,950.5,947.5,941.5,936,930,927.5,924.5,919,916.5,913.5,911,911,908.5,908.5,905.5,905.5,905.5,905.5,903,903,900.5,895,892.5,887.5,885,879.5,877,874.5,872.5,872.5,870,870,870
5029,5091,5133.5,5154,5219,5264,5309,5242,5199,5178.5,5178.5,5178.5,5222,5222,5201.5,5201.5,5222,5243.5,5288.5,5288.5,5267,5288.5,5267,5288.5,5288.5,5310.5,5334.5,5334.5,5380.5,5380.5,5383.5,5408.5,5408.5,5391,5375,5354.5,5360.5,5321,5302,5292,5255.5,5283,5301,5319.5,5338,5329.5,5368,5408.5,5449.5,5471,5465,5460.5,5438.5,5365,5343.5,5298,5277.5,5257,5192.5,5192.5,5198.5,5179.5,5179.5,5186,5186,5238,5264.5,5264.5,5283,2932.5,2932.5,2932.5,2960.5,2960.5,2960.5,2960.5,2932.5,2960.5,5464,5493,2989.5,5493,5542.5,3079,5623.5,5654.5,5654.5,5666,5666,5678,5690.5,5670.5,5665.5,5681,5662.5,5644,5608,5556,5556,5539,5505.5,5522.5,5489.5,5457,5474.5,5478.5,5515.5,5503.5,5511.5,5501.5,5513.5,5505,5498.5,5498.5,5471,5443.5,5471,5498.5,5526.5,5526.5,5563,5593,5603,5623.5,5686.5,5686.5,5708,5719,5719,5795,5839,5908.5,5899.5,5973.5,6058.5,6079.5,6102.5,6128.5,6127.5,6097.5,6099.5,6131.5,6107,6140,6107,2932.5,6042.5,2932.5,2932.5,2932.5,2989.5,2989.5,2989.5,2989.5,2989.5,2989.5,2989.5,2989.5,2989.5,2989.5,2989.5,2989.5,2989.5,2989.5,2989.5,2960.5,2960.5,2932.5,2960.5,2960.5,2960.5,2960.5,2960.5,2960.5,2989.5,2989.5,2989.5,3018.5,3018.5,3018.5,3018.5,3018.5,3018.5,2989.5,2989.5,2960.5,2932.5,2905,2905,2877.5,2851,2851,2825,2825,2799,2799,2799,2774,2749,2749,2749,2749,2749,2749,2749,2749,2749,2725,2725,2725,2701,2701,2677.5,2677.5,2677.5,2677.5,2677.5,2677.5,2701,2701,2677.5,2677.5,2701,2725,2725,2701,2725,2749,2749,2749,2799,2799,2799,2799,2799,2825,2799,2799,2799,2799,2774,2774,2774,2749,2749,2701,2677.5,2677.5,2677.5,2677.5,2677.5,2654.5,2654.5,2677.5,2701,2725,2725,2725,2725,2725,2725,2749,2749,2774,2774,2774,2799,2799,2799,2799,2799,2799,2825,2825,2877.5,2877.5,2877.5,2905,2960.5,2989.5,3018.5,3048.5,3048.5,3079,3079,3142,3174.5,3174.5,3207.5,3207.5,3241,3241,3275.5,3275.5,3275.5,3275.5,3241,3241,3241,3207.5,3207.5,3174.5,3142,3142,3110,0,0,0,0,0,0,0,0,0,0,0,0,0,0,0,0,0,0,0,0,0,0,0,0,0,0,356,356,356,356,356,355.5,354.5,354.5,353.5,353,352.5,350.5,349,347.5,346,344.5,343.5,341.5,338.5,336,334,326,656,654.5,653,653,652,651.5,651,651,651,650.5,650.5,650,650,649.5,649,648,648,646.5,646,645,644,642,641.5,640.5,639,638,637,636.5,635,634.5,633,633,632,631,630.5,630,629,629,628,627,627,626.5,625.5,625,624,623.5,622,622,621.5,620.5,620.5,620,619.5,618.5,618,617,616.5,615.5,614.5,614,612.5,611.5,611,610.5,609.5,608.5,608,607.5,606.5,606,605.5,605,604.5,604.5,604.5,604,603.5,603.5,603,603,602.5,602.5,602.5,602.5,602,602,602,602,603,603,603,604,604.5,604.5,605.5,605.5,607.5,607.5,608,608.5,610,610.5,611,611.5,612,613,613.5,614,614.5,615.5,617,617.5,619,620,621,622,623.5,624.5,625,626.5,627.5,628.5,629.5,630.5,631,631.5,632.5,315,0,1277.5,1277.5,1277.5,1277.5,1272.5,1272.5,1272.5,1272.5,1272.5,2424.5,2437.5,2437.5,2432.5,2441.5,2440.5,2440,2439.5,2430,2434.5,2429.5,2415.5,2396.5,2387.5,2368.5,2351,2342.5,2325,2320.5,2316.5,2312.5,2307.5,2307.5,2303,2298.5,2298.5,2294,2302.5,2302,2306,2302,2302.5,2298.5,2307,2290,2277.5,2260.5,2244,2224,2204,2188.5,2173,2154,2150.5,2147,2147.5,2144,2148.5,2152.5,2144.5,2136.5,2129,2114,2106,2091.5,2081,2063,2046,2032.5,2022,2019,2012,2006,1999,1999.5,2006,2016.5,987,983.5,983.5,980.5,977.5,974.5,971.5,968.5,2303.5,2313,968.5,965,965,965,962,959,956,953.5,947.5,941.5,938.5,933,927.5,924.5,922,916.5,913.5,913.5,911,911,908.5,908.5,905.5,905.5,905.5,903,900.5,897.5,895,890,885,882.5,879.5,874.5,874.5,872.5,872.5,870,870,870
5007.5,5069.5,5111.5,5154,5219,5264,5309,5242,5199,5178.5,5178.5,5178.5,5178.5,5201.5,5201.5,5158,5222,5267,5288.5,5288.5,5288.5,5288.5,5288.5,5310.5,5356.5,5356.5,5380.5,5405.5,5428.5,5479.5,5456.5,5482.5,5487,5465,5449.5,5408.5,5388,5395.5,5338,5301,5311,5293,5311,5329,5376.5,5366,5385,5415.5,5484.5,5498.5,5492.5,5492.5,5443.5,5395.5,5349,5302.5,5282,5262,5198.5,5179.5,5161,5142.5,5167.5,5175.5,5201.5,5201.5,5246,5273.5,5319.5,5357,5423.5,5443.5,2989.5,2989.5,2960.5,5505,5484.5,5484.5,5513.5,5563,5563,5572.5,5593,5645,5676,5676,5708,5708,5719,5731.5,5744.5,5738.5,5719,5716.5,5698,5661.5,5643.5,5609,5609,5609,5573.5,5590.5,5556,5540,5558,5561.5,5599,5553.5,5593,5552,5542.5,5555.5,5526.5,5520,5520,5520,5498.5,5498.5,5555.5,5555.5,5593,5623.5,5634,5686.5,5719,5740.5,5773.5,5773.5,5807,5828.5,5930,5942,6000.5,6074.5,6092,6146,6168,6223,6190.5,6127.5,6158.5,6160.5,6193,6164,6164,6099.5,2989.5,2960.5,2989.5,2989.5,3018.5,3048.5,3048.5,3048.5,3048.5,3048.5,3048.5,3048.5,3048.5,3048.5,3018.5,3048.5,3048.5,3048.5,3018.5,2989.5,2989.5,2989.5,2989.5,2989.5,2989.5,2989.5,2989.5,5158,2989.5,3018.5,3018.5,3048.5,3048.5,3048.5,3048.5,3048.5,5797.5,3018.5,2989.5,2960.5,2960.5,2932.5,2877.5,2877.5,6032.5,6006.5,6040,6085,6085,6121,2774,2774,2749,2749,2749,2749,2749,2749,2749,2749,2749,5168.5,5188,5184,5225,2677.5,2677.5,2677.5,2654.5,2654.5,2654.5,2654.5,2654.5,2654.5,2654.5,2654.5,2654.5,2654.5,2654.5,2677.5,2677.5,2677.5,2677.5,2701,2725,2725,2725,2725,2725,2725,2725,2725,2725,2725,5130.5,5106.5,5106.5,5106.5,5106.5,2701,2654.5,2654.5,2654.5,2654.5,2654.5,2654.5,2654.5,2654.5,2677.5,2701,2701,2701,2725,2725,2725,2725,2749,2749,2749,2749,2749,2749,4748.5,4785.5,4748,4748,2799,2851,2851,2877.5,2905,2932.5,2960.5,2989.5,3048.5,5172,3079,3110,3142,3174.5,3174.5,3207.5,3241,3241,3275.5,3311,3311,3311,3311,3311,3311,3275.5,3275.5,3241,3207.5,3207.5,3142,3142,0,0,0,0,0,0,0,0,0,0,0,0,0,0,0,0,0,0,0,0,0,0,0,0,0,0,355.5,355.5,355.5,356,356,355.5,355,354.5,354.5,353.5,353,352.5,350.5,349,347.5,346.5,345,344,342,338.5,336,0,326,656,655,654,653.5,653,652.5,652.5,652.5,651.5,651.5,651,651,651,650,649.5,649,648,648,647,646,644,643,642,641,640,638.5,637.5,636.5,636,634.5,634,632.5,632,631.5,630.5,630,629.5,628.5,628,627.5,626.5,626,625.5,624.5,624,623,622,621.5,621,620.5,620.5,620,619.5,618.5,618.5,617,616.5,616,615,613.5,612.5,612,611.5,610.5,609.5,609,608.5,607.5,607.5,606.5,605.5,605.5,605,604.5,604.5,604.5,604,603.5,603.5,603.5,603,603,602.5,602.5,602.5,602.5,602.5,602.5,603,603,603.5,604,604.5,605,605.5,605.5,607,607.5,608,608.5,609.5,610.5,610.5,611.5,612,612.5,613,614,614.5,615.5,616.5,617,618.5,619.5,620.5,622,623,624,625,626.5,627.5,628,630,630.5,631.5,631.5,632,633.5,0,0,0,1272.5,1272.5,1272.5,1272.5,1272.5,1272.5,1267,2416,2424,2428.5,2432.5,2432,2436,2440,2435,2430,2430,2429.5,2415.5,2401,2382.5,2368.5,2355.5,2342,2328.5,2324,2319.5,2315.5,2315.5,2311,2311,2306.5,2298,2302.5,2302,2306.5,2302,2306.5,2302.5,2298.5,2298.5,2290,2278,2261,2241,2224.5,2208.5,2192.5,2177,2158,2154.5,2155,2159.5,2160,2156.5,2161,2148.5,2136.5,2129,2114,2106,2088,2081,2063,2046,2035.5,2029,2029,2022,2019,2015.5,2019.5,2033,990,987,983.5,983.5,980.5,977.5,974.5,2273.5,2281.5,2287.5,2293,2298.5,968.5,968.5,965,965,962,959,953.5,950.5,941.5,938.5,933,927.5,924.5,922,919,916.5,913.5,913.5,911,908.5,908.5,905.5,905.5,905.5,903,900.5,897.5,892.5,887.5,885,882.5,877,874.5,874.5,872.5,872.5,872.5,872.5,872.5
5027.5,5069.5,5111.5,5153.5,5219,5264,5309,5242,5176,5155.5,5155.5,5178.5,5178.5,5178.5,5158,5158,5222,5288.5,5288.5,5310.5,5310.5,5334.5,5334.5,5334.5,5380.5,5428.5,5453.5,5453.5,5479.5,5505.5,5532,5532,5514.5,5471,5456.5,5436,5395.5,5385,5347.5,5293,5258.5,5258.5,5258.5,5258.5,5287.5,5293,5329,5347.5,5385,5415.5,5429,5429,5401.5,5354.5,5282,5262,5217.5,5198.5,5161,5142.5,5131.5,5114,5114,5123,5149,5149,5192.5,5255.5,5301,2932.5,2960.5,2989.5,2989.5,2989.5,2989.5,2989.5,2989.5,2989.5,3018.5,3018.5,3048.5,5614.5,5645,5676,5708,5729.5,5729.5,5762,5740.5,5731.5,5711,5704,5700,5698,5697.5,5679.5,5645,5628,5647.5,5611,5628,5609,5626,5608,5626,5628,5632,5637.5,5625,5603,5593,5584.5,5548,5548,5520,5520,5498.5,5526.5,5584.5,5593,5654.5,5698.5,5719,5731.5,5785.5,5820,5877,5877,5855.5,5920.5,5988.5,6048,6096,6146,6162,6216,6236,6256,6223,6190.5,6220,6190.5,6223,6226,6226,3018.5,6193,2989.5,3018.5,3018.5,3079,3079,5930,5987.5,6015,6074.5,6102.5,3142,3142,3142,3110,3079,3079,3079,3079,3048.5,3048.5,3018.5,3018.5,3018.5,3018.5,3018.5,2989.5,3018.5,3018.5,3018.5,3048.5,5217,5381,3048.5,5593,3048.5,3018.5,2989.5,2989.5,2960.5,6208,6243.5,6188.5,6198,6172,6146,6182.5,6157.5,6157.5,6195,6195,6157.5,2774,2774,2774,2774,2774,2774,2749,2749,5173.5,5192.5,5188,5208,5245.5,2701,2677.5,2677.5,2654.5,2654.5,2654.5,2654.5,2654.5,2654.5,2654.5,2631.5,2654.5,2654.5,2654.5,2654.5,2654.5,2654.5,2677.5,2701,2701,2701,2701,2701,2725,2725,2725,2725,2701,5106.5,5106.5,5106.5,5106.5,5083,5083,5083,2654.5,2631.5,2631.5,2631.5,2631.5,2631.5,2631.5,2654.5,2654.5,2677.5,2677.5,2701,2701,2701,2725,2725,2725,2725,2749,4710,2749,2749,2749,4629,4642.5,4642.5,4654,4706,4694.5,2905,4821.5,4897,4976,5031,5087.5,5131.5,5190.5,3142,3142,3174.5,3207.5,3241,3275.5,3311,3311,3347,3347,3347,3347,3347,3347,3311,3311,3311,3275.5,3275.5,3207.5,3207.5,0,0,0,0,0,0,0,0,0,0,0,0,0,0,0,0,0,0,0,0,0,0,0,0,0,355,355,355,355,355.5,355.5,355,354.5,354,353.5,352.5,352.5,351.5,350.5,349,348,347,345.5,344,343,339.5,337,0,326,658,656.5,655.5,654.5,654.5,654.5,654,654,654,653,653,652.5,652,651,650.5,649.5,649,648,647,646,644.5,643.5,642,641,639.5,638.5,637.5,636,635,635,633,633,631.5,631.5,630,630,629,628,628,627,626.5,626,625.5,624.5,623.5,622.5,622,621,620.5,620.5,620,620,619.5,618.5,617.5,617,616.5,616,614.5,613.5,613,612,612,610.5,610,609.5,608,608,607.5,607,606,605.5,605.5,605.5,605,605,605,604.5,604,603.5,603.5,603.5,603.5,603,602.5,602.5,602.5,602.5,603.5,603.5,603.5,604,604,605,605.5,606,607,607.5,607.5,608.5,609,610,610.5,611,611.5,612,612.5,613.5,613.5,615,615.5,616.5,618,618.5,620,621.5,622.5,624,625,626.5,627.5,628.5,630,630.5,631.5,632,632,317.5,0,0,0,1267,1267,1267,1267,1267,1267,1267,2406.5,2419.5,2414.5,2419,2432,2436,2435.5,2435,2434.5,2434.5,2420,2410.5,2405.5,2382.5,2368.5,2355,2341.5,2328,2323.5,2323.5,2319.5,2319.5,2315,2315,2307,2302.5,2302,2302,2302,2302,2298,2302.5,2298.5,2299,2290.5,2278,2262.5,2241,2229.5,2213.5,2193.5,2181.5,2166,2159,2163,2168,2164.5,2164.5,2164.5,2148.5,2136.5,2125,2110.5,2098.5,2088,2077.5,2063,2046,2039,2035.5,2036,2032.5,2033,2032.5,2036.5,2054.5,2066.5,2079,2110.5,2136.5,2163,2202.5,2239.5,2255,2266,2268,2268,2263,971.5,971.5,968.5,965,962,959,953.5,947.5,941.5,938.5,933,927.5,924.5,922,919,916.5,913.5,913.5,911,911,908.5,908.5,905.5,905.5,900.5,897.5,895,890,887.5,885,879.5,877,874.5,874.5,872.5,872.5,872.5,874.5,874.5
5027.5,5069.5,5111.5,5175.5,5197,5263,5309,5219,5176,5133.5,5113,5113,5135,5135,5158,5114.5,5178.5,5265,5288.5,5310.5,5310.5,5334.5,5356.5,5380.5,5403.5,5428.5,5476.5,5502.5,5502.5,5555,5532,5532,5536.5,5492.5,5498.5,5436,5443.5,5404,5347.5,5311,5275.5,5258.5,5258.5,5275.5,5304.5,5304.5,5311,5347.5,5385,5376,5388,5360.5,5334,5282,5217.5,5173.5,5130.5,5112,5075.5,5040,5047,5055,5038,5063,5089,5125,5158.5,5203,5237.5,5301,5319.5,5452.5,5464,5555.5,2989.5,5555.5,5526.5,5555.5,3018.5,3018.5,5614.5,5614.5,5666.5,5697.5,5751.5,5729.5,5729.5,5762,5740.5,5752,5711,5704,5700,5698,5697.5,5662,5628,5594.5,5594.5,5594.5,5647.5,5628,5645,5643.5,5644,5662.5,5665.5,5637.5,5645.5,5634,5645,5606,5577,5570,5570,5520,5526.5,5577,5584.5,5623.5,5686.5,5719,5765,5785.5,5820,5877,5913,5971,6015,6061,6108.5,6157.5,6208.5,6288.5,6316,6300.5,6294,6320,6317.5,6316.5,6316.5,6284.5,6286.5,6223,6256,3048.5,3048.5,3048.5,3079,3079,3079,3110,6015,6015,6074.5,6102.5,6102.5,3174.5,3174.5,3174.5,3174.5,3142,3110,3110,3079,3048.5,3048.5,3018.5,3018.5,3018.5,2989.5,2989.5,5142.5,5142.5,5187,5217,5217,5248,5399,3048.5,3048.5,3048.5,6008,2989.5,6230.5,6236,6236,6243.5,2877.5,6224.5,6172,6146,6182.5,6182.5,6157.5,6157.5,6157.5,6121,2774,2774,2774,2774,2774,2774,2774,5179.5,5179.5,5173.5,5192.5,5188,5249,5310.5,5378.5,2677.5,2677.5,2654.5,2654.5,2654.5,2654.5,2654.5,2654.5,2654.5,2677.5,2677.5,2677.5,2677.5,2677.5,2677.5,2677.5,2701,2701,2701,2701,2701,2701,2701,2701,2701,5106.5,5125.5,5125.5,5125.5,5125.5,5102,5102,5102,2631.5,2631.5,2631.5,2631.5,2631.5,2631.5,2631.5,2631.5,2631.5,2677.5,2677.5,2677.5,2701,2701,2701,2725,2725,2725,2725,2749,2749,2749,2749,4629,4642.5,4654,4654,4706,2905,4782.5,4873,4938.5,5048,5074,5149,5176.5,5236.5,3174.5,3207.5,3241,3275.5,3311,3311,3347,3383.5,3421,3421,3459.5,3459.5,3421,3421,3421,3383.5,3383.5,3347,3347,3311,3275.5,0,0,0,0,0,0,0,0,0,0,0,0,0,0,0,0,0,0,0,0,0,0,0,0,0,354.5,354.5,354.5,354.5,355,355,354.5,354,353.5,353,352.5,351.5,351,349.5,348.5,347.5,346.5,0,344.5,343.5,340,337,0,326,659,657.5,656.5,656,655.5,655.5,655,655,654.5,654.5,654,653.5,652.5,652.5,651,650,649.5,648,647,646.5,644.5,643.5,642.5,641,639.5,638.5,637,636,635,634,632.5,631.5,631,630.5,630,629,628.5,628,627,626.5,626,625.5,625,624,623.5,622.5,621.5,621,620.5,620.5,620,620,619,618.5,617.5,617,616.5,615.5,614.5,613.5,612.5,612,611.5,610.5,610,609.5,608.5,608,607.5,607,606.5,606,605.5,605.5,605.5,605,605,605,605,604,603.5,603.5,603.5,603.5,603,603,603,603,603.5,603.5,603.5,603.5,604,605,605.5,606,607,607.5,607.5,608.5,609,609.5,610,611,611,612,612.5,613,613,614.5,615.5,616,617,618,620,621,623,623.5,625.5,626.5,627,629,629.5,630.5,631,632,632.5,633,318,0,0,1262,1262,1262,1262,2365.5,2377.5,1262,1262,2406,2410,2414.5,2413.5,2431,2431,2430.5,2430,2429.5,2420,2405.5,2396.5,2378,2359.5,2346,2332.5,2323.5,2315.5,2315.5,2315.5,2311,2311,2302.5,2298,2293.5,2293.5,2293.5,2293.5,2293.5,2298,2294.5,2290,2290.5,2286.5,2274,2262.5,2237,2225.5,2213.5,2197.5,2186,2174,2163,2171.5,2168,2164.5,2160,2156,2148,2129,2121,2106,2094.5,2081,2077.5,2059.5,2049.5,2042.5,2039,2043,2046,2046.5,2054,2065.5,2081,2096.5,2109.5,2127.5,2149,2168,2195.5,2220,2232,2242.5,2242.5,2239.5,2234.5,974.5,974.5,968.5,965,962,956,953.5,947.5,941.5,936,933,927.5,924.5,922,919,916.5,916.5,913.5,911,911,908.5,908.5,905.5,903,900.5,897.5,895,890,885,882.5,879.5,877,874.5,874.5,874.5,874.5,877,877,877
5027.5,5069.5,5111.5,5175.5,5219,5286,5286,5219,5154,5133.5,5113,5113,5113,5113,5092.5,5092.5,5176,5220.5,5265,5310.5,5332.5,5356.5,5356.5,5403.5,5426.5,5475,5500,5526,5526,5552,5528.5,5555,5532,5514.5,5492.5,5477,5436,5395.5,5338,5301,5293,5293,5293,5275.5,5293,5293,5311,5347.5,5338,5348.5,5321,5294.5,5242.5,5173.5,5130.5,5088,5064.5,5023,4969.5,4975.5,4965,4948.5,4956,4964,4964,5014,5046.5,5115,5192.5,5228,5310.5,5388,5484.5,5526.5,5570,5570,5570,5577,5577,5584.5,5614.5,5636,5636,5666.5,5688.5,5719.5,5751.5,5729.5,5740.5,5740.5,5731.5,5704,5700,5698,5661.5,5679.5,5609,5611,5611,5575,5609,5626,5661.5,5679.5,5681,5684.5,5711,5719,5676,5666.5,5680,5644,5615,5587,5587,5564,5564,5599,5577,5614.5,5676,5719,5785.5,5820,5898.5,5934.5,5956.5,6015,6075.5,6098.5,6132.5,6220,6234.5,6288.5,6279.5,6300.5,6294,6320,6286.5,6284.5,6284,6189,6221,6190.5,3048.5,3079,3079,3048.5,3079,3079,3110,3110,3110,3142,3142,3142,3174.5,3174.5,3174.5,3142,3142,3142,3110,3079,3079,3048.5,3048.5,3018.5,3018.5,2989.5,2989.5,2989.5,2989.5,5266,3018.5,3048.5,5296,5329.5,5473,5552,3048.5,3048.5,3018.5,3018.5,2989.5,6236,6271.5,6279.5,6252,6224.5,6198,6208.5,6208.5,6182.5,6182.5,6182.5,6182.5,6146,6110,2799,2799,2799,2799,5302.5,2799,5217.5,5217.5,5217.5,5192.5,5212,2725,5269.5,5288.5,2677.5,2677.5,2677.5,2654.5,2654.5,2654.5,2654.5,2654.5,2677.5,2677.5,2677.5,2677.5,2677.5,2677.5,2677.5,2677.5,2677.5,2701,2701,2701,2701,2701,2701,2701,2701,5144.5,5144.5,5144.5,5164,5164,5140.5,5140.5,5117.5,5094.5,5114.5,5114.5,2631.5,2609.5,2609.5,2631.5,2631.5,2631.5,2677.5,2677.5,2677.5,2701,2701,2701,2701,2725,2725,2725,2749,2749,4638,4615,4654,4654,4654,4680,4755,4782.5,4873,4926,5022.5,5104.5,5149,5208.5,5269,5298,5360.5,3207.5,3275.5,3311,3347,3383.5,3383.5,3459.5,3459.5,3499,3499,3499,3499,3499,3421,3421,3383.5,3383.5,3347,3311,3311,0,0,0,0,0,0,0,0,0,0,0,0,0,0,0,0,0,0,0,0,0,0,0,0,0,354,354,354.5,354,354.5,354.5,354,353,352.5,352.5,351,350.5,350,348.5,347.5,0,0,0,0,0,0,337.5,336,334.5,658.5,658.5,657.5,657.5,657,656.5,657,656.5,656,655.5,655.5,654.5,653.5,653,652,651,649.5,648,647.5,646,645,643.5,642,641,639.5,637.5,636,635,634,633,632,631,630,629.5,629,628.5,627.5,627.5,626.5,626,625.5,625.5,624.5,624,623,622,621.5,620.5,620.5,620,620,619.5,618.5,618.5,617.5,617,616.5,615.5,614.5,613.5,613,612.5,611.5,610.5,610,609.5,609,608,608,607.5,607.5,606.5,605.5,605.5,605.5,605.5,605.5,605,605,604.5,604,603.5,603.5,603.5,603.5,603,603,603,603.5,603.5,603.5,604,605,605,605.5,606,606.5,607.5,607.5,608,609,609.5,609.5,610.5,611,611.5,612,612.5,613,614,615,615.5,616.5,618.5,620,621,622.5,624,625,626.5,627.5,629,629.5,631,631.5,632,633,633.5,318,318,0,1257,1257,1257,1257,1257,1257,1257,1257,1257,2400.5,1251.5,2409,2421.5,2426,2425.5,2420.5,2420,2410.5,2396.5,2387,2368.5,2350,2337,2324,2311,2306.5,2302,2302,2302,2298,2293.5,2285,2285,2285,2281,2285,2281,2281,2285.5,2286,2286.5,2278,2266,2254,2241.5,2225.5,2213.5,2201.5,2186,2174,2170.5,2163,2159.5,2159.5,2159.5,2155.5,2136,2128.5,2113.5,2098.5,2091,2080.5,2073.5,2059.5,2049.5,2049.5,2049.5,2049.5,2060.5,2067.5,2076,2088.5,2104.5,2112.5,2126,2143,2153.5,2166.5,2180.5,2191,2200.5,2200.5,2197.5,2192.5,2180.5,2171,974.5,968.5,965,959,956,950.5,947.5,941.5,936,930,927.5,924.5,922,919,916.5,916.5,913.5,911,911,908.5,908.5,905.5,903,900.5,897.5,895,890,885,882.5,879.5,877,874.5,874.5,874.5,874.5,877,879.5,879.5
5027.5,5069.5,5132,5153.5,5197,5286,5286,5197,5154,5111.5,5091,5091,5070.5,5070.5,5070.5,5050.5,5155.5,5220.5,5265,5309,5332.5,5379.5,5403.5,5426.5,5475,5475,5524,5524,5550,5576,5576,5552,5555,5532,5487,5465,5449.5,5388,5348.5,5310.5,5292,5301,5283,5283,5283,5301,5273.5,5273.5,5292,5264.5,5230.5,5204.5,5136,5069.5,5028,5010,4964,4907.5,4873.5,4840.5,4846.5,4854,4838,4861,4877,4924.5,4956,5013,5114,5149.5,5230.5,5360.5,5449.5,5520,5542,5564,5564,5592,5621,5628,5628,5628,5628,5658,5688.5,5666.5,5688.5,5697.5,5676,5686.5,5645.5,5657.5,5651,5628,5626,5643.5,5573.5,5592,5611,5592,5609,5608,5644,5646.5,5651,5690.5,5698.5,5708,5688.5,5680,5673,5638,5633.5,5606,5582.5,5582.5,5536.5,5592,5650,5658,5708,5773.5,5807,5841.5,5934.5,5934.5,5993,6015,6075.5,6122,6170,6182.5,6234.5,6288.5,6279.5,6300.5,6294,6256,6253.5,6221,6158,6189,6158.5,6127.5,6097.5,6097,6038,3048.5,3079,3079,3079,3079,3110,3110,5941,5916,5916,5916,3142,3142,3142,3110,3110,3079,3048.5,3048.5,3018.5,3018.5,2989.5,2989.5,2989.5,2989.5,5304.5,5316.5,5316.5,3048.5,5346.5,5399,5531.5,5636,3048.5,5899.5,6067,6160.5,6265,6336.5,6307.5,6316,6288.5,6288.5,6326,6298.5,6298.5,6298.5,6298.5,6298.5,6326,6298.5,6261,6118.5,2851,2851,5526,5386.5,5343.5,5302.5,5302.5,5257,5277.5,5277.5,5273,2725,2725,2701,2701,2701,2677.5,2677.5,2677.5,2677.5,2677.5,2677.5,2677.5,2677.5,2677.5,2677.5,2701,2701,2701,2701,2701,2701,2701,2701,2701,2701,2701,2701,5164,5164,5184,5184,5184,5204.5,5181,5201.5,5178.5,5155.5,5176,2631.5,2631.5,2631.5,2631.5,2631.5,2654.5,2677.5,2677.5,2677.5,2701,2701,2701,2725,2725,2725,2725,2749,2749,2749,2774,4676.5,4691,4691,2851,4794,4873,4914,4979.5,5078.5,5149,5222.5,5283.5,5327.5,5391,5422.5,3241,3275.5,3347,3383.5,3421,3459.5,3499,3499,3499,3539,3499,3499,3499,3459.5,3459.5,3421,3421,3383.5,3347,3347,0,0,0,0,0,0,0,0,0,0,0,0,0,0,0,0,0,0,0,0,0,370,369,0,0,352.5,352.5,353,353,353,353,352.5,352,351.5,351,350,349.5,348.5,347.5,0,0,0,0,0,0,0,0,336.5,336,325.5,659.5,659,658.5,658,657.5,658,657.5,657,657,656.5,655.5,654.5,653.5,652.5,651.5,649.5,648.5,647,645.5,644.5,642,641.5,640,638.5,637.5,635.5,634,633,632.5,631.5,630,630,629,628.5,628,627,626.5,626,625.5,625.5,625,624,623.5,623,622,621.5,620.5,620,620,619.5,619,618.5,617.5,617,617,616.5,615.5,614.5,613,612.5,612.5,611.5,610.5,610,609.5,609,608.5,608,607.5,607.5,606.5,606.5,606,605.5,605.5,605.5,605.5,605,605,605,604.5,604,604,604,604,603.5,603.5,603.5,604,604.5,605,605,605.5,605.5,606.5,607,607.5,608,608,608.5,609.5,609.5,610,610.5,611.5,612,612,613,613.5,614.5,615.5,616.5,618.5,619.5,620.5,622.5,624.5,625,626.5,628,629,630,631,631.5,632.5,633.5,634,634.5,318,0,1251.5,1251.5,1246.5,1246.5,1246.5,2374.5,1251.5,2378.5,2387,2387,2391,2394.5,2408,2407,2411,2406,2406.5,2391.5,2382.5,2373,2359.5,2341.5,2328,2315,2306.5,2297.5,2293.5,2293.5,2289.5,2289.5,2285,2276.5,2272.5,2272,2276.5,2276.5,2281,2276.5,2281.5,2286,2282,2282.5,2266,2254,2241.5,2225.5,2209.5,2197.5,2189.5,2174,2170.5,2167,2167,2159.5,2155.5,2151.5,2136,2124.5,2109.5,2094.5,2087.5,2080.5,2076.5,2066.5,2056.5,2056,2056,2067,2074.5,2082.5,2095,2104,2120,2129,2137.5,2147.5,2156.5,2165,2171.5,2176,2185,2181.5,2177,2165,2151,2130.5,974.5,968.5,965,959,953.5,947.5,941.5,938.5,2052.5,2058,2063.5,2065,922,2059.5,2044.5,916.5,913.5,911,911,908.5,905.5,905.5,903,900.5,897.5,892.5,890,885,882.5,877,877,874.5,877,877,877,879.5,879.5,882.5
5048,5090,5132,5175.5,5197,5263,5286,5197,5132,5111.5,5069.5,5069.5,5069.5,5069.5,5070.5,5049,5133.5,5197.5,5265,5309,5332.5,5379.5,5426.5,5426.5,5475,5499,5524,5548,5573,5574,5574,5574,5526,5528.5,5482.5,5487,5443.5,5422,5381,5388,5348.5,5348.5,5348.5,5329.5,5329.5,5302,5283,5283,5238,5212,5186,5099.5,5057.5,4992.5,4952.5,4929.5,4868.5,4847,4797,4781,4771,4756,4740.5,4756,4778,4815,4869.5,4941.5,5023,5117.5,5217.5,5302.5,5417,5460.5,5536.5,5559.5,5559.5,5559.5,5587,5615,5615,5644,5621,5650,5621,5650,5658,5658,5636,5614.5,5654.5,5625,5585.5,5599,5594.5,5558,5540,5556,5590.5,5590.5,5661.5,5644,5681,5684.5,5690.5,5752,5762,5751.5,5733.5,5696,5690.5,5685.5,5630,5602.5,5606,5555,5587,5615,5621,5658,5751.5,5762,5807,5841.5,5956.5,5993,6015,6038,6098.5,6122,6170,6220,6234.5,6261,6216,6271.5,6265,6226,6223,6158.5,6127.5,6127.5,6097,6097,6037,6067,6038,6009,3048.5,3079,3079,3079,3110,3110,5909,5941,5909,3110,3142,3142,3110,3079,3079,3079,3079,3018.5,3018.5,2989.5,2989.5,2989.5,2989.5,2989.5,5433,5424,5405.5,3018.5,5405.5,5473,5593,5680,3048.5,5953.5,6097,6226,6294,6336.5,6344,6344,6381.5,6381.5,6381.5,6420,6420,6420,6420,6420,6420,6420,6344,6216,6112.5,5896,2877.5,2851,5482.5,5412.5,5365,5343.5,5343.5,5298,2774,2749,2749,2725,2725,2701,2701,2701,2701,2701,2701,2701,2701,2701,2701,2701,2701,2701,2701,2701,2701,2701,2701,2701,2701,2701,2701,2701,5204.5,5225,5225,5225,5245.5,5245.5,5222,5243.5,5220.5,5220.5,5219,2631.5,2631.5,2631.5,2631.5,2654.5,2654.5,2677.5,2677.5,2701,2701,2701,2701,2725,2725,2725,2725,2749,2749,2774,2774,4676.5,4691,4740,4778,4857,4885,4979.5,5048,5135.5,5222.5,5298,5360.5,5407,5472,5505,5626,3311,3347,3383.5,3459.5,3499,3499,3539,3539,3580.5,3580.5,3539,3539,3459.5,3459.5,3421,3421,3383.5,3347,0,0,0,0,0,0,0,0,0,0,0,0,0,0,0,0,0,0,0,0,0,0,369,0,366.5,351.5,352,352,352,702.5,352,351.5,351.5,350.5,350.5,349.5,349,348,347.5,346.5,345.5,344.5,344,0,0,0,0,338,337,336,661,661,660.5,660,660,660,659.5,659.5,658.5,658.5,657.5,656.5,655.5,654.5,653,651.5,650,648.5,647,645.5,644.5,642,641,639.5,638,636.5,635,634,633,631.5,630.5,630,629,628.5,628.5,627,627,626,625.5,625.5,625,624.5,623.5,623.5,622.5,622,621.5,620.5,620,620,620,619.5,618.5,618,617,617,616.5,615.5,615,613.5,613,612.5,611.5,611,610,609.5,609,608.5,608,608,607.5,607.5,607,606.5,606.5,605.5,605.5,605.5,605.5,605,605,605,605,604.5,604.5,604.5,604.5,604.5,604.5,604.5,605,605,605.5,605.5,606.5,607,607.5,608,608,608.5,608.5,609.5,609.5,610,610,611,611.5,612,612.5,613.5,614,615.5,617,618,619.5,620.5,622.5,624.5,626,627,628,629,630,631,632,633,633.5,634.5,635,635,0,0,1236.5,1236.5,2356,2361,2364.5,2364.5,2364.5,2368.5,2368.5,2372.5,2377,2385.5,2384.5,2388.5,2388.5,2383.5,2378,2364.5,2355.5,2341.5,2332.5,2315.5,2306.5,2297.5,2289.5,2289.5,2289.5,2280.5,2280.5,2276.5,2268.5,2264,2268,2272,2268,2268.5,2272.5,2272.5,2273,2273.5,2261,2252.5,2241,2228.5,2217,2201,2193.5,2181,2166,2162.5,2159,2155,2151.5,2147.5,2143.5,2128.5,2117,2102,2094.5,2084,2080.5,2076.5,2066.5,2059.5,2059.5,2066.5,2074,2085,2093.5,2105.5,2119,2128.5,2137,2142,2146,2152,2156.5,2165,2166.5,2171.5,2171.5,2166.5,2150,2129.5,2109.5,971.5,2064.5,2038.5,956,950.5,944.5,938.5,936,2053.5,2059.5,2065,2066.5,2063.5,2057,916.5,913.5,913.5,911,1976.5,1959.5,908.5,905.5,903,900.5,897.5,892.5,890,1911.5,1912.5,1909.5,877,877,877,877,879.5,879.5,879.5,882.5
5090,5090,5132,5175.5,5219,5263,5286,5197,5153.5,5090,5090,5069.5,5069.5,5069.5,5049,5049,5113,5197.5,5287,5309,5332.5,5379.5,5426.5,5450,5475,5499,5548,5548,5573,5599,5599,5574,5526,5502.5,5456.5,5460.5,5438.5,5422,5381,5381,5360.5,5340.5,5321,5321,5321,5302,5275.5,5256.5,5212,5186,5124.5,5057.5,4992.5,4935.5,4890.5,4851.5,4830,4792,4739,4728,4713,4704,4719,4740.5,4756,4793,4824.5,4902,4999,5093.5,5217.5,5277.5,5391,5460.5,5482.5,5505.5,5532,5559.5,5587,5610,5638,5615,5615,5615,5592,5621,5621,5599,5599,5577,5584.5,5572.5,5562,5553.5,5547.5,5529,5543,5558,5558,5591.5,5628,5646.5,5684.5,5690.5,5731.5,5762,5773.5,5787.5,5726,5743.5,5714.5,5657.5,5654,5630,5606,5578.5,5610,5644,5673,5710.5,5751.5,5817,5885,5956.5,6015,6015,6075.5,6098.5,6160.5,6208.5,6233.5,6258.5,6272,6261,6344,6271.5,6265,6226,6221,6190.5,6158.5,6158,6127.5,6127.5,6127.5,6127.5,6097,6097,6097,3079,3079,3079,3079,3110,5956.5,5961,5961,3110,3110,3110,3110,3110,3079,3048.5,3048.5,3048.5,3018.5,3018.5,2989.5,2989.5,2989.5,2989.5,5433,5395,5424,5424,5454,5511.5,5614.5,5756.5,5873.5,3048.5,6158.5,6289.5,6365.5,6373,6410.5,6410.5,6449,6449,6488.5,6488.5,6488.5,6488.5,6488.5,6488.5,6488.5,6488.5,6420,6279.5,6208,2905,2877.5,5600,5528.5,5434.5,5391,5343.5,5343.5,5343.5,2774,2774,2749,2749,2725,2725,2725,2701,2701,2701,2701,2701,2701,2701,2701,2701,2701,2701,2701,2701,2701,2701,2701,2701,2701,2701,2701,2701,2677.5,5225,5245.5,5245.5,5245.5,5243.5,5243.5,5243.5,5243.5,5243.5,5242,2654.5,2654.5,2654.5,2654.5,2654.5,2677.5,2701,2701,2701,2701,2701,2701,2701,2701,2725,2725,2725,2749,4674.5,4640,4654,4680,4717,4794,4861,4902,4955,5065.5,5135.5,5222.5,5298,5360.5,5440.5,5523,5556.5,5661.5,3347,3383.5,3421,3459.5,3499,3539,3539,3539,3539,3580.5,3580.5,3499,3499,3459.5,3421,3421,3421,3383.5,0,0,0,0,0,0,0,0,0,0,0,0,0,0,0,0,0,0,0,0,0,0,0,0,0,351,351,351,351,703,700,350.5,695.5,349.5,349,348.5,348,347,0,345,344.5,343.5,343,341.5,341,340,339,338,337,337,661.5,661.5,661.5,661.5,661,661,660.5,660.5,660.5,659.5,658,657.5,656.5,655,653,651.5,650,648,647,645,643.5,641.5,641,638.5,637.5,635.5,634,633,632.5,631,630.5,629.5,628,628,627.5,627,626.5,626,625.5,625,624.5,624.5,624,623,623,622,621.5,620.5,620,620,620,619.5,618.5,617.5,617,617,616.5,615.5,615,613.5,613,612.5,611.5,611,610,610,609.5,608.5,608,608,608,607.5,607.5,607,607,606.5,606,606,606,605.5,605.5,605.5,605.5,605.5,605.5,605.5,605.5,605.5,605.5,606,606,606,606.5,607,607,607.5,608,608,608.5,609,609,609,609.5,610,610,610.5,611.5,611.5,612.5,613,614,615.5,617,618,619.5,621.5,622.5,624.5,626,627,628.5,629.5,631,631,632,633,634.5,635,635,636,319,0,1231.5,1226.5,2346,2351,2355,2350,2355,2359.5,2359.5,2359.5,2358.5,2362.5,2362.5,2375,2370,2369.5,2360.5,2351,2346.5,2332.5,2315,2311,2298,2293.5,2289,2285,2285,2276.5,2276.5,2268.5,2264,2259.5,2264,2264,2260,2264,2260,2255.5,2260,2256,2248,2240,2224,2212,2204.5,2192.5,2185,2173,2162,2158.5,2151,2155,2151,2147,2143.5,2132,2113,2105.5,2098,2084,2084,2076.5,2073,2066.5,2066.5,2070.5,2081,2089,2097,2109,2122.5,2123,2128.5,2133.5,2137.5,2143,2147.5,2152,2153.5,2157.5,2157.5,2150,2136.5,2113.5,2094,971.5,2049,2024.5,2004.5,947.5,941.5,2022.5,2032.5,2053.5,2060.5,2066.5,2063.5,2063.5,2061,2049.5,2037,2022.5,911,1995,1977.5,1963.5,1956.5,1946.5,1937,1930.5,1922.5,1923,1921.5,1922.5,1927,1924.5,1935,1938.5,1942.5,877,879.5,879.5,879.5
5110.5,5132,5153.5,5197,5241,5263,5286,5197,5153.5,5132,5111.5,5090,5069.5,5069.5,5049,5049,5133.5,5197.5,5287,5332.5,5332.5,5379.5,5403.5,5475,5475,5524,5548,5548,5548,5574,5574,5550,5550,5526,5479.5,5482.5,5438.5,5417,5395.5,5375,5381,5360.5,5360.5,5314,5314,5294.5,5294.5,5230.5,5186,5167.5,5117.5,5033.5,4992.5,4952.5,4895.5,4857,4835,4797,4765.5,4734.5,4725.5,4747.5,4733,4769.5,4769.5,4823,4861,4956,5030,5149.5,5249.5,5334,5422,5514.5,5536.5,5587,5587,5610,5638,5661.5,5667,5667,5644,5644,5592,5592,5592,5570,5548,5520,5526.5,5513.5,5472.5,5462,5473,5484.5,5447.5,5478.5,5543,5543,5613,5618,5657.5,5698.5,5762,5751.5,5819.5,5780,5773.5,5767.5,5709.5,5706.5,5706.5,5654,5654,5657.5,5661.5,5719.5,5726,5764.5,5806,5850.5,5920.5,5956.5,6015,6052.5,6075.5,6137,6160.5,6184.5,6170,6220,6246,6198,6252,6208,6173.5,6197,6193,6128.5,6097.5,6127.5,6097,6097,6127.5,6127.5,6127.5,6127.5,6127.5,6127.5,6097.5,6068.5,3079,3110,5956.5,5930,3079,3110,3110,3110,3079,3079,3048.5,3048.5,3048.5,3018.5,3018.5,3018.5,3018.5,3018.5,3018.5,3018.5,5531.5,5511.5,5492,5492,5511.5,5552,3048.5,5749.5,5904,6038,6158.5,6259.5,6365.5,6402,6439.5,6478,6478,6478,6517.5,6517.5,6547.5,6547.5,6517.5,6547.5,6517.5,6517.5,6449,6307.5,6236,5984,5837.5,5679,5555,5482.5,5417,5417,5369.5,5369.5,5369.5,5343.5,2799,2774,2774,2749,2749,2725,2725,2749,2749,2725,2725,2725,2725,2725,2701,2725,2725,2725,2725,2725,2725,2725,2725,2701,2701,2701,2677.5,5222,5243.5,5243.5,5243.5,5243.5,5243.5,5243.5,5243.5,5265,5265,5287,2677.5,2701,2725,2725,2725,2725,2725,2725,2701,2701,2701,2701,2701,2725,2725,2749,2774,2799,2825,2851,4721,4760,4826.5,4867,4949,5015.5,5096.5,5200,5288,5364.5,5409.5,5490.5,5558.5,5609,5715.5,3383.5,3421,3459.5,3499,3539,3580.5,3580.5,3580.5,3622.5,3580.5,3580.5,3580.5,3539,3499,3499,3499,3459.5,3459.5,0,0,0,0,0,0,0,0,0,0,0,0,0,0,0,0,0,0,0,0,0,0,0,0,0,350.5,350.5,350.5,350.5,350.5,350,696.5,349.5,348.5,348.5,348,347,346.5,345.5,344.5,343.5,342.5,341.5,340.5,340,338.5,338.5,663,662.5,662,662.5,662.5,662.5,662,662.5,662,662.5,662,662,660.5,659.5,658,656.5,655,653.5,652,650,647.5,646,645,643,641.5,639.5,638.5,637,635.5,634,633,632,630.5,630,629,628,627.5,627,627,626,625.5,625.5,624.5,624.5,624,623.5,623.5,623,622.5,621.5,620.5,620.5,620,620,619.5,618.5,618,617,617,616.5,616,615.5,614,613,612.5,612,611,610,610,609.5,609,608.5,608,608,608,607.5,607.5,607,607,607,606,606.5,606,606,606.5,606.5,606.5,606.5,606.5,606.5,606.5,606.5,606.5,607,607.5,607.5,607.5,608,608,608.5,608.5,609,609,609,609.5,610,610,610,610.5,611,611.5,612.5,613,614,615.5,617,618,619.5,621.5,623,625,626,627.5,628.5,630,631,631,633,633,634.5,635,635.5,636.5,637,0,1222,1217,1222,2329.5,2333.5,2328.5,2333.5,2329.5,2333.5,2333.5,2337.5,2341.5,2340.5,2340.5,2340,2339.5,2330,2329.5,2316.5,2307,2302.5,2290,2285.5,2281,2272.5,2272.5,2268,2264,2264,2256,2256,2251.5,2251.5,2251.5,2247.5,2247.5,2247.5,2235,2239,2231,2227,2215,2207.5,2199.5,2188,2176.5,2173,2165,2154,2150.5,2147,2147,2143,2139.5,2136,2124,2113,2105.5,2098,2091,2084,2076.5,2073,2070,2070,2077.5,2084.5,2092.5,2101,2109,2121.5,2123,2128.5,2132.5,2133.5,2137.5,2139,2140,2144.5,2144.5,2149,2141,2125,2105.5,2086,968.5,2038.5,2024.5,2005,944.5,2011.5,933,2037.5,2052.5,2065,2071,2068,2065.5,2062.5,2054,2043,2030.5,2016,2004.5,1992.5,1982,1971,1961,1955,1942.5,1943.5,1935,1939.5,1940.5,1937.5,1938.5,1946,1947.5,1955,1962.5,874.5,877,877
5132,5175.5,5175.5,5219,5241,5263,5286,5241,5197,5153.5,5132,5111.5,5069.5,5069.5,5091,5049,5133.5,5197.5,5287,5310.5,5356.5,5403.5,5428.5,5451.5,5500,5500,5524,5548,5548,5548,5548,5550,5550,5526,5502.5,5479.5,5460.5,5438.5,5417,5395.5,5375,5375,5354.5,5354.5,5334,5308,5288,5249.5,5204.5,5179.5,5136,5051.5,5033.5,4975.5,4935.5,4879,4857,4824.5,4809,4778,4755,4778,4801,4801,4839,4878,4932.5,5030,5106,5183.5,5302,5388,5477,5570,5592,5615,5644,5644,5696,5696,5726,5673,5673,5644,5621,5592,5570,5520,5492.5,5471,5449.5,5429,5415.5,5423.5,5433,5414,5405.5,5405.5,5466,5497,5534.5,5573,5613.5,5686.5,5751.5,5710.5,5787.5,5773.5,5743.5,5738.5,5734.5,5734.5,5679,5706.5,5681.5,5685.5,5690.5,5749.5,5756.5,5796.5,5839,5907,5956.5,6015,6052.5,6075.5,6114,6137,6160.5,6184.5,6170,6220,6246,6224.5,6216,6208,6201.5,6164,6160.5,6160.5,6128.5,6127.5,6127.5,6127.5,6127.5,6127.5,6127.5,6127.5,6127.5,6127.5,6128.5,6099.5,6042.5,6015,3110,3110,3110,3142,3142,3142,3110,3110,3079,3079,3079,3079,3079,3079,3079,3079,3079,3110,5613.5,5613.5,5593,5562,5613.5,5645,5733.5,5884,6042.5,6128.5,6220,6383,6489,6525.5,6563,6601.5,6601.5,6641,6713.5,6713.5,6673.5,6673.5,6681,6713.5,6641,6609,6538.5,6432,6294,6131.5,5950,5757.5,5685.5,5587,5542,5520,5520,5520,2905,2905,2905,2877.5,2877.5,2851,2851,2825,2799,2825,2799,2799,2774,2774,2774,2774,2749,2749,2749,2774,2774,2774,2774,2799,2799,2799,2825,2825,2851,2851,2825,5482.5,5482.5,5482.5,5482.5,5509,5482.5,5482.5,5509,5559.5,2932.5,2932.5,2905,2932.5,2905,2932.5,2905,2905,2877.5,2851,2851,2851,2825,2825,2851,2851,2877.5,2905,2960.5,2989.5,4873.5,4926,4999,5066.5,5123.5,5181.5,5253.5,5342,5420,5464,5546.5,5614.5,5664.5,5736,3421,3499,3499,3539,3580.5,3622.5,3622.5,3665.5,3665.5,3665.5,3665.5,3622.5,3622.5,3622.5,3580.5,3580.5,3580.5,3580.5,3580.5,0,0,0,0,0,0,0,0,0,0,0,0,0,0,0,0,0,0,0,0,0,0,0,0,0,350,350,349.5,349.5,349.5,349,695.5,348.5,348,347.5,347,346.5,0,0,343.5,343,341.5,341,340.5,340,339,338.5,338,662.5,662,662.5,662.5,662.5,662.5,663,663.5,663.5,663.5,662.5,661.5,660,658.5,657,655.5,653.5,651.5,650,647.5,645.5,644,642.5,640.5,639,637.5,636,635,633.5,632.5,631.5,630,630,628.5,628.5,627,627,626.5,626,625.5,625,625,624,624,624,623.5,623.5,622.5,622,621.5,620.5,620.5,620,620,618.5,618.5,617.5,617,617.5,616,615.5,615,613.5,612.5,612,612,611,610.5,609.5,609.5,609,608.5,608,608,608,608,608,607,607,607,607,606.5,606.5,606.5,606.5,607,607,607.5,607.5,608,608,607.5,608,608,608,608.5,608.5,609.5,609.5,609,609,609.5,609.5,610,610,610,610.5,611,611,612,612.5,613,614,615.5,617,618.5,620,621.5,623,625,626,627.5,629,630,631,632,633,633,634.5,636,636.5,637,638,0,1207.5,1207.5,1207.5,2319.5,2319.5,2319.5,2319.5,2320.5,2320.5,2320.5,2324.5,2319.5,2319.5,2319,2319,2318.5,2309,2308.5,2299,2294.5,2290,2286,2281.5,2272.5,2272.5,2264.5,2264.5,2264.5,2260,2256,2252,2252,2252,2247.5,2247.5,2243.5,2239.5,2239.5,2231,2231,2219,2215,2203.5,2195.5,2188,2176.5,2168.5,2157.5,2150,2143,2139.5,2139.5,2135.5,2131.5,2128,2124,2113,2105.5,2098,2091,2087.5,2084,2080.5,2073.5,2077.5,2081,2088.5,2096,2104,2109,2121.5,2119,2124.5,2128.5,2132.5,2133.5,2134.5,2139,2136,2136,2136,2128,980.5,2097,2075,2056.5,2031,2017.5,2005,2010,2019,2029,2043,2056.5,2066.5,2068,2069.5,2069.5,2066.5,2055.5,2043,2036.5,2024,2009,1997.5,1989.5,1979.5,1969.5,1963,1956.5,1951.5,1949,1950.5,1951.5,1948.5,1950,1957.5,1958.5,1966.5,1970.5,1974,874.5,874.5
