0,0,0,373.2,1503.4,2935.9,3619.9,3598.4,3579.5,3556.4,3525.3,3493.2,3473.4,3453.6,3443.6,3432.1,3424.5,3416.5,3405.1,3405,3401.2,3397.4,3392.1,3386.6,3382.9,3381.1,3379.3,3375.6,3373.8,3370.5,3372.3,3366.8,3366.8,3366.6,3363.3,3359.8,3358.1,3361.5,3363.7,3360.2,3358.4,3362.1,3358.7,3354.9,3366,3369.6,3371,3378.2,3377.7,3371.5,3362.2,3356.6,3354.8,3349.3,3342.2,3340.4,3331.6,3331.9,3334,3348.8,3358.1,3361.7,3371,3374.5,3383.7,3392.7,3401.7,3405.3,3408.7,3410.6,3414.2,3416.3,3416.4,3418.3,3412.8,3412.8,3403.4,3401.6,3392.2,3392.2,3386.8,3383.3,3374,3368.6,3370.6,3370.5,3368.7,3372.4,3370.5,3372,3375.7,3375.7,3379,3375.4,3379.4,3383.2,3385.3,3389.2,3395.1,3397,3391.5,3384.3,3382.1,3383.9,3378.1,3377.6,3372.1,3362.8,3357.4,3353.8,3350.1,3348.1,3342.7,3344.5,3339,3342.7,3350.4,3348.6,3352.5,3358.2,3365.8,3364.2,3371.5,3375.4,3377.3,3381,3380.6,3386.4,3386.2,3389.5,3393.1,3393,3393.5,3394,3395.9,3392.5,3398.5,3392.5,3397.8,3399.7,3400.9,3404.3,3402.1,3399.8,3399.4,3406.9,3405.1,3406.9,3406.9,3409.1,3414.7,3416.4,3431.8,3441.6,3451.5,3461.1,3471,3478.5,3480.5,3488.3,3488.6,3480.8,3477.1,3471.4,3465.5,3454.1,3446.5,3435.4,3422,3412.8,3406.6,3395.1,3381.7,3374.5,3368.6,3361.4,3357.4,3355.7,3354.1,3352.4,3352.6,3343.8,3338.7,3340.6,3340.6,3338.8,3336.8,3331.2,3325.5,3323.8,3327,3326.5,3335.2,3336.9,3336.8,3347.8,3351.7,3366.8,3376.4,3378.6,3382.6,3386.3,3390.2,3395.8,3399.7,3403.2,3405.3,3403.1,3410.9,3407.1,3407.1,3407.5,3406,3404.5,3402.7,3406.5,3404.5,3402.6,3398.2,3401.7,3403.6,3408.7,3410.3,3413.7,3410.2,3414.2,3414.1,3416,3407,3403.3,3399.5,3399.5,3398,3403.9,3415.2,3419.2,3419.5,3422.3,3431.8,3436.3,3436.8,3429.3,3421.5,3406.2,3396.1,3382.2,3369.1,3357.5,3349.9,3341.9,3336.7,3333.2,3336.6,3347.4,3359.9,3371.1,3387.7,3400.6,3414.1,3421.8,3429.3,3433.2,3433.6,3431.8,3428,3427.8,3419.7,3412.1,3411.5,3411.2,3414.8,3414.5,3416.2,3416.3,3416.2,3420,3421.8,3425.6,3427.5,3429.4,3427.7,3425.8,3420,3421.8,3420.2,3414.5,3405,3388.6,3373.9,3357.8,3336.1,3311.3,3288.3,3267.9,3250.5,3223.4,3201.3,3184.8,3163.8,3149.2,3131.6,3120.9,3105.4,3091.4,3083.9,3067,3053.7,3043,3030.8,3016.1,3001.1,2982.2,2964.8,2947.5,2931.7,2914.5,2900.4,2888,2875.7,2866.1,2851.5,2833.1,2819.9,2800.7,2782.8,2759.2,2735.9,2715.4,2692.8,2676.2,2660.1,2647.7,2632.8,2624.8,2614.7,2605.9,2598.2,2588.4,2581,2569.1,2556.5,2548.1,2538.6,2529.1,2516.9,2508.5,2499.3,2489.3,2480.2,2468.2,2457.7,2448.7,2436.3,2424.1,2409.8,2394.8,2379.1,2366.2,2354.2,2342.8,2331.5,2323.5,2314.5,2308.2,2299.8,2290.1,2280.9,2274.2,2267.5,2256.6,2245.3,2235.3,2223.2,2212.9,2202.6,2194.2,2183.3,2170.9,2161,2151.9,2142.2,2134,2123.6,2113.2,2104,2094.5,2088.8,2080.2,2073.3,2065.1,2058.5,2050.3,2039.8,2031.7,2023,2014.5,2005.9,1994.1,1985.1,1977.5,1968.7,1961.7,1954.4,1949,1944.8,1937.3,1929.8,1924.3,1918.3,1912.1,1905.6,1898.6,1892,1884.5,1878.1,1873.5,1866.8,1861.2,1855,1848.8,1842.1,1833.8,1826.9,1818.2,1809.3,1802.7,1795.6,1787.7,1779.9,1771.7,1765.7,1758.9,1753.3,1748.3,1745.3,1740.7,1738.1,1736.8,1733.9,1733.5,1730,1727.9,1726.4,1723.4,1719,1713.1,1708.2,1700.6,1693.3,1685.4,1677.1,1667.2,1659,1651,1644.9,1639.2,1632.3,1627.5,1622.7,1620.3,1617.5,1614.4,1609.3,1605,1600.5,1595.4,1590.4,1585.1,1578.6,1574.2,1567.8,1563.8,1559.8,1555.8,1553.1,1549.6,1546.5,1544.9,1541.4,1536.3,1532.8,1528.5,1523.7,1517.6
0,0,0,763,2267,3698.8,3665.8,3643.9,3615.6,3587.5,3558.3,3529.7,3501.1,3481.4,3461.5,3451.6,3441.7,3435.9,3430,3424.2,3420.3,3416.6,3405.4,3401.7,3397.7,3396,3392.4,3386.8,3387,3385.3,3379.7,3378.2,3374.6,3378.2,3373,3365.7,3360.4,3365.8,3368,3368,3366.5,3363,3361.6,3363.5,3370.5,3376,3377.3,3383.9,3385.7,3379.4,3371.6,3363.9,3358.3,3351.1,3343.9,3342.3,3333.6,3331.9,3337.7,3354.3,3363.7,3369,3380.1,3389.1,3394.7,3405.5,3411,3416.4,3421.7,3421.7,3418,3416.2,3418.2,3422,3423.9,3418.1,3414.3,3407.1,3405.2,3401.5,3396.3,3392.5,3388.9,3381.6,3383.9,3384.1,3384.1,3380.5,3387.7,3387.6,3389.4,3395,3398.3,3402.1,3398.4,3404.1,3406.2,3408.5,3416.2,3417.9,3410.6,3402.8,3404.5,3402.5,3402.2,3404,3397.9,3390.5,3388.3,3384.7,3383,3379.2,3377.4,3371.9,3370.1,3374,3374.2,3381.7,3381.8,3389.3,3391.5,3397.6,3393.9,3405.6,3405.5,3409,3410.7,3412.5,3414.2,3419.6,3423,3421.4,3417.6,3420,3422,3420.5,3418.7,3418.6,3420.4,3422.2,3425.7,3425.4,3423,3420.7,3422.2,3424.2,3428,3424.3,3418.5,3420.6,3426.4,3432.3,3436.3,3446.4,3456,3467.9,3479.6,3481.3,3490.9,3494.8,3493,3489.2,3485.7,3485.6,3481.7,3470.6,3461,3449.6,3440.1,3427,3419,3411.1,3403.2,3391.9,3384.3,3376.8,3371.2,3365.7,3365.9,3362.3,3358.8,3360.7,3351.6,3351.7,3355.6,3357.1,3351.5,3351.1,3348.9,3339.6,3348.4,3348.1,3351.6,3353.3,3358.8,3362.9,3366.6,3378,3385.9,3387.9,3392.1,3397.9,3399.5,3410.7,3410.8,3412.7,3411.1,3409.3,3415,3417.1,3413.6,3416.1,3412.7,3411.3,3407.5,3415.5,3415.4,3415,3415.2,3414.1,3418,3424.8,3430.2,3433.7,3431.7,3429.8,3433.9,3437.6,3437.9,3435.5,3429.8,3429.8,3428.1,3435.9,3445.4,3449.9,3446.7,3447.4,3455.9,3454.8,3451.4,3445.6,3437.9,3426.1,3410.6,3400.3,3388.2,3378.3,3366.6,3360.7,3358.8,3360.5,3366.2,3380.8,3386.3,3402.8,3406.6,3420.2,3427.6,3441.5,3445.2,3443.5,3443.9,3444.3,3442.1,3441.6,3433.2,3429.4,3427,3426.7,3422.7,3428.1,3429.8,3431.6,3431.6,3435.4,3439.4,3443.2,3447.1,3449.2,3445.5,3441.4,3443.2,3441.3,3433.7,3426.4,3420.8,3398.2,3385.3,3363.5,3343.4,3317,3292.2,3266.1,3248.9,3218.5,3198.2,3178.4,3163.8,3141.1,3130,3112.7,3098.9,3089.7,3075.8,3060.5,3047.2,3033.7,3022.9,3007.9,2993.3,2980.1,2962.7,2944.2,2935.5,2918.4,2904.4,2894.8,2878.3,2869,2854.2,2837,2822.5,2804.5,2779,2756.6,2732.3,2711.8,2689.2,2668.3,2651.1,2639.7,2628.3,2617,2609.2,2601.5,2593.9,2588.4,2577.7,2566.1,2555.3,2543.8,2533.2,2523.1,2511.8,2501.3,2492.2,2481.2,2469.3,2458.7,2446.9,2438.3,2429.7,2417.4,2402.3,2387.3,2372.7,2360.9,2346.3,2335.9,2324.3,2316.4,2309.3,2300.6,2293.6,2285.2,2278.3,2270.9,2262.3,2251.6,2240.3,2232.8,2221.5,2211.2,2201,2193.4,2182.5,2169.4,2155.7,2147.4,2136.1,2127.3,2116.9,2107.5,2097.5,2090.3,2083.7,2076.7,2071.2,2064.4,2055,2046,2038.4,2031.1,2022.5,2014.5,2006.6,1995.3,1986.3,1977.5,1969.9,1962.4,1955.1,1950.2,1945.4,1938.6,1930.5,1924.3,1915.8,1910.2,1903.8,1895.6,1889.1,1882.1,1876.5,1871.3,1864.1,1858.4,1851.5,1847.1,1840.7,1832.8,1824.2,1817.2,1809.1,1801.7,1796,1788.7,1781.5,1773.2,1767.4,1760.3,1755.3,1749.9,1746.6,1743.3,1739,1736.6,1734.3,1732.4,1729.5,1726.1,1723.1,1720.6,1716.5,1711.9,1705.9,1699.6,1691.9,1684,1676.1,1667.6,1659,1652.2,1643.1,1637.9,1631.4,1628,1622.3,1619.1,1616.6,1612.3,1607.9,1602.9,1598.4,1592.8,1588.8,1583.1,1577.8,1572.6,1567.8,1563.8,1559.4,1555.4,1553.5,1549.2,1546.4,1544.5,1541.4,1537.4,1533.6,1529.7,1524.4,1518.7
0,0,0,1196.7,2657.1,3765.1,3721.5,3697.1,3665.7,3621.7,3587.4,3560.4,3535.4,3507.2,3483.1,3477,3463.1,3453.2,3451.1,3445.4,3441.2,3430,3430,3416.9,3418.8,3411.2,3409.4,3403.7,3402.1,3396.8,3393.1,3393.1,3393.4,3386.1,3382.6,3380.8,3373.6,3371.9,3375.7,3381.7,3380.1,3380.2,3378.4,3384.1,3387.5,3396.8,3398.2,3399.4,3399.2,3394.4,3384.7,3378.7,3369.3,3364,3356.8,3345.9,3339,3341.1,3346.7,3363.2,3370.7,3374.2,3387.1,3394.4,3405.6,3412.9,3418.3,3420,3425.6,3429.3,3427.4,3429.4,3427.5,3429.4,3429.4,3427.5,3427.5,3416.3,3414.6,3409.2,3409.2,3405.7,3402.1,3402.4,3401.1,3401.6,3399.9,3401.5,3405.5,3413.1,3418.5,3422,3423.5,3421.3,3423.5,3431.1,3432.8,3438.7,3442.6,3442.7,3436.8,3433.2,3425.2,3428.9,3428.6,3426.3,3424.2,3416.4,3414.8,3409,3412.8,3413.2,3407.2,3403.6,3401.8,3403.9,3406.2,3409.8,3413.6,3417.8,3418,3421.9,3426,3433.8,3435.5,3441.3,3443.1,3443.3,3446.9,3452.1,3453.7,3449.8,3448.2,3450.2,3454.8,3448.9,3449.1,3447.1,3447.1,3453.2,3454.8,3452.6,3450,3443.8,3445.6,3447.4,3445.7,3441.8,3438.2,3438.7,3438.7,3440.8,3448.6,3454.7,3466.5,3472.5,3484.1,3490,3493.8,3499.6,3497.9,3499.9,3494.4,3492.5,3490.4,3476.8,3469.2,3461.9,3452.7,3442.7,3436.6,3422.7,3413.4,3407.2,3399.5,3392,3388.2,3384.6,3380.7,3382.6,3375.4,3373.8,3370,3371.7,3377.3,3380.8,3382.5,3378.4,3372.5,3370.6,3375.7,3377.3,3378.9,3379,3377.2,3383.1,3387,3394.8,3398.8,3401,3401.2,3411,3414.6,3416.6,3420.5,3418.5,3426.1,3418.5,3421,3429,3423.8,3426.4,3425,3423.4,3422,3426.2,3430.2,3432,3426.2,3433.2,3440.7,3446,3453.1,3451,3456.5,3458.2,3459.6,3463.6,3463.3,3461.4,3457,3456.9,3456.7,3463.5,3473.1,3475.5,3472.3,3473.3,3476.5,3477.6,3471.9,3464.6,3456.3,3442.5,3432.6,3416,3400,3397.4,3387.5,3383.3,3376,3381.4,3388.7,3401.5,3411.1,3418.2,3429.5,3439.6,3445.7,3455.5,3457.4,3457.5,3453.8,3450.5,3446.8,3451.5,3445.1,3442.8,3440.4,3438.1,3441.8,3447.1,3450.8,3451,3452.9,3452.8,3458.7,3458.6,3466.6,3466.6,3460.9,3460.9,3457,3455.2,3445.6,3436.3,3423,3408,3387.4,3367.5,3345.9,3320.6,3292.5,3266.1,3243.8,3216.9,3193.3,3171.6,3150.7,3136.2,3120.2,3104.7,3093.9,3081.6,3068,3055.6,3040.3,3027.1,3015.1,3000,2987.1,2973.9,2962.2,2942.4,2933.7,2916.9,2902.9,2889.3,2878.3,2867.6,2856.8,2838.2,2820,2799.2,2776.6,2754.1,2728.7,2704.6,2686.8,2666,2647.6,2636.3,2623.8,2614.8,2604.8,2598.3,2590.6,2580.9,2572.4,2560.7,2550.2,2538.5,2529.2,2519,2506.4,2495.3,2484.3,2472.3,2459.5,2448.9,2440.2,2428.9,2418.4,2407.9,2392.9,2379,2363.9,2353.8,2341.2,2329,2319.9,2310.3,2303.5,2296.4,2289.5,2282.8,2275,2267.6,2031.9,2025.4,2016.2,2229.5,2219.1,2209.6,2199.6,2190.2,2180.9,2166.4,2154.2,2141.3,2131.6,2122.3,2114.9,2104.7,2093.9,2085.9,2080.1,2074.6,2067.8,2061,2054.2,2045.3,2037,2029.7,2023.1,2013.1,2004.5,1996.1,1985.7,1978.9,1971,1964.9,1957.6,1951.4,1945.2,1939.1,1931.2,1924.3,1915.9,1907.7,1902,1894.4,1888,1881,1875.3,1870.3,1863.5,1856.2,1850.5,1844.9,1838.9,1831.7,1823.2,1816.1,1808.6,1801.7,1795.9,1789.3,1782,1774.8,1769.8,1764.8,1759.2,1754.3,1749.5,1745.6,1741.9,1738.1,1734.2,1731.2,1727.4,1723,1720.4,1717.1,1713.2,1708.9,1702,1696.4,1690.1,1682.7,1674.8,1667.1,1659,1652.9,1644.5,1637.1,1631.5,1627.6,1622.4,1619.1,1615.4,1611.4,1606.1,1600.9,1596.5,1592,1586.7,1581.4,1577,1571.4,1566.6,1563,1558.2,1554.6,1551.9,1548.8,1546,1542.9,1540.3,1537,1533.2,1529.7,1524.8,1518.7
0,0,0,0,1981.4,3859.6,3804,3768.3,3723.9,3666.9,3627.8,3597.4,3568.3,3535,3509,3498.7,3484.4,3474.5,3472.3,3460.7,3458.8,3450.9,3447.1,3437.7,3432,3432,3424.4,3422.5,3415.2,3415.7,3413.9,3408.3,3404.8,3401.1,3399.8,3396.2,3390.8,3391.1,3395.1,3396.9,3399.1,3395.2,3399.1,3406.4,3412.2,3413.4,3420.9,3424.3,3425.6,3422.7,3412.7,3408.5,3397,3385.9,3380.5,3369.7,3357.2,3353.6,3363,3374.2,3385.2,3392.3,3398,3407.3,3416.5,3423.7,3427.4,3431.1,3434.7,3438.6,3440.6,3436.8,3435.1,3438.9,3441,3440.9,3435.7,3432,3424.2,3424.2,3418.7,3419.1,3417.6,3418.2,3414.9,3417.3,3427.1,3427.1,3433.2,3440.6,3446,3449.6,3459,3454.6,3458.4,3461.9,3462,3465.9,3469.6,3463.7,3463.4,3457.8,3451.8,3447.9,3451.6,3451.4,3447.5,3443.4,3443.4,3443.6,3441.8,3436.1,3438.2,3434.1,3428.3,3434.2,3434.2,3436.1,3438.2,3440.2,3444.5,3447.2,3453,3464.7,3466.8,3470.8,3474.7,3478.4,3481.9,3485.3,3487.2,3485.2,3481,3481.3,3483.3,3487.5,3481.6,3485.7,3481.8,3479.8,3485.9,3481.7,3477.5,3471.5,3467.4,3469.1,3465.2,3459.5,3456,3450.3,3454.5,3457,3461.1,3467.3,3471.4,3481.3,3491.1,3501.2,3503,3502.8,3506.6,3504.6,3503.1,3499.5,3498,3490.2,3482.2,3468.6,3462.8,3454.8,3444.5,3436.4,3428.4,3416.9,3416.7,3407.4,3401.7,3399.6,3397.8,3395.7,3392.2,3394,3392.1,3392.1,3397.7,3401.2,3403,3404.3,3402.2,3402,3401.8,3399.7,3403.3,3397.5,3399.7,3401.6,3405.8,3411.8,3411.8,3412.4,3416.1,3423.8,3420,3425.7,3433.5,3431.6,3433.6,3437.8,3438.2,3436.5,3441.4,3443.7,3442.7,3444.9,3440.1,3446,3447.2,3450.9,3445.3,3456.5,3466.3,3473.3,3476.7,3482.2,3483.5,3483,3486.2,3491.9,3493.5,3491,3486.5,3492.5,3490.7,3500.7,3502.8,3503,3504.2,3497.2,3500.1,3494.8,3489.5,3484.7,3471.8,3462,3442,3435.6,3426.7,3416.3,3406.4,3403.9,3405.8,3404,3409.4,3422.6,3431.9,3441.5,3449.4,3451.3,3461.3,3465.3,3467.5,3471.4,3469.8,3464.5,3466.2,3461.5,3462.9,3460.2,3460,3461.5,3459.3,3462.5,3470.2,3468.4,3470.3,3470.3,3476.2,3476.2,3482.5,3480.6,3482.8,3480.9,3475.4,3469.2,3459.7,3453.8,3438.5,3421.4,3400.8,3374.5,3353.1,3324.5,3299.4,3266.1,3245.1,3216.6,3186.5,3164.7,3144.1,3126.3,3110.8,3098.3,3087.5,3070.7,3058.3,3050.5,3032.3,3020.4,3010.1,2995.1,2983.6,2967.6,2954.7,2942,2926.6,2912.6,2904.2,2887.8,2875.7,2863.5,2852.8,2831.8,2813.4,2792.8,2771.4,2744.3,2722.6,2703.4,2683.5,2662.5,2644.2,2634,2622.7,2609.2,2600.5,2591.7,2585.2,2576.8,2568.1,2557.5,2547,2535.4,2524.1,2512.7,2500.3,2487.3,2476.3,2462.4,2451.7,2438.4,2427.8,2419.3,2408.9,2397.6,2382.5,2369.3,2356.4,2345.7,2333.2,2323.8,2315.6,2306.9,2298.5,2289.7,2284.6,2277.7,2270.1,2261.8,2254.2,2245.1,2237.7,2227.1,2216.8,2207.3,2197.2,2189.4,2179.3,2166.2,2152.7,2140.6,2128,2120.6,2109.8,2098.9,2091.7,2083,2076.6,2071.8,2066.4,2059.7,2053.5,2043.9,2035.7,2028.4,2021,2014.3,2005.2,1994.7,1987.1,1977.4,1969.8,1964.3,1958.3,1951.4,1946.4,1939.8,1931.8,1924.2,1914.6,1907.7,1899.6,1893.2,1886.1,1879.4,1874.2,1867.6,1861.3,1854.5,1847.7,1842.8,1837.8,1830.1,1822.6,1815.6,1808.6,1801.8,1796,1789.8,1783,1777.9,1772.4,1768.9,1763.8,1757.2,1752.4,1747.1,1743.3,1739,1734.6,1730.2,1725.9,1721.2,1716.4,1712.2,1707.4,1703.5,1697.8,1691.6,1686,1679.1,1671.1,1664.9,1659,1652.9,1644.5,1637.6,1631.4,1627.6,1621.6,1617.8,1614.4,1610.6,1606.2,1600.9,1596.1,1590.8,1585.9,1581.4,1575.4,1571,1566.6,1562.2,1557.8,1553.4,1551.1,1547.7,1544.1,1542.5,1539.9,1537,1533.5,1529.8,1525.1,1519.1
0,0,0,0,1655.7,3963.7,3897.9,3835.5,3788.6,3723.4,3664.5,3625.4,3593.2,3555.7,3530.5,3516.5,3506.2,3494.3,3490.2,3480.3,3474.3,3470.4,3460.8,3454.9,3449,3447.2,3445.6,3437.8,3434.3,3432.5,3427.1,3425.4,3420.2,3412.6,3407.7,3409.4,3406.1,3404.4,3408.2,3416,3420.2,3416.1,3419.9,3429.4,3440.8,3444.2,3443.8,3456.7,3456.1,3457.3,3447,3440.9,3429.2,3421.7,3408.5,3391.9,3382.7,3379,3384.7,3388.4,3395.8,3401.3,3408.8,3418.2,3429.4,3439,3438.9,3440.7,3444.4,3450.5,3454.2,3452.3,3452.4,3450.5,3450.9,3454.9,3451.4,3447.5,3449.5,3443.8,3445.8,3440.5,3445.1,3445.2,3451.7,3453.9,3458.3,3462.8,3468.3,3472.6,3484.1,3483.8,3490.9,3489.9,3491.6,3493.5,3489.5,3495.4,3493,3490.8,3485.2,3487,3478.9,3481.1,3478.8,3481,3471.2,3472.9,3463.2,3465.3,3465.4,3465.4,3467.6,3459.5,3461.2,3465.2,3467.2,3471.1,3471.3,3469.1,3471.7,3474.1,3480.2,3490.4,3492.3,3494.3,3498.3,3502.2,3509.8,3511.5,3519,3514.6,3512.4,3516.5,3516.6,3512.6,3514.8,3509.1,3507.3,3509.6,3509.5,3505.6,3505.3,3499.4,3495.1,3494.9,3491,3487.2,3483.6,3477.9,3478.3,3478.9,3481.4,3485.5,3488.1,3494.3,3504.1,3514.6,3514.2,3515.8,3517.7,3515.7,3512.1,3513.9,3508.2,3503.9,3492.2,3488.1,3474.2,3467.7,3458.1,3451.6,3443.5,3437.7,3428.2,3426.1,3422.3,3422.1,3420.1,3418,3418.1,3414.4,3414.4,3416.1,3421.6,3423.3,3426.9,3426.9,3430.6,3434.1,3433.7,3429.8,3429.5,3427.8,3424.2,3420.6,3420.9,3425,3421.2,3423.4,3425.6,3429.4,3427.6,3429.6,3435.4,3439.1,3439.2,3447.2,3449.3,3460,3462.2,3468.8,3467.7,3470.4,3465.3,3468,3466.5,3473.4,3470.1,3471.9,3483.6,3490.7,3495.8,3498.7,3506.4,3510.3,3511.2,3516.2,3519.7,3515.3,3517.3,3518.7,3518.4,3522.8,3536.8,3535.5,3529.8,3525.1,3524.6,3517.3,3513.6,3505.5,3493.2,3483.2,3467,3454.2,3447.6,3441.5,3431.1,3432.5,3433.9,3432.1,3439.7,3448.8,3460.8,3466.5,3470.4,3476.7,3483,3489.1,3487.3,3481.3,3476,3474.1,3478,3477.1,3474.4,3474.2,3473.4,3474.9,3478.4,3486.2,3488,3489.9,3487.9,3490.1,3490,3492.3,3498.6,3501,3499.2,3493.3,3491.3,3483.5,3473.9,3464.3,3450.5,3437.2,3410.5,3385.9,3360.6,3327.7,3302.9,3271.2,3245.2,3213,3184.7,3165,3140.7,3124.7,3105.6,3090.1,3080.9,3071.7,3059.4,3048.7,3032,3015.4,3006.4,2991.7,2979,2965.9,2951.4,2938.8,2925,2911,2898.7,2887.8,2876.9,2862.1,2847.6,2829.1,2808.4,2786.7,2760.3,2739.6,2716.6,2695.2,2678.7,2659.1,2643.1,2630.6,2616,2607.2,2598.3,2589.6,2583,2573.6,2563.8,2553.4,2542.7,2531.4,2522.1,2508.7,2496.4,2484.3,2470.4,2456.6,2442.2,2428.8,2419.3,2409.8,2396.9,2388.3,2372.8,2358.5,2345.7,2336.1,2327.3,2316.5,2309.5,2299.4,2291.6,2283.9,2278.7,2271,2262.8,2256.9,2248.6,2240.3,2232.9,2223.9,2215.2,2205.7,2195.6,2187,2177.9,2167.8,2154,2142.2,2128,2119.3,2109.9,2099,2090.2,2082.3,2075.9,2069.7,2065.1,2057.6,2050.9,2043.2,2035.7,2027.7,2021,2012.4,2004.5,1996.6,1987.1,1979.9,1971.8,1965.6,1959.4,1954.6,1947.6,1940.4,1930.6,1922.6,1914.7,1905.5,1897.2,1889.8,1885.1,1878.3,1872.5,1866.1,1859.7,1851.7,1845.6,1840.6,1834.4,1827.5,1820.5,1815,1807.7,1802.9,1797.6,1792.3,1786.6,1782,1778.4,1773.4,1767.8,1762.8,1755.1,1750.4,1745.7,1739.3,1735,1729.1,1724.5,1719.2,1713.2,1707.8,1703.5,1699.6,1695.8,1689.7,1683.6,1677.7,1670.9,1664.8,1658.6,1653.1,1644.4,1638.9,1631.9,1628,1622.5,1617.8,1614.8,1609.6,1605.8,1600.4,1595.2,1590,1585.4,1579.8,1574.6,1570.2,1564.6,1561,1556.6,1398.3,1548.8,1392.9,1542.6,1541,1539.6,1536.2,1533.6,1529.8,1525.1,1519.9
0,0,0,0,1365.3,1708.5,3591.6,3512,3850.1,3774.7,3702.7,3650.7,3616.4,3576.4,3549.4,3536.8,3524.5,3515.9,3508.2,3500,3490.1,3484.2,3480.4,3470.2,3464.3,3462.7,3458.8,3453.1,3445.5,3445.7,3438.2,3436.6,3436.7,3431.4,3426.1,3422.6,3420.8,3421,3428.8,3434.6,3437,3439,3438.5,3452.1,3461.4,3469.4,3476.8,3486.3,3485.7,3486.5,3482.2,3473.9,3467.7,3456,3438.7,3423.7,3408.6,3397.4,3406.8,3412.5,3414.3,3415.9,3423.5,3437,3444.6,3446.6,3452.4,3452.3,3458.2,3466.2,3469.9,3473.9,3470.1,3472.2,3474.5,3480.6,3472.9,3471,3473.1,3467.3,3471.3,3466.1,3472.4,3474.7,3481,3481.7,3484,3492.5,3498.8,3506.4,3512.1,3515.9,3523.3,3524.2,3520,3519.6,3521.3,3525.1,3519.1,3516.9,3517.3,3512.9,3509.1,3509.3,3503.4,3505.7,3499.5,3501.2,3493.5,3493.4,3487.4,3485.6,3483.2,3476.9,3481,3480.8,3484.8,3482.7,3482.9,3484.6,3487,3491.4,3503.7,3509.7,3512,3516.1,3518,3523.8,3527.9,3537.4,3539.2,3545,3546.8,3548.7,3546.6,3542.6,3540.6,3540.7,3537.1,3537,3533.5,3535.6,3533.5,3529.2,3527.3,3523.1,3517.2,3513.2,3507.4,3501.7,3502,3502.7,3505.2,3511.9,3510.1,3512.5,3520.6,3525.2,3528.9,3534.6,3528.5,3528.4,3526.6,3520.4,3520.4,3514.2,3507.7,3501.4,3495.5,3489.3,3477,3472.8,3464.9,3454.6,3450.7,3447.2,3439.6,3443,3438.9,3442.7,3440.7,3438.8,3442.6,3450.1,3447.9,3455.7,3459.4,3461.4,3459,3462.9,3461.1,3455.2,3453.1,3445.4,3445.7,3445.8,3442,3440.6,3438.5,3434.8,3437.1,3435,3435.4,3439,3444.9,3446.7,3456.6,3458.8,3468.7,3478.9,3483.1,3488.3,3486.8,3493.7,3492,3494.5,3493.7,3496.1,3490.7,3494.6,3507.2,3507.7,3513.3,3522.9,3527.7,3529.6,3535,3544.6,3541.8,3545.2,3540.7,3546.8,3550.6,3556.6,3563.1,3559.3,3558.1,3554.7,3551.6,3544.3,3534.3,3526.9,3516.3,3506.1,3495.9,3477.3,3476.4,3465.7,3463.6,3461.1,3462.7,3462.7,3468.5,3474,3487.6,3495.7,3497.7,3504,3506.4,3504.6,3506.8,3499.1,3497.7,3493.6,3487.4,3486.6,3489.7,3487.4,3487.2,3490.4,3496.1,3500,3505.9,3508,3512,3514.1,3516.3,3517,3515,3517.1,3515.4,3511.8,3505.8,3501.9,3484.4,3476.3,3460.4,3439.4,3424,3393.7,3365.9,3338.5,3301,3276.3,3243.2,3214.5,3186.1,3163.3,3138.9,3116.7,3105.7,3088.6,3076,3065.3,3049.8,3040.8,3025.8,3012.3,2997.4,2984.3,2971.4,2957.1,2944.4,2931.8,2916.4,2902.7,2894.7,2881,2866.4,2854.3,2839.7,2820.2,2800.8,2779.2,2755.7,2732.4,2710.8,2691.7,2674,2654.4,2640.7,2627.1,2615.9,2604.9,2593.9,2588.4,2578.9,2572.4,2561.8,2550.3,2540.8,2528.1,2517.9,2505.6,2493.3,2481.2,2466.3,2451.7,2437.4,2421,2411.7,2401.4,2388.6,2381.1,2363,2350.1,2340.3,2330.8,2320.1,2311.3,2302.8,2296.9,2286.5,2280.5,2274.6,2267.1,2256.2,2250.4,2245.4,2238,2230.6,2221.5,2212.9,2203.4,2194,2187.9,2177.2,2166.3,2155,2140,2128.8,2118.6,2108.5,2099.1,2089.4,2080.9,2074.6,2068.4,2064.4,2057.7,2050.8,2042.6,2034.4,2026.9,2021,2013,2005.9,1996,1989.1,1982.5,1973.8,1966.8,1959.5,1954,1948.4,1941.1,1931.8,1922,1912,1905,1897.3,1889.8,1883.3,1878.1,1871.5,1864.4,1857.3,1849.9,1844.5,1838.3,1832.2,1827,1821.6,1814.4,1810.3,1805,1800.3,1796.1,1791.3,1787.7,1783,1779.6,1772.3,1765.1,1758.8,1753.6,1747.3,1740.6,1735.8,1728,1722.2,1718,1711.1,1706.3,1701.1,1697.4,1692.5,1687.1,1681.6,1675.8,1669.5,1664.1,1658.6,1652.6,1645.8,1638.5,1632.5,1628.1,1623.7,1618.6,1614.8,1609.2,1604.7,1599.5,1594.4,1590,1583.8,1577.8,1573,1567.4,1563.4,1558.2,1554.3,1549.6,1546.9,1544.1,1541.8,1539.2,1537,1535,1533.5,1530.1,1525.8,1520.7
0,0,0,966,2282.6,1799.2,1277,2028.4,3896.6,3808.7,3363.7,3681.9,3640.1,3595.3,3566,3549.2,3536.5,3526.1,3518,3513.8,3507.7,3499.8,3490.1,3488.1,3480.1,3480.1,3474.4,3468.4,3464.7,3457,3453.2,3451.4,3453.6,3448.4,3448.9,3441.2,3441.5,3445.3,3451,3455.5,3460.9,3460.8,3469,3482.6,3488.3,3502.6,3514,3527.9,3523.4,3524.9,3524.3,3519.7,3507.4,3497.4,3479.6,3458,3444.6,3431.1,3435,3440.6,3444.5,3438.8,3450.3,3456.2,3469.9,3471.9,3470,3474.1,3478.3,3484.1,3488.1,3493.9,3498.2,3496.3,3500.6,3502.7,3500.5,3500.5,3502.7,3496.9,3501.5,3499.8,3497.7,3506.3,3505,3511.6,3515.3,3520.2,3524.5,3532.6,3532.2,3538.1,3543.5,3545,3548.6,3545.9,3545.5,3549.6,3542.9,3543.1,3543.2,3541.7,3536,3528.2,3534.4,3528.7,3522.7,3522.4,3514.2,3512.1,3505.8,3501.7,3499.4,3491.1,3486.8,3487,3494.7,3492.6,3494.5,3494.4,3501,3505.1,3513.7,3521.8,3525.8,3525.8,3540.3,3546.1,3556.3,3566.2,3569.8,3575.5,3575.5,3579.5,3583.4,3577.1,3577.1,3573.1,3567.2,3565.9,3556,3556,3558.1,3554,3548.2,3542,3537.8,3535.5,3529.5,3527.6,3525.8,3522.3,3525.2,3531.4,3532,3536.6,3541.6,3537.5,3543.4,3545.2,3539.1,3538.5,3538.7,3538.6,3532.2,3527.9,3527.6,3519.4,3512.5,3502.3,3492.3,3487.9,3480.1,3474,3471.9,3464.3,3454.5,3460,3458,3460,3463.5,3467.5,3473.2,3474.9,3473.3,3479.1,3482.9,3484.8,3484.9,3488.7,3484.8,3480.6,3476.9,3472.9,3473.1,3467.2,3465.5,3458,3452.1,3446.4,3446.7,3445.4,3446.9,3444.9,3453.1,3458.4,3470.3,3476.5,3486.3,3496.1,3502.8,3511.6,3512.3,3519.3,3519.5,3518.5,3512.9,3518.1,3512.1,3515.7,3521.9,3533.4,3534.6,3536.2,3539.4,3545.2,3552.5,3558.2,3565.8,3567.6,3571.2,3577.5,3577.2,3581.3,3590,3583.7,3579.9,3580.7,3581.4,3571.3,3561.1,3551,3542.6,3530.6,3520.4,3509.7,3502.8,3492.5,3486,3483.7,3485.8,3489.6,3493.2,3503.2,3509.3,3515.2,3519.3,3521.5,3530.1,3530.3,3524.4,3522.6,3514.7,3512.9,3508.8,3509.8,3505.4,3504.8,3506.2,3509.9,3514,3513.7,3523.9,3522,3526.3,3524.3,3530.7,3535.1,3531.6,3531.8,3530.2,3526.3,3518.1,3506.2,3497.2,3478.7,3470.5,3453,3428,3403.2,3373.2,3340.2,3304.4,3276.2,3246.6,3217.6,3185.7,3159.6,3135.4,3113.3,3099.2,3085,3075.6,3058.8,3046.7,3033.1,3021,3004.6,2993,2981.4,2966.9,2952.8,2937.4,2928.9,2912.1,2901.2,2886.6,2871.9,2861,2846.6,2832.2,2812.8,2792.5,2769.8,2747.5,2726.7,2705,2688.2,2671.8,2653.3,2637.3,2626.1,2614.8,2602.6,2590.7,2586.3,2575.7,2567.1,2558.6,2548.4,2536.5,2526.2,2512.8,2504.6,2489.3,2477.2,2464.4,2446.8,2433.5,2420.1,2408.8,2397.6,2385.9,2374.6,2358.4,2344.7,2334.2,2325.3,2315.8,2305.9,2300.2,2291.7,2285.7,2277.9,2272,2264.6,2254.5,2246.2,2238.8,2235.5,2229.8,2221.6,2213.7,2203.5,2196.4,2188,2178.6,2168.6,2155.8,2142.2,2130.4,2118.7,2108.5,2097.5,2086.6,2080.2,2072.6,2067.7,2063.1,2057.7,2052.2,2041.9,2034.3,2027.6,2021.7,2014.3,2006.6,1997.3,1989.7,1982.6,1974.6,1968.2,1959.5,1953.4,1946.5,1940.5,1929.4,1922.1,1912.7,1905.2,1895.6,1888.1,1882.9,1876.6,1870.4,1863,1856.8,1849.9,1842.9,1837.8,1832.2,1826.9,1822.2,1817.7,1813.5,1807.5,1803.4,1798.3,1793.9,1789.2,1785.2,1780.1,1774.3,1766.7,1758.9,1753.7,1746.9,1739.5,1734.1,1727.3,1721.6,1714.5,1709.1,1704.3,1699.3,1695.5,1691.2,1686.6,1681.6,1675.4,1669.1,1663.7,1658.1,1652.6,1645.8,1638.9,1633.3,1628.9,1623.6,1618.9,1613.6,1608.8,1604.6,1599.4,1594.4,1590,1583.4,1577.8,1572.2,1567,1561,1556.6,1552,1547.3,1543.7,1542.2,1539.2,1537,1536.3,1534,1533.1,1530.9,1527.1,1521.5
0,0,0,997.3,2349.4,2261.9,1773.2,2113,2055.5,3821.3,3751.5,3695.5,3655.6,3608.2,3566,3557.4,3551.2,3542.4,3527.9,3523.8,3515.6,3509.7,3503.8,3493.8,3491.9,3491.9,3480.2,3476.2,3474.5,3470.5,3470.5,3466.6,3464.7,3463.1,3461.4,3461.5,3462,3465.7,3471.9,3475.6,3483.9,3485.6,3493.9,3507.4,3519.8,3527.9,3548.1,3560.2,3562.1,3571.8,3571.3,3572.9,3564.3,3545.7,3527.4,3503.4,3483.8,3475.9,3471.9,3476,3477.9,3470.3,3476.2,3482,3492.3,3494.1,3498.4,3494.3,3494.9,3508.8,3510.8,3516.9,3520.9,3518.9,3523,3525.1,3529.3,3531.5,3531.5,3531.4,3531.5,3527.9,3532.2,3534.5,3541.2,3543.5,3543.5,3548.2,3548.9,3554.2,3558.3,3564.6,3564,3569.5,3571,3568.1,3568.1,3574.1,3571.9,3569.9,3568.4,3566.8,3565.3,3559.8,3555.9,3552.5,3548,3540.1,3537.7,3529.1,3522.4,3518.4,3509.8,3499.5,3498.8,3496.6,3498.4,3496.6,3498.7,3502.6,3506.9,3511.2,3521.3,3533.9,3537.7,3543.9,3552.3,3566.5,3578.6,3584.4,3598.7,3598.5,3602.2,3604.2,3608.3,3608.1,3604,3595.6,3591.9,3588.3,3584.8,3580.9,3575,3571,3568.9,3565.1,3564.9,3558.5,3556.2,3550.3,3550.6,3546.7,3546.9,3547.2,3547.9,3546.7,3555.4,3551.5,3551.8,3553.3,3557.3,3554.8,3552.4,3552.1,3553.9,3545.7,3539.1,3534.4,3526.2,3522,3511.9,3505.6,3499.7,3491.5,3491.8,3487.6,3486,3483.9,3481.7,3481.2,3489.4,3489.1,3492.9,3497,3501.2,3503.1,3507,3511.1,3507.1,3507.1,3507.1,3501.2,3499.1,3493.2,3489.4,3485.9,3482,3478,3468.4,3462.7,3461.1,3455.2,3451.4,3455.6,3463,3472.2,3478.1,3486.3,3502.2,3516.4,3528.7,3533.8,3536.4,3543.2,3547.6,3540,3542.5,3539,3537.2,3539.1,3538.6,3546,3545.6,3551.4,3552.9,3558.7,3566.3,3574.2,3584,3590.2,3585.9,3596,3604.4,3604.2,3613,3610.9,3602.5,3602.8,3601.1,3594.7,3582.8,3574.5,3565.7,3563.5,3545,3538.6,3525.7,3517.5,3511,3512.8,3514.8,3508.8,3516.8,3520.7,3532.9,3532.9,3541.2,3545.7,3546.1,3548.4,3542.5,3541,3535.1,3528.7,3524.1,3523.5,3520.8,3522.3,3523.8,3523.7,3527.7,3527.9,3532.2,3534.2,3534.3,3538.7,3538.7,3535.1,3537.5,3540.1,3535.9,3530,3526.4,3514.4,3504.5,3488.7,3470.6,3453.2,3433.8,3405.1,3373.1,3343.8,3311.2,3277.9,3244.8,3214.1,3187.5,3159.3,3133.8,3113.1,3098.8,3081.7,3072.4,3057.2,3043.5,3028.4,3016.3,3005.8,2992.8,2978.6,2962.5,2945.9,2937.4,2923.2,2909.5,2893.2,2881.1,2869.1,2854.6,2839,2823.5,2804.2,2782.9,2761.6,2740.5,2721.2,2700.6,2684.9,2670.7,2652.3,2638.6,2623.8,2611.4,2599.5,2591.8,2582.1,2575.9,2567.1,2558.7,2547.2,2534.6,2523.3,2509.8,2500.7,2489.3,2476.2,2461.4,2448.7,2435.2,2419.1,2405.9,2394.8,2382.9,2369.1,2355.6,2341.1,2332.5,2321.8,2313.9,2306.9,2295.9,2289.8,2282.9,2276.2,2271.1,2261.9,2252.1,2243.9,2239.6,2234,2229,2221.7,2213.8,2204.4,2195.1,2188.1,2179.6,2169.6,2155.1,2142.3,2130.4,2118.7,2109.3,2098.1,2087.6,2078.2,2071.9,2066.6,2061.1,2054.9,2048,2040.5,2034.3,2029.1,2021.7,2012.4,2006.6,1997.9,1990.9,1982.7,1974.5,1968.2,1960.2,1951.6,1944.7,1936.1,1926.5,1918,1909.9,1902.3,1894.5,1886.3,1880.5,1875.5,1868,1862.8,1855.6,1849.2,1842.8,1836.7,1832.8,1827.5,1822.5,1818.4,1632.3,1809.1,1804.4,1800.9,1796.1,1789.3,1785.7,1780,1772.8,1765.7,1758.4,1752.5,1744.9,1738.9,1731.9,1725.7,1719.6,1712.2,1707.6,1701.6,1696.9,1694.1,1689.5,1684.7,1680.2,1675.4,1669.2,1663.4,1657.3,1652.1,1644.9,1637.9,1632.8,1627.3,1622.8,1618.6,1613.2,1608,1602.6,1597.7,1593.2,1587.5,1581.8,1576.2,1570.6,1565.4,1560.2,1554.2,1551.6,1546.1,1543.3,1540.4,1538.5,1536.6,1534.3,1534.3,1532.4,1530.2,1527.5,1522.6
0,0,0,1022.3,2405.9,2296,2200.4,1687.3,2456.4,2344.5,3757.6,3696.5,3654,3606.9,3570.7,3564,3555.4,3542.6,3542.6,3534,3525.7,3517.8,3511.7,3507.7,3501.8,3498,3494.1,3488.2,3486.4,3480.7,3474.9,3476.7,3476.3,3478.4,3476.6,3476.7,3480.8,3482.7,3490.7,3500.7,3507,3511.1,3515.1,3527.1,3541.7,3560.4,3580.9,3589.1,3599.2,3606.9,3615.3,3619.2,3612.6,3599.7,3583,3555.9,3541.9,3530.1,3523.9,3520.1,3508.3,3500.7,3509,3516.9,3521,3521.3,3521.4,3515.2,3523.7,3529.6,3536.2,3541.8,3542,3543.8,3545.9,3556.3,3552.3,3556.3,3560.5,3564.6,3562.1,3562.4,3564.6,3571.1,3571.2,3571.1,3573.9,3571.9,3578.8,3576.5,3578.7,3580.5,3586.5,3585.5,3585.4,3588.9,3592.8,3594.7,3592.7,3590.7,3589.1,3594.3,3590.7,3587.4,3586.4,3580.4,3572.2,3568.2,3561.6,3546.6,3536.4,3527.2,3518.4,3508.1,3499.3,3502.9,3494.8,3498.9,3502.8,3504.9,3511.1,3523.4,3535.6,3541.7,3550.2,3556.3,3568.4,3583,3595.2,3607.3,3615.6,3619.6,3625.6,3623.4,3623.1,3623,3625.3,3619.1,3617.3,3615.6,3247.8,3604.1,3604.8,3600.7,3594.7,3592.7,3590.5,3586,3583.9,3583.7,3575.5,3569.3,3567.5,3573.8,3567.9,3568.4,3565,3565.4,3565.5,3567.2,3565,3568.9,3570.7,3570.5,3570,3565.5,3560.7,3558.5,3548,3543.8,3535.4,3529.3,3521.1,3515.3,3513.3,3509.5,3509.5,3503.3,3501,3509.2,3509.3,3513.6,3519.5,3517.3,3525.2,3523.4,3529.5,3533.6,3525.3,3521.5,3521.4,3517.3,3511.7,3501.7,3501.6,3497.9,3496.4,3490.5,3482.6,3477,3467.6,3467.9,3467.9,3471.4,3476.9,3486.8,3496.2,3512.3,3522,3534.5,3549.3,3558,3566.8,3567.4,3569.5,3568,3561.6,3562.9,3558.4,3554.1,3560,3561.5,3565,3561,3560.6,3565.9,3571.6,3583.8,3592.2,3593.8,3602.2,3610.6,3621.1,3621,3625.6,3621.1,3625.4,3623.4,3623.5,3616.9,3604.5,3596.3,3589.3,3585.5,3576.5,3561.8,3555.3,3544.9,3542.5,3544.4,3540.4,3542.4,3542.5,3546.6,3548.7,3559.3,3563.7,3562.1,3564,3568.4,3558.5,3558.7,3554.9,3552.2,3543.8,3545.4,3536.6,3540.1,3537.8,3539.8,3543.9,3544,3542,3544.3,3546.5,3544.8,3549.1,3541.3,3541.6,3544,3540.2,3534.1,3530.2,3520.5,3506.3,3492.8,3474.4,3460.6,3435.7,3411,3378.8,3345.7,3311.5,3279.4,3247.9,3215.8,3187.4,3160.9,3133.5,3109.7,3092.6,3080,3069.2,3059.9,3041.7,3028.2,3016.3,3002.8,2992.7,2977,2961,2948.4,2933,2920.5,2905.4,2889.2,2875.7,2862.6,2848.4,2830.3,2816.2,2797.6,2777.2,2755.1,2737.9,2715.8,2696.5,2681.9,2666.4,2649.1,2636.3,2624.8,2090.9,2344.1,2589.7,2580.2,2572.6,2563,2554.8,2545.2,2533.7,2522.5,2513.9,2499.7,2489.5,2476.3,2462.3,2448.7,2437.1,2422.9,2408.8,2395.5,2384.6,2370.9,2356.4,2341.1,2330.6,2321.9,2312.1,2302.5,2296.6,2287.1,2281.4,2275.3,2268.6,2260.2,2252.1,2243.8,2238.1,2233.2,2229.2,2221.8,2213.1,2203.7,2195.1,2188.1,2178.8,2167.5,2155.3,2143.2,2129.9,2117.5,2106.3,2096.2,2085.5,2077.5,2071.5,2065.2,2058.3,2052.9,2047.3,2040.5,2033.6,2027,2020.3,2012.4,2005.3,1997.3,1989.6,1981.4,1975.3,1966.3,1958.3,1949.9,1941.6,1933,1923,1915.1,1908.2,1900.6,1893.4,1885.2,1879.9,1874.8,1868.5,1861.7,1853.8,1662.7,1841.5,1836.6,1832.2,1827.9,1823,1819.5,1814.5,1810.8,1805.4,1800.8,1795.6,1789.9,1784.7,1779.4,1771.8,1764.7,1757.4,1749.9,1742.7,1736.4,1729.4,1724.3,1717.6,1710.4,1705.2,1699.1,1694.9,1691.3,1686.3,1683,1677.8,1674.1,1667.8,1662,1656,1649.9,1641.3,1636.2,1629.5,1625,1620.6,1615.7,1611.3,1606.3,1600.5,1595.6,1591.6,1586.3,1581.4,1575,1569.4,1564.2,1559,1553,1550,1544.9,1543,1540.1,1537.7,1535.8,1533.5,1532.3,1531.2,1528.4,1525.2,1521
0,0,0,0,1992.6,2307.4,2197.7,1693.4,2069.4,2756.2,3742.3,3695,3656.2,3604.7,3575.2,3561.9,3553.2,3550.8,3546.5,3540.1,3527.9,3529.8,3517.7,3515.7,3516.1,3518.2,3508.6,3504.5,3498.9,3497.1,3494.9,3490.9,3492.8,3492.5,3490.5,3486.4,3494.2,3500.3,3506.2,3516.3,3520.2,3524.4,3532.9,3547.1,3566,3582.6,3599.4,3618.3,3630.9,3639.1,3658.2,3664.7,3655.7,3649.1,3638.4,3612.9,3587.9,3581.9,3578,3563.4,3547.6,3541.9,3542.3,3542.6,3544.6,3548.7,3549.3,3547.7,3547.5,3556,3562.2,3566,3567.8,3569.1,3575.4,3579.2,3583.7,3585.4,3587.5,3587.6,3587.6,3595.7,3597.8,3601.9,3602.3,3599.8,3599.6,3599.8,3598.4,3600.6,3596.4,3598.4,3598,3598,3603.7,3597.1,3603,3611.6,3611.8,3607.8,3612.7,3617.8,3612.3,3611.2,3607.6,3600.2,3596.6,3586.4,3577.5,3564.3,3555.5,3542.4,3533.3,3524.6,3505.5,3503.1,3502.9,3509.4,3510.9,3510.8,3523.5,3529.5,3545.7,3556,3566.2,3570,3584.7,3601.3,3620.1,3630.7,3637,3643.1,3645.1,3644.7,3651.3,3653.4,3644.4,3644.7,3636.6,3632.9,3631.2,3630,3628.2,3624.8,3621,3620.5,3616.3,3612,3611.6,3611.2,3606.9,3600.2,3595.9,3596.2,3596.4,3586.3,3588.9,3585.3,3587.4,3587.7,3587.1,3586.6,3588.6,3590.6,3592.2,3591.8,3591.2,3586.8,3578.5,3574.2,3565.9,3555.4,3545.7,3543.8,3531.7,3533.9,3527.7,3525.6,3521.8,3529.8,3534.1,3535.8,3533.7,3538.1,3536,3536,3538.1,3535.9,3538,3530.1,3525.8,3521.8,3521.9,3515.7,3512,3510,3508.6,3495,3491.1,3485.2,3483.6,3478,3477.6,3483.5,3491.2,3500.8,3512.4,3526.1,3548.5,3556.7,3571.6,3586.9,3591.7,3598.4,3598.7,3597.2,3590.5,3582.4,3576.4,3576.4,3575.8,3574.7,3568.2,3565.7,3573.4,3571.1,3581.3,3585.1,3593.4,3599.4,3607.9,3616.6,3627.1,3627.1,3639.9,3639.7,3639.7,3639.8,3640.1,3639.4,3628.8,3620.4,3611.5,3609.6,3600.6,3592.2,3581.5,3575.4,3575.4,3567,3569,3571.1,3571.1,3568.9,3579.3,3577.6,3583.9,3586.3,3584.4,3586.9,3582.9,3581,3574.7,3568.4,3563.6,3559.3,3556.6,3556,3558,3562,3560.1,3562.5,3558.4,3554.6,3554.7,3548.8,3557.1,3549.4,3547.7,3546,3544.2,3536.4,3534.1,3522.1,3506.2,3490.2,3478,3458.7,3437.3,3410.6,3378.7,3343.6,3311,3281.2,3246.2,3213.9,3183.9,3159.3,3131.7,3106.5,3093.8,3076.6,3067.4,3056.7,3043.1,3028.3,3019.2,3007.3,2994.1,2975.4,2960.9,2946.7,2932.9,2920.3,2899.9,2886.4,2872,2857.7,2838.4,2824.2,2806.6,2788.1,2768.4,2751.2,2730.1,2713.1,2694.7,2678.9,2665.7,2648,2635.3,2624,2611.9,2597.5,2588.8,2578.1,2570.6,2560,2551.6,2542,2530.9,2520.5,2512.1,2501.7,2488.5,2478.4,2466.3,2450.7,2437.9,2424.9,2409.6,2398.4,2384.5,2372.6,2355.4,2342.8,2330.5,2322.6,2312.9,2306.8,2299.9,2289.6,2283.8,2277.1,2271.1,2261.1,2252.9,2242.8,2239.6,2231.7,2227.7,2221.3,2210.8,2202.3,2193.5,2186.6,2176.7,2166.1,2154.6,2141.3,2128.6,2115.3,2105.8,2094.8,2083.5,2077.1,2070.8,2062.4,2056.2,2050.8,2043.9,2036.3,2030.3,2023.8,2017.8,2011.1,2003.9,1996.1,1989.7,1982.7,1974.5,1965.7,1957.8,1948.3,1939.7,1931.2,1922.3,1913.3,1907,1899.4,1892.3,1884.6,1878.7,1872.9,1867.4,1860.4,1484,1847,1842.1,1837.7,1833.4,1829.6,1824.6,1819.9,1817.2,1811.9,1807.5,1802.8,1796.7,1790.3,1785.7,1778.9,1772.2,1763.7,1756.8,1749.3,1743.4,1736.2,1728.5,1721.5,1714.9,1709,1702.4,1696.9,1692.8,1687.9,1683.9,1679.7,1676.5,1671.3,1665.5,1660.1,1654.8,1647.9,1641.4,1633.2,1627.8,1622.7,1618.6,1614.2,1608.9,1603.5,1598.9,1594.9,1589.6,1584.7,1580.6,1574.6,1568.6,1562.6,1558.2,1552.7,1547.6,1545,1542,1538.9,1538.2,1535,1531.9,1531.2,1528.8,1526.4,1524.1,1518.7
0,0,0,0,466.5,449.5,1729.1,1669.9,2810.4,2740.8,3738.6,3690.5,3652.1,3606.9,3576.9,3572.5,3563.4,3555,3552.6,3546.3,3538,3540.1,3532,3530.1,3530.5,3528.8,3527.6,3519.9,3514.2,3510.5,3506.6,3508.3,3508,3507.4,3506.8,3506.5,3508.3,3513.9,3518.2,3528.3,3534.3,3542.4,3548.7,3565.4,3580.2,3595,3616.2,3643.6,3658.8,3669.6,3689.2,3693.4,3702.4,3698.1,3678.1,3663,3641.9,3631,3627.2,3608,3598,3588.2,3582.8,3586.7,3584.9,3583.3,3581,3575.5,3567.3,3577.8,3585.8,3587.9,3589.3,3590.7,3596.7,3600.6,3602.8,3607,3615.3,3612.9,3616.9,3619,3616.7,3623,3277.2,3274.8,3622.6,3616.1,3612.1,3610,3606.1,3610.4,3605.8,3605.7,3607.5,3609.3,3611.1,3613.7,3620,3622.8,3623.2,3628.4,3627.1,3626.1,3620.8,3613.4,3605.2,3597.6,3586.9,3579.4,3564.6,3551.2,3544.1,3529.1,3514.1,3515.5,3513.3,3515.1,3517.1,3521,3531.2,3543.7,3560,3568,3580.5,3590.8,3605.9,3624.6,3637,3647.7,3656.2,3662.7,3666.9,3668.9,3673.1,3669,3671.2,3669.2,3663.1,3659.1,3653.2,3656.4,3661.4,3657.6,3653.5,3649.1,3645.2,3644.5,3644.4,3641.3,3630.1,3628.1,3627.4,3623.4,3619,3613.1,3613.2,3605.5,3603.4,3609.7,3609.6,3609.4,3615.4,3612.9,3618.8,3614.3,3613.9,3611.4,3607.1,3601,3592.8,3580.3,3576.4,3562.2,3556,3554.3,3550.3,3542.2,3544,3544.3,3548.7,3548.5,3550.4,3548.9,3548.7,3548.7,3546.3,3544.4,3540.3,3536.1,3532.3,3532.4,3529.9,3523.6,3522,3512.1,3512.7,3504.7,3497,3492.9,3489.3,3483.9,3485.8,3493.2,3503.1,3514.3,3531.9,3548.3,3564.5,3585.5,3594,3607.1,3616.5,3621,3623.7,3615.1,3617.4,3604.4,3597.8,3593.5,3590.9,3586,3580,3577.2,3574.8,3574.3,3580.4,3592.6,3596.9,3605.5,3620.1,3622.2,3631,3643.8,3652.6,3652.6,3656.6,3663.3,3661.1,3654.2,3645.4,3638.7,3636.3,3627.9,3628,3621.6,3611.2,3606.8,3598.2,3594,3594,3593.9,3593.7,3598,3602.1,3604.4,3602.2,3604.7,3609,3603,3597.1,3599.3,3597.6,3588.8,3582.1,3581.9,3581.4,3578.8,3584.8,3582.9,3582.8,3574.6,3574.7,3566.8,3567,3561.2,3559.4,3553.4,3547.7,3547.8,3539.9,3540,3532.1,3525.9,3510,3496,3478.2,3456.9,3431.8,3409,3380.7,3347.3,3312.8,3277.5,3248.2,3213.9,3187.2,3157.4,3131.6,3110.9,3090.6,3078.2,3065.8,3053.6,3044.6,3029.6,3016.3,3004.4,2992.6,2973.8,2957.9,2942.4,2930.2,2914.6,2903.9,2883.8,2867.9,2851.2,2834.6,2819.5,2802.1,2783.6,2766.4,2746.7,2729.7,2713.5,2696.6,2678.3,2662.8,2649.6,2636.7,2623,2608.6,2597.9,2585.8,2575.1,2568.7,2557.9,2551.7,2543.2,2533,2522.7,2514.2,2506,2491.6,2480.4,2467.3,2453.5,2442.1,2428.5,2416.1,2403.2,2389,2373.3,2358.9,2346.4,2333.8,2322.5,2315.3,2307.7,2301.6,2292.9,2286.3,2278.6,2272.6,2263.5,2253.6,2245.4,2238,2231,2227.1,2220.6,2211.1,2200.8,2192.4,2184.7,2175.5,2162.6,2151.1,2139.9,2126.6,2112.7,2103.1,2092.9,2083.6,2076.5,2068.8,2061.9,2056.4,2048.8,2043.9,2036.3,2029.8,2023.2,2017.7,2009.7,2002.5,1994.8,1987.8,1979.3,1971.9,1964.5,1955.8,1945.8,1938.5,1929.9,1921.7,1912.8,1905.2,1899.9,1892.1,1885,1879.4,1871.3,1864.9,1860.6,1853.7,1847.5,1842.7,1837.7,1834.4,1830,1826.9,1821.9,1818.7,1814.1,1810.8,1804.4,1798.7,1793,1786.8,1781.1,1772.3,1764.6,1756.7,1749.9,1743.4,1736.3,1728,1721.5,1714.7,1707.6,1701.8,1696.8,1691.6,1686.5,1682.4,1677.8,1674,1668.6,1664,1659.2,1652.6,1646.6,1640.5,1632.7,1626.3,1622.4,1617.3,1612.6,1605.9,1601.2,1596.8,1592.1,1587.6,1582.3,1578.2,1572.6,1567,1561.8,1556.2,1551.5,1547.5,1543.9,1541.3,1538.9,1536.6,1535,1531.1,1529.5,1528,1524.4,1521.8,1517.6
0,0,0,0,452.8,0,397.3,1222.1,3163.3,3088.5,3726.9,3677.6,3641.9,3602.8,3579.2,3568.2,3559.4,3557.1,3554.7,3548.7,3544.2,3542.4,3540.4,3534.6,3537.2,3540.1,3538.8,3531.4,3525.8,3522.1,3518.3,3518.3,3517,3518.8,3519.8,3517.1,3516.6,3524.2,3532.2,3534.2,3542.5,3546.3,3554.5,3563.3,3582.4,3603.3,3631.1,3652.9,3674.4,3696.4,3714.3,3727.4,3729.7,3731.7,3722.7,3713.8,3689.7,3672.4,3672.8,3655.2,3640.7,3630.9,3625.2,3625.2,3614.8,3615.6,3607.4,3605.2,3599.8,3608,3607.7,3607.2,3613.3,3612.6,3618.5,3622.1,3624.6,3630.6,3634.8,3643.5,3642.8,3644.8,3644.6,3651,3646.4,3644,3639.6,3632.6,3626.6,3622.2,3622.2,3616,3616.2,3609.4,3611.5,3613.5,3617.7,3624,3628.7,3631,3631.6,3634.4,3631,3625.5,3624.7,3621.5,3617.9,3612.9,3607.8,3596.7,3579.1,3565.7,3550.6,3539.8,3528.7,3525.8,3521.6,3525.4,3529.4,3533.2,3543.3,3555.6,3572.2,3582.5,3592.8,3612,3624.5,3637.3,3652.1,3662.9,3674.1,3682.7,3682.7,3691.2,3689.2,3695.7,3698.1,3691.9,3692.3,3690.4,3690.6,3687.3,3686,3689,3680.9,3676.1,3671.5,3673.5,3668.7,3668,3665.2,3658.2,3657.6,3650.8,3644.5,3638,3636.3,3625.8,3632.1,3627.7,3629.5,3631.2,3635.5,3639.3,3645.7,3645.5,3643.2,3636.8,3632.7,3624,3613.8,3601.3,3595.3,3583.2,3575.1,3571.1,3562.9,3554.9,3557.1,3561.5,3561.7,3567.9,3564,3562,3557.7,3561.8,3559.4,3550.7,3548.6,3540.3,3534.3,3540.1,3532,3525.7,3521.7,3516,3514.1,3512.1,3504.8,3494.7,3495,3489.5,3491.8,3499.1,3508.5,3528.2,3544.1,3558.1,3579,3595.8,3619.3,3624.3,3633.2,3635.8,3636.1,3629.8,3629.5,3621.2,3616.3,3611.8,3604.8,3602,3588.8,3584.6,3584.2,3586,3585.8,3596.4,3600.7,3606.9,3619.7,3634.8,3647.9,3654.1,3658.6,3667.4,3669.5,3680.5,3680.2,3673.2,3666.7,3660.2,3655.6,3651.4,3647.2,3636.3,3628,3627.9,3628,3619.2,3621.5,3617,3619,3616.7,3616.6,3623,3627.3,3629.5,3629.9,3630.4,3619.8,3620.3,3620.6,3616.4,3611.9,3607,3606.7,3604.2,3601.9,3601.7,3601.6,3595.4,3587.2,3581.4,3575.4,3571.6,3565.5,3557.4,3551.4,3543.3,3541.5,3537.4,3533.7,3525.8,3509.9,3493.9,3479.9,3458.8,3431.6,3404.8,3380.6,3345.4,3309.5,3279.5,3248,3217.1,3187,3157.4,3128.4,3106.2,3092,3076.6,3061.2,3053.6,3040,3028.1,3013.3,3002.9,2991.1,2972.2,2958,2943.9,2929.9,2919,2901.2,2885.1,2866.6,2849.8,2834.7,2818.7,2799.9,2782.6,2760.4,2743.6,2727.7,2709.4,2694.5,2678.7,2665.5,2649.9,2636.9,2624.2,2610,2597.9,2586,2577.2,2569.8,2560.1,2553.7,2546.5,2534.1,2524.7,2516.4,2509,2496.7,2485.5,2472.2,2459.5,2445.8,2434.1,2421.8,2407.7,2393.8,2377,2359.5,2348,2336.4,2326.7,2319.1,2310.3,2302.4,2296.3,2290.5,2281.1,2276,2267.8,2256.8,2245.4,2238.2,2234.3,2226.2,2220,2210.6,2199.7,2188.7,2181.7,2171.1,2159.7,2147.7,2135.7,2123.8,2112,2101.1,2090.9,2082.4,2075.3,2067.4,2061.1,2056.4,2050.3,2043.2,2035.7,2029.7,2022.5,2016.4,2007.1,2001.3,1993.5,1986.5,1978.7,1971.3,1963.1,1954.1,1943.3,1935.4,1928.1,1919.3,1910.5,1902.8,1896.7,1890.2,1884.4,1877.9,1870.7,1864.9,1859.3,1855.6,1849.3,1842.7,1838.8,1835.4,1831.7,1828.5,1825.3,1821,1817.1,1811.4,1806,1799.6,1793.5,1786.7,1779.6,1772.4,1764.6,1756.3,1749.3,1742.4,1735.8,1728.9,1721.5,1713.7,1706.6,1700.7,1695.9,1690.1,1686.9,1683.2,1677.8,1673.1,1667.1,1662.3,1659.6,1653.8,1646.7,1637.8,1631.1,1625.8,1620.8,1616,1611.4,1604.6,1598.4,1593.6,1589.3,1585.5,1580.7,1575.8,1570.6,1564.6,1560.6,1555.5,1550.3,1546.4,1543.1,1540.9,1538.9,1536.5,1534.2,1531.6,1528.7,1526.4,1523.6,1521,1516.5
0,0,0,0,0,0,813.7,2397,3128.7,3411.7,3715.7,3668.1,3639.2,3598.4,3572.9,3568.3,3563.5,3563.5,3555.1,3554.7,3550.5,3550.7,3550.9,3553.7,3550.2,3551.2,3548.7,3541.5,3538.2,3534.7,3528.6,3528.6,3525.2,3521.7,3526.7,3519.6,3525,3524.5,3532.3,3538.3,3544.3,3548.4,3558.7,3565.2,3582.4,3609.9,3637.4,3666,3692.3,3712.1,3738.8,3752.4,3766.2,3770.6,3754.6,3745.4,3723.1,3705.6,3698.9,3685.6,3669,3660.7,3656.8,3647,3638.6,3643.5,3633,3625,3623.5,3625.6,3629.7,3626.5,3630.4,3634.1,3641.9,3641.7,3643.7,3643.4,3654,3662.4,3664.5,3662.2,3664.3,3666.1,3661.5,3663.3,3659,3650,3643.3,3634.6,3626.1,3624.2,3619.9,3617.6,3619.8,3619.6,3619.5,3623.9,3630.4,3630.7,3633.4,3636.2,3639.1,3635.6,3636.4,3633.2,3630.1,3624.2,3620.4,3606.4,3591.6,3580.7,3565.1,3552.3,3543.7,3532.4,3533.9,3535.8,3539.6,3547.3,3555.7,3567.8,3584.3,3596.6,3611.8,3624.4,3637.3,3659.2,3676.2,3687.4,3689.7,3700.7,3707.1,3714.1,3716.3,3725.4,3721.1,3719.2,3717.3,3720.1,3714,3717.2,3717.9,3720.9,3712.5,3707.5,3703,3707.4,3702.3,3692.6,3687.6,3684.8,3681.7,3674.8,3665.7,3659.1,3657.3,3648.8,3650.6,3655,3654.7,3658.9,3667.2,3669.6,3671.6,3671.3,3666.7,3664.8,3660.6,3654,3641.4,3625.1,3615.2,3605,3592.4,3590.1,3580,3574.1,3574.3,3574.3,3574.8,3574.9,3572.8,3570.5,3566.7,3566.2,3564,3557.4,3548.8,3544.7,3540.4,3536.2,3539.8,3535.7,3527.7,3521.6,3520,3513.7,3510,3500.2,3494.5,3494.6,3495.1,3506.2,3515.9,3531.7,3551.4,3570.2,3593,3607.9,3622.8,3632.5,3641.9,3642,3647.1,3648.9,3646.3,3643.9,3637.1,3630,3621.3,3611.8,3609.4,3600.7,3596.2,3594,3600,3597.8,3606.4,3617,3627.9,3643.1,3656.5,3665.1,3676.1,3678.2,3686.8,3686.6,3693.1,3686.4,3683.8,3675.2,3675.1,3670.9,3673.3,3662.3,3653.7,3649.2,3647.1,3646.9,3646.9,3646.8,3640.4,3644.4,3646.5,3657.1,3651.1,3653,3653.3,3649.3,3645.4,3643.5,3641.5,3635.2,3637.4,3626.2,3621.5,3623.3,3621.1,3623.1,3616.9,3610.3,3602.2,3594.3,3585.9,3582.1,3573.6,3563.4,3551.4,3549.5,3541.3,3537.4,3525.3,3521.7,3507.7,3493.8,3478.2,3454.5,3433.6,3407.1,3378.7,3347.4,3309.5,3281.1,3246.4,3215.6,3185.4,3155.7,3130,3104.6,3090.5,3073.5,3062.7,3049.1,3035.5,3023.6,3011.8,3001.3,2989.7,2975.1,2959.5,2948.1,2932.6,2916.4,2902.6,2883.7,2866.6,2853.7,2836.1,2817.1,2801,2780.2,2759.3,2742.2,2727.7,2710.4,2695.7,2681.1,2668.7,2651,2636.8,2624.4,2612.2,2596.7,2584.8,2578.3,2571.9,2563.3,2554.7,2546.5,2533.9,2527.7,2520.5,2511.9,2502,2490.6,2478.4,2463.4,2452.7,2439,2424.5,2410.5,2393.6,2378.9,2363.4,2349,2339.2,2329.5,2321,2311.2,2304.1,2298.3,2291.5,2284.5,2278.6,2268.6,2259.4,2246.3,2239.1,2234.2,2226.2,2217.8,2207.5,2196.6,2185.6,2177.2,2166.6,2155.4,2143.8,2130.6,2117.4,2107.8,2097.6,2090.5,2082.4,2074.6,2066.7,2061,2055,2049.6,2043.3,2035.1,2029,2021.9,2014.9,2006.6,1999.2,1991.6,1984.4,1977,1967.9,1961.3,1952.8,1943.2,1934.6,1926.9,1917.4,1910,1904,1897.3,1890.2,1884.4,1878.3,1871.9,1866.1,1860.9,1855.6,1851.5,1845.2,1842.2,1837.7,1834.4,1831.8,1827.3,1822.6,1818.4,1811.8,1807.7,1800.1,1793.5,1786.2,1779,1771.8,1763.3,1756.3,1748.6,1742.3,1735.3,1728.5,1720.1,1713.3,1707,1701.2,1695.9,1690.5,1686.8,1682.7,1677.8,1673.1,1668,1662.7,1659.1,1653.2,1645.2,1637.5,1630.7,1623.2,1619.4,1614.8,1608.4,1600.9,1594.8,1589.9,1586,1581.9,1577.1,1572.2,1567,1562.2,1558.6,1553.9,1550,1546.4,1542.9,1540.5,1538.9,1536.9,1534.3,1531,1528.3,1525.6,1522.1,1519.1,1515.5
0,0,0,0,833.1,2453.6,1238.2,1601,3105.8,3757.9,3705.1,3669,3634.3,3597.7,3574.4,3570.1,3563.6,3563.1,3560.9,3558.8,3556.8,3555.1,3559.5,3560.2,3563.4,3567.4,3560.8,3555.9,3548.1,3551.6,3539,3532.4,3526.8,3529.3,3532,3530.6,3531.5,3529,3534.5,3546.5,3548.6,3552.7,3558.9,3563.3,3580.6,3611.8,3637.8,3672.7,3699,3728.4,3750.6,3775.4,3796.2,3807.7,3791.5,3775.2,3750.1,3734,3727.6,3707.3,3696.9,3680.2,3676.4,3672.8,3659.8,3656.5,3652.5,3644.6,3642.8,3640.5,3640.2,3646.2,3641.5,3642.7,3650.3,3652,3656.4,3664.7,3668.8,3672.9,3675.2,3679.4,3677.1,3674.8,3672.5,3667.9,3663.3,3658.7,3649.8,3641.4,3634.9,3628.3,3624.1,3619.9,3619.7,3619.7,3621.4,3625.7,3630.3,3634.6,3639.3,3639.6,3640.5,3641.2,3641.9,3640.7,3637.6,3627.4,3625.1,3618.7,3601.4,3590.3,3579,3564.5,3553.4,3548.8,3548.4,3554.1,3557.9,3561.8,3574.4,3586.5,3600.9,3617.8,3632.8,3641.4,3659.2,3674.6,3692.1,3705.3,3714.7,3723.3,3727.5,3734.2,3741,3739,3746.3,3744.5,3744.8,3745.4,3739.1,3742.2,3735.6,3739,3734.2,3729.8,3724.9,3722.7,3720,3712.9,3705.2,3698.3,3692.8,3688,3683.1,3680.9,3678.5,3676.2,3680.7,3684.8,3682.5,3684.5,3690.9,3693.2,3697.6,3690.8,3702.2,3693.7,3687.5,3678.7,3666.1,3645.2,3637.6,3625.1,3614.2,3608.1,3597.5,3587.2,3587.5,3592,3592.3,3588.3,3586.3,3584.3,3582,3579.3,3574.3,3570.4,3559.2,3555.2,3548.8,3546.6,3543.7,3545.9,3537.5,3527.4,3523.4,3523.4,3519.6,3511.3,3512,3503.9,3506,3519.8,3531.3,3546.9,3565.4,3579.7,3598.5,3615.9,3628.9,3640.3,3645.6,3652.3,3654.8,3655,3657,3652.2,3649.4,3647.2,3633.6,3628.6,3617.6,3617.1,3610.9,3602.2,3600,3604.4,3604.6,3617.5,3628.3,3645.8,3661.2,3672,3678.5,3684.9,3693.4,3699.8,3704.5,3701.6,3697.5,3695.3,3695.2,3688.5,3686.7,3680.1,3671.1,3668.9,3673.5,3669.1,3664.5,3664.2,3306.1,3663.8,3661.6,3667.9,3667.9,3670.3,3670.8,3666.7,3666.9,3664.9,3660.8,3656.7,3650.2,3648,3647.6,3642.8,3642.4,3638.3,3638.1,3627.7,3617.1,3607.1,3594.3,3588,3584.1,3569.6,3557.3,3549.1,3543.3,3533.3,3527.4,3515.7,3501.6,3485.9,3472.1,3452.9,3428.2,3403.3,3375.4,3338.2,3311.1,3277.5,3241.1,3214.1,3178.9,3151,3123.8,3104.6,3081.2,3070.6,3056.8,3046.1,3032.6,3022.2,3010.2,3001.3,2989.6,2972.3,2960.9,2946.7,2932.6,2920.4,2909.5,2889.1,2871.9,2853.7,2834.5,2818,2802,2780.8,2758.8,2740.5,2722,2707.5,2694.1,2680.7,2664.9,2649.6,2636.7,2624.4,2612.1,2596.7,2585.8,2576,2570.7,2564.3,2554.8,2547.3,2536.1,2529.6,2522.3,2515.9,2504.7,2494.6,2482.4,2470.3,2456.5,2443.9,2430.2,2416.3,2397.3,2383.6,2367,2352.8,2342.8,2332.3,2321.8,2313,2306.9,2299.3,2294.9,2288.1,2278.6,2270.3,2260.3,2248.1,2243.2,2235.9,2228,2217.8,2210,2194.8,2184.1,2173.4,2161.3,2151.4,2139.5,2127.6,2114.5,2104.3,2096.1,2087.7,2078.1,2073.1,2066,2061.8,2055.6,2050.3,2043.5,2035.2,2027.1,2021.2,2013,2005.8,1997.3,1990.9,1981.8,1975,1966.8,1959.5,1950.8,1941.4,1932.8,1926.2,1919.3,1911.1,1904.4,1899.1,1891.3,1884.6,1878.3,1872.4,1867.3,1862.1,1858.8,1853.1,1847.6,1844.4,1840.5,1837.7,1833.8,1828.6,1822.5,1817.8,1811.4,1806,1800.1,1794,1785.6,1778.4,1771.9,1764.4,1756.3,1750.3,1742.8,1735.7,1728.1,1720,1712.3,1706,1700.8,1693.4,1689.1,1685.3,1681.2,1677.3,1672.6,1668.6,1662.9,1658,1652.8,1645.7,1637.4,1628.8,1622.9,1616.6,1611.5,1605.1,1598.5,1591.1,1587.4,1582.4,1578.7,1575.1,1571.1,1566.6,1562.3,1558.3,1554.7,1550.8,1548.4,1543.6,1542.2,1539.2,1536.9,1534.3,1530.5,1527.6,1524.1,1521.4,1517.7,1513.4
0,0,0,0,3371.7,3234.5,3184.8,1975.6,3829.2,3756.3,3703.9,3662,3627.2,3590.8,3574.2,3567.9,3565.4,3567.4,3565,3562.8,3563.2,3563.5,3565.9,3573.2,3576.6,3578.2,3569.4,3568.5,3563.9,3562.9,3556.3,3547.8,3539.7,3540.1,3538.4,3534.8,3535.6,3539.2,3542.8,3550.6,3554.6,3556.7,3565.2,3571.5,3588.5,3611.8,3646.2,3679,3712.5,3744.3,3773.7,3794.1,3815.2,3824.2,3817.4,3800.9,3782.1,3761.2,3749.9,3736.5,3723.2,3701.5,3698.4,3687.6,3674.5,3668.5,3665.2,3652.7,3649.3,3649.4,3655.4,3651.9,3651.6,3653.1,3658.9,3660.9,3667.1,3668.6,3672.8,3679.2,3679,3685.6,3681.3,3676.7,3678.9,3674.4,3665.5,3665.5,3648,3639.1,3630.3,3628.5,3623.9,3625.9,3626.2,3630.3,3630.1,3632.1,3636.4,3636.5,3638.8,3639.1,3639.9,3640,3645.3,3643.6,3644.6,3643,3632.9,3626.3,3611.5,3600.5,3589.1,3577.1,3566,3564.9,3562.9,3572.9,3578.7,3582.8,3590.9,3607.7,3620.3,3639.3,3652.3,3665.3,3676.5,3696.9,3710.1,3723.6,3733,3743.6,3748.5,3755.2,3759.6,3759.9,3769.2,3763,3761.3,3761.6,3764.2,3760.4,3760.9,3754.3,3759.2,3752.4,3750,3743,3744.7,3731.1,3723.3,3713.6,3708.4,3703.6,3703.2,3696.5,3694.1,3700.3,3695.7,3704.4,3706.6,3711.1,3720.1,3717.8,3726.5,3722.6,3724.5,3722.8,3719.1,3705.8,3691,3671.4,3661.1,3650.9,3633.8,3625.6,3610.2,3606.8,3607,3607.4,3607.5,3603.7,3599.6,3595.4,3594.8,3594.5,3591.6,3580.7,3573.9,3567.6,3558.9,3558.5,3560.3,3551.8,3541.4,3535.3,3535.4,3535.3,3531,3527,3523.1,3519.2,3527.4,3535.2,3545.1,3554.8,3571,3591.6,3606.6,3623.9,3643.3,3646.2,3653.3,3658.6,3667.6,3665.5,3661.4,3656.2,3656,3653.3,3644,3643.7,3630.4,3623.7,3615.1,3613,3611.4,3611.7,3614.3,3623.2,3632,3653.6,3664.1,3675,3687.7,3696.4,3702.8,3713.8,3720.5,3720,3713.3,3711.1,3706.9,3702.4,3702.6,3700.2,3689,3693.7,3695.9,3691.5,3682.1,3684.3,3679.6,3683.8,3688.2,3690.7,3679.5,3684,3681.8,3682,3682.3,3682.4,3680.5,3671.9,3671.8,3667.5,3662.7,3662.4,3660.3,3651.6,3651.7,3638.5,3630.2,3619.9,3613.4,3605,3596.6,3582.1,3563.2,3557.1,3545.1,3532.9,3521,3513.4,3499.5,3483.9,3466.2,3447,3416.4,3395.8,3366,3336.5,3298.7,3270.7,3236.3,3203.9,3175.7,3144.7,3120.8,3099.9,3084.6,3067.6,3056.9,3047.8,3034.1,3019.1,3010.2,3004.3,2995.5,2981,2967.9,2955.2,2941.2,2927.4,2913.4,2897.3,2875.7,2856.1,2836.8,2821.5,2801.3,2781.6,2759.3,2741,2726.3,2708,2697.1,2680.1,2667,2649.5,2636.5,2622,2612.1,2597.8,2586.9,2579.3,2571.8,2563.1,2553.6,2548.3,2539.9,2276.9,2525.2,2515.9,2508.6,2496.5,2485.2,2473.4,2458.4,2446.8,2432.4,2415.3,2399.6,2383.7,2368.9,2356.4,2343.3,2330.8,2320,2312.5,2305.5,2300.9,2294.3,2285.7,2277.2,2268.7,2259.7,2248.9,2239.8,2236.8,2226.4,2217.7,2205.8,2195.7,2182.6,2170.3,2158,2146.8,2133.3,2122.4,2111.4,2100.7,2092.6,2086.2,2078.3,2071.7,2065.9,2061.1,2055.7,2049.6,2043.5,2035.2,2027.1,2020.5,2011.6,2004,1995.3,1988.5,1980.5,1973.7,1965.7,1958.2,1949.5,1940.1,1931.6,1925.7,1918.3,1911.5,1905.5,1899.6,1893.7,1887.5,1879.8,1874.6,1868,1863.4,1859.9,1856,1849.7,1846.1,1842.6,1837.8,1833.8,1828.5,1823.7,1816.7,1810.8,1805.6,1799.3,1792,1785.5,1777.5,1771.4,1763.9,1757.4,1750.8,1741.9,1734.8,1728.6,1721.3,1714.2,1706.4,1700.3,1694.3,1689.2,1685.3,1681.6,1676.7,1672.1,1668.1,1663.3,1657.5,1653.2,1644,1636.2,1629.2,1621.5,1615,1608.8,1603.8,1596.1,1589.9,1584.5,1580.3,1576.3,1572.8,1568.8,1565.5,1561.5,1557.9,1554.3,1552,1547.6,1544,1541.7,1538.9,1536.6,1533.5,1529.7,1527.1,1523.7,1519.6,1516.5,1512.7
0,0,0,0,4231,4141.5,4020.6,3932.1,3845.5,3760.4,3707.8,3665.5,3628.8,3596.8,3575.7,3573.5,3571.4,3571.1,3573.1,3571.2,3569.2,3572,3578.2,3581.5,3589.6,3590.6,3588.4,3581.3,3578.2,3570.7,3572.3,3562.2,3553.7,3550.3,3541.9,3546.9,3543.6,3545.3,3550.6,3552.6,3556.5,3560.8,3569.2,3575.6,3594.5,3626.3,3654.6,3687.7,3723.4,3751.1,3785.6,3808.4,3836.5,3843.6,3838.8,3829.2,3805.3,3791.5,3768.2,3754.6,3739.3,3735,3717.7,3704.8,3692.1,3684.1,3675.7,3667.6,3663.6,3661.2,3660.9,3655.9,3659.4,3661.5,3667,3671.2,3675.2,3679.2,3685.9,3685.7,3690,3690,3692.1,3690.4,3690.3,3678.8,3678.7,3665.4,3658.8,3649.8,3645.4,3638.8,3634.3,3638.7,3640.8,3634.4,3636.3,3636.1,3642.5,3640.7,3642.9,3649.7,3652.2,3650.5,3653,3655.5,3654.3,3650.1,3644.3,3636,3623.2,3616.9,3605.9,3595.1,3588.6,3579.8,3575.5,3591.7,3597.5,3603.6,3618.2,3628.9,3648,3661.1,3676.4,3692.2,3705.7,3715.1,3728.5,3742.2,3751.4,3760.1,3771.3,3775.9,3778.2,3780.8,3783.3,3781.7,3777.5,3782.1,3780.2,3783,3781.1,3783.8,3772.3,3767.6,3767.2,3767.4,3760.3,3750.8,3741.1,3734,3726.7,3728.4,3723.6,3716.8,3718.5,3709.2,3722.5,3729.3,3736.1,3738.5,3745.1,3744.9,3752,3752,3745.3,3741.5,3742.1,3733.3,3718,3703.1,3690.3,3677.4,3660.2,3646.8,3635.9,3631.9,3623.5,3630.7,3631,3626.9,3618.7,3612.4,3612.9,3612,3604.4,3593.6,3590.8,3582,3579.8,3575.4,3572.8,3570.5,3557.9,3559.6,3549.5,3547.5,3547.3,3543.2,3542.9,3543.1,3544.9,3554.8,3571.1,3579.2,3591.5,3608.2,3619,3634,3647.3,3654.6,3655.2,3669.2,3665.1,3667.4,3660.9,3660.5,3660,3659.6,3650.9,3650.1,3641.1,3632.6,3630.3,3622.2,3616.2,3615.1,3622.1,3626.9,3640.3,3653.3,3670.6,3680.8,3696,3712.9,3714.9,3727.8,3725.3,3731.8,3729.6,3729.8,3720.7,3718.5,3714.3,3712.1,3707.3,3709.6,3714.2,3714,3709.4,3704.9,3700.4,3704.9,3702.3,3695.8,3693.6,3698,3700,3695.7,3689.1,3695.6,3689,3689.2,3686.9,3680,3671.1,3673.3,3668.9,3660.3,3658,3649.3,3642.9,3634.7,3625.9,3611.2,3602.6,3590.2,3575.6,3563.4,3551.1,3535,3523.2,3509.2,3497.4,3479.8,3460.1,3431.5,3414.4,3386.1,3356.6,3329.1,3296.9,3265.4,3227.8,3197.4,3167.5,3138.5,3117.8,3098.8,3084.7,3069.1,3056.9,3046.3,3034.1,3020.7,3010.2,3005.7,2992.7,2982.4,2972.2,2961,2945.3,2937.1,2918.9,2903.9,2885.1,2865.2,2844.4,2825.1,2802.1,2786.1,2766.1,2743.9,2726.9,2713.6,2699.1,2684.5,2667.8,2652.6,2637.9,2624.2,2610.8,2597.7,2586.9,2578.3,2568.4,2563.1,2556.7,2550.3,2540.7,2277.9,2528.2,2519.8,2506.7,2497.3,2487.1,2476.3,2459.3,2445,2432.5,2416.5,2399.6,2383,2368.4,2355.8,2342.5,2332,2322,2312.7,2306.5,2302.1,2293.3,2285.7,2275.6,2267,2257.9,2248.7,2239.8,2233.5,2226.4,2213.6,2202.7,2190.1,2180,2164.9,2151.9,2141.4,2131.1,2120.5,2109.1,2098.9,2091.9,2086,2079.6,2072.4,2068.1,2061.2,2055,2050.2,2044.2,2035.2,2027.1,2020.4,2011.7,2003.9,1996.1,1988.5,1980.6,1972.4,1963.9,1958.2,1948.8,1940.7,1931.7,1925.4,1918.6,1911.5,1907.9,1901.9,1896.2,1889.8,1882.8,1876.2,1870.6,1866.9,1862.3,1857.6,1850.4,1846.6,1842.5,1838.9,1835,1828.5,1823.2,1816.6,1809.1,1803.5,1798.8,1791.4,1784.6,1777.7,1771.4,1764.4,1756.9,1751.3,1743.4,1736.1,1729.1,1721.4,1714.8,1707.9,1700.8,1693.7,1688.7,1685.4,1682.1,1676.3,1672.8,1668.1,1663.3,1658,1652.3,1645,1635.6,1627.4,1620.3,1613.5,1606.7,1600.9,1594.5,1588.2,1583.3,1579.1,1574.8,1571.2,1566.8,1563.9,1561.5,1558.7,1555.1,1551.6,1547.2,1545.2,1541.3,1538.8,1536.6,1532.3,1528.3,1525.1,1521.4,1518.4,1515.1,1510.3
0,0,0,421.8,4326.5,4217,4073.2,3967,3864.6,3774,3705.2,3663.3,3623.9,3596.2,3575.3,3571,3569,3572.9,3575.1,3579.6,3579.6,3581.9,3584.4,3591.8,3597.1,3598.1,3599.5,3594.2,3593.4,3583.8,3577.6,3570.7,3562.5,3557.2,3551.9,3554.2,3553.7,3551.1,3556.8,3560.7,3566.8,3571.2,3577.2,3585.7,3604.7,3633,3660.9,3694.2,3728.1,3757.7,3795,3817.9,3849.1,3856,3851.1,3846.5,3824.8,3808.3,3794,3773.2,3759.5,3753.4,3738.1,3719.8,3702.8,3692.2,3683.8,3675.5,3672.1,3674.6,3671.2,3672.4,3671.9,3675.9,3681.7,3681.5,3685.8,3694.3,3694.3,3696.5,3696.6,3696.4,3698.7,3696.2,3691.6,3683.1,3682.9,3673.8,3667.3,3660.7,3660.5,3656,3653.7,3649.4,3645,3644.8,3644.8,3644.8,3649.1,3649.2,3649.4,3655.8,3656,3658.6,3661.1,3670.4,3668.9,3664.7,3658.5,3648,3639.7,3631.1,3624.7,3616.2,3601.2,3596.7,3594,3604.5,3618.8,3631.1,3644.1,3656.7,3669.7,3687.5,3700.8,3714.7,3725.8,3735.1,3748.6,3762.5,3767.2,3776.3,3780.5,3787.6,3794.5,3794.4,3792.6,3792.8,3795.7,3793.3,3793.4,3801,3798.9,3798.8,3792.2,3782.7,3785.1,3782.4,3775.6,3765.9,3754.2,3746.9,3739.8,3737.2,3736.5,3731.9,3736.3,3734.2,3741.1,3748,3757.2,3761.4,3773.3,3780.1,3775.4,3780.1,3775.4,3773.7,3769.6,3763.3,3745.3,3728,3719.6,3704.6,3686.1,3674.8,3661.7,3655.4,3651.7,3649.8,3655.2,3649.1,3642.8,3630.2,3638.8,3634.2,3626.9,3624.4,3616.7,3608.1,3601.5,3596.6,3594.4,3587.4,3576.8,3570.3,3568.3,3568,3563.4,3563.2,3567.5,3569.6,3573.4,3587.9,3598.2,3604.3,3616.9,3629.5,3642.4,3653.3,3651.7,3663.2,3670.3,3670.6,3671,3664.9,3667,3668.9,3664.3,3670.8,3666.3,3661.3,3652.6,3645.9,3639.7,3633.8,3630.4,3631.6,3632.1,3643.7,3650.2,3669.9,3678,3693,3707.8,3722.4,3726.8,3737.4,3746.1,3745.9,3736.8,3744.1,3736.9,3734.9,3734.8,3734.9,3725.8,3732.5,3737,3732.6,3725.9,3730.5,3719.5,3723.8,3716.8,3721.7,3714.7,3712.4,3707.4,3702.7,3709.4,3709.3,3704.5,3706.6,3704.7,3699.9,3693.3,3688.6,3682.2,3675.5,3671.3,3664.6,3660.4,3651.9,3634.7,3626,3619.7,3602.7,3590,3573.5,3561.4,3539.2,3529.2,3513.1,3493.1,3471.5,3450.4,3423.6,3399.2,3371.4,3338,3311.3,3279.5,3248.5,3213,3184.6,3154.9,3132.3,3111.5,3089.5,3077.1,3063,3050.9,3041.7,3031.1,3017.8,3010.2,3000,2994,2980.8,2972.2,2959.6,2948.2,2938.3,2922.9,2906.7,2887.9,2869.1,2848.2,2826.2,2808.1,2791.9,2770.7,2748.4,2728.7,2714.2,2700.9,2686.5,2672.3,2657.1,2638.7,2626.4,2611.9,2597.6,2587.8,2577.2,2570.6,2562.8,2557.6,2549.2,2544.1,2536.5,2531.2,2521.8,2512.8,2501.3,2488.2,2475.2,2460.5,2448.8,2432.7,2416.5,2399.6,2383.1,2367.6,2355.9,2341.8,2330.1,2321.3,2313.6,2306.5,2300.5,2292.5,2285.7,2276.5,2265.3,2254.5,2244.7,2237.3,2228.5,2219.8,2210.1,2198.4,2185.1,2170.5,2158.5,2145.6,2135.9,2125.6,2113.1,2105.2,2095.1,2088.7,2083.1,2076.6,2073,2066,2061.3,2055.8,2051.5,2044.1,2036.5,2029.1,2019.8,2011.7,2004.5,1996.7,1989.7,1982.5,1973,1966.9,1957.6,1949.4,1941.3,1932.9,1928.4,1922.3,1916.8,1909.2,1906.7,1899.8,1893.2,1886.2,1879.2,1872.2,1867.5,1863.5,1857.5,1852,1847.8,1843.1,1839.4,1835,1828.5,1822,1813.9,1807.1,1803,1797.2,1790.8,1784.7,1778.7,1772.5,1765.7,1760.1,1753,1745.1,1738.8,1732.2,1723.2,1716.2,1708.9,1702.2,1694.7,1690.9,1686.3,1682.1,1677.5,1673,1668,1661.5,1658.1,1652.3,1644.6,1636,1627.4,1619.9,1612.7,1605.4,1599.3,1592.4,1586.6,1582.9,1579.1,1574.7,1570.4,1567.5,1564.3,1561.1,1558.3,1555.5,1550.4,1548,1544.4,1540.9,1538.4,1535.1,1531.2,1526.7,1523.7,1520.8,1516.6,1513.1,1509.1
0,0,484.9,2744.9,4347.7,4237,4092.1,3969.7,3869.4,3771.5,3707.3,3652,3615,3593.7,3581,3578.8,3574.8,3575,3577.1,3575.2,3579.6,3584.2,3590.4,3597.7,3600.6,3612,3606.5,3609.9,3600.1,3598.4,3594.2,3585.3,3575.1,3568,3567.3,3566.1,3565.7,3561,3562.7,3570.9,3573.1,3579.4,3585.7,3592,3606.8,3637,3665.3,3700.9,3730.5,3766.8,3797.5,3828.1,3854.1,3870.6,3860.8,3861,3839.4,3820.5,3806.6,3785.8,3774.2,3760.8,3749.8,3725,3702.8,3696.6,3692,3681.2,3680.1,3679.7,3683.9,3682.6,3684.3,3690.6,3696.6,3700.9,3700.9,3707.1,3711.4,3707.2,3705,3709.2,3706.9,3702.7,3695.9,3695.8,3689.1,3689.2,3682.5,3671.3,3675.4,3673.3,3668.9,3666.6,3666.6,3660.1,3660,3660,3662.2,3662.1,3666.5,3668.9,3664.8,3671.5,3678.2,3683.1,3681.3,3681.3,3672.8,3667.1,3658.6,3654,3645.7,3639,3626.2,3621.6,3623.6,3634.2,3642.2,3654.5,3668,3685.1,3694,3716.4,3728.2,3737.3,3749,3758.4,3765.3,3781.2,3785.7,3794.9,3794.4,3799.3,3804,3801.5,3806.2,3808.7,3806.3,3808.8,3809.2,3804.5,3807.1,3804.9,3800.4,3797.6,3795.4,3788.4,3781.1,3772.2,3760.5,3755.6,3753.4,3753,3746,3746.1,3750.4,3750.4,3762.1,3764.1,3776.1,3782.8,3796.9,3803.8,3803.7,3801.4,3797,3797.4,3793.1,3791.2,3771,3752.8,3737.8,3726.6,3712.9,3701.2,3694.2,3681.5,3686.2,3682.4,3676.6,3675.2,3669.1,3658.5,3663.4,3656.7,3655.9,3653.1,3635.2,3632.2,3621,3623,3615.7,3602.3,3597.9,3591.3,3591.3,3586.7,3584.4,3588.3,3590.3,3596.4,3596.3,3613.2,3619.6,3628.1,3636.3,3649.5,3655.7,3662.5,3667.2,3676.2,3672.3,3670.5,3668.3,3671.2,3668.8,3673,3671,3679.4,3672.8,3674.9,3666.4,3659.7,3658.2,3652.5,3651.2,3647.7,3650.9,3662.5,3666.6,3677.4,3696.8,3706.8,3721.7,3732.1,3738.3,3751.5,3755.9,3755.5,3753.5,3755.6,3757.8,3751.1,3746.6,3744.3,3746.5,3751.3,3751.3,3749.5,3742.7,3741,3741.3,3734.2,3734,3734.4,3727,3726.4,3721.5,3723.9,3725.5,3723,3724.8,3722.2,3717.6,3717.6,3708.5,3701.8,3697.2,3693.1,3688.9,3684.5,3675.8,3666.8,3654.2,3647.6,3634.9,3619.8,3602.6,3585.9,3567.3,3546.9,3528.6,3516.6,3491,3469.3,3442.3,3417.6,3389.4,3360,3327,3296.9,3267.2,3236.5,3204.4,3178,3151.9,3126.1,3103.8,3085.2,3071.2,3057.3,3049.4,3041.7,3031.1,3020.8,3011.7,3001.4,2994,2986.6,2976.5,2963.9,2949.5,2939.9,2924.6,2908.1,2886.4,2866.6,2850.7,2831.3,2810.6,2787.8,2767.8,2749.3,2729.7,2715.4,2704.2,2691.2,2675.7,2658.3,2644.6,2629.8,2615.2,2601.9,2590,2580.4,2573.9,2567.2,2559.6,2552.2,2547,2539.6,2535.4,2526.1,2516,2503.4,2489.3,2477.4,2460.6,2447,2431.6,2414.7,2398.7,2383.1,2368.6,2353.4,2339.1,2330.1,2320.6,2311.8,2304.7,2300.4,2291.6,2284,2274.5,2262.6,2251.9,2243,2234.1,2225,2217.1,2206.7,2191.9,2180.4,2168,2155.1,2143.1,2130.5,2120.5,2110.7,2102.2,2093.5,2086.5,2082.3,2075.8,2071.6,2066.1,2062.7,2056.5,2049.5,2044,2036.5,2029.2,2020.5,2013,2003.9,1997.4,1990.9,1983.9,1974.8,1968.7,1960.1,1952,1943.8,1937.1,1931.8,1927.1,1919.8,1914.4,1909.2,1903.3,1897.5,1890.2,1882.1,1874.6,1870.1,1865.2,1858.8,1852.6,1847.6,1842.6,1839.4,1835,1827.4,1820,1811.8,1805.1,1798.5,1794.5,1788.8,1782.2,1776.5,1772,1765.1,1759.6,1754,1747.6,1739.9,1732.8,1724.1,1717.6,1709.3,1703.6,1696.5,1692.4,1687.3,1682.1,1677.6,1673,1667.8,1661.5,1657.1,1650.5,1644.1,1635.6,1628.3,1620.3,1612.8,1606.2,1599.7,1594,1587.8,1584,1579.9,1574.7,1571.5,1567.4,1565,1563,1559.4,1555.8,1552,1548,1544.8,1542.1,1538,1534.3,1530.9,1527.1,1523.5,1519.9,1515.7,1511.7,1508.8
0,508.9,2339.5,3217.8,4373.5,4266.3,3728,3977.5,3869.2,3766.7,3691.7,3638.9,3602.5,3581.2,3574.9,3572.8,3572.7,3572.8,3576.9,3581.2,3581.4,3590,3594.7,3597.3,3608.3,3611.1,3613.6,3616.5,3612.7,3606.5,3602,3597.4,3585.8,3580.9,3580.5,3577.8,3573.3,3575.2,3577,3577,3583.6,3585.5,3598.3,3600.2,3619.8,3643.1,3676,3702.9,3739.2,3767.2,3802.7,3830.8,3857.1,3871.3,3878.6,3859.4,3838.3,3824,3811.8,3795.7,3784.1,3768.4,3750.4,3727.4,3709.4,3700.4,3694.3,3688,3686,3692,3689.3,3699.4,3701.5,3707.7,3716.3,3715.8,3722.5,3727,3729.1,3724.3,3722.2,3717.7,3715.5,3711,3713.5,3706.6,3702.2,3697.6,3695.5,3689,3693.5,3688.8,3688.7,3684.1,3677.6,3677.5,3672.9,3672.9,3677.3,3677.7,3675.3,3680.1,3684.8,3686.9,3694,3700.8,3703.2,3698.8,3699.7,3690.5,3679.8,3675.1,3668.8,3655.7,3651.2,3647,3649.1,3659.9,3674.9,3683,3698.8,3716.7,3732.1,3748.4,3757.6,3767,3776.3,3778.6,3792.5,3797,3799.2,3806.2,3808,3808.2,3810.5,3815,3819.8,3815.3,3817.6,3817.5,3820.1,3817.8,3817.6,3819.8,3812.9,3805.9,3803.8,3804.1,3792.2,3780.6,3771.4,3764.6,3760,3762,3757.5,3755.1,3762.2,3762.2,3771.7,3787.9,3792.4,3806.4,3818,3819.9,3827.3,3822.4,3825.6,3816.4,3819.6,3808.3,3790,3780.9,3762.9,3751.7,3741.7,3730,3725.4,3714.2,3712.5,3713.6,3709.5,3703.8,3694,3692.5,3686.4,3683.7,3681.3,3667,3666.5,3659.1,3648.3,3643.2,3639.7,3626.2,3623.3,3616.9,3607.9,3607.8,3609.7,3615.6,3617.5,3619.7,3625.8,3632.2,3640.8,3647.6,3660.9,3667.1,3671.8,3682.7,3683,3687.6,3681.3,3681.1,3676.7,3672.8,3675.3,3677.2,3683.7,3686.2,3683.9,3681.9,3680.2,3674.2,3672.2,3671.1,3670.2,3667,3669.9,3674.3,3685.5,3691.7,3708.3,3718.3,3733,3747.9,3752.3,3765.4,3763.1,3769.8,3767.5,3770.3,3760.6,3765.6,3763.3,3758.8,3760.9,3765.7,3768.3,3764.1,3755.1,3760,3758.1,3748.6,3746.9,3742.1,3739.2,3736.4,3735.6,3742.1,3737.3,3738.9,3738.4,3735.9,3737.8,3735.4,3726.1,3719.5,3717.3,3710.8,3706.3,3700,3693.4,3684.8,3669.3,3665.1,3652,3632.5,3617.4,3600.6,3583.7,3559.2,3536.6,3516.6,3494.8,3467,3436.3,3406.1,3374.5,3348.7,3317.8,3284.4,3256.9,3229.4,3196.3,3170,3145.4,3119.7,3099.3,3083.6,3066.8,3054.4,3046.4,3037.1,3029.6,3020.7,3011.8,3001.4,2992.5,2983.7,2972.3,2959.5,2949.5,2934.4,2920.4,2906.7,2883.9,2866.5,2849.3,2828.7,2811.9,2790.2,2771.4,2750.5,2732,2717.6,2705.5,2695.8,2680.5,2664.1,2645.5,2633.1,2619.7,2604.1,2592.2,2582.4,2578,2572.7,2561.8,2555.4,2550,2540.6,2538.6,2526.1,2518.1,2504.3,2491.4,2474.6,2462.6,2446.3,2430.8,2412.9,2397.8,2382.4,2365.8,2353.3,2340.8,2330.1,2321.2,2312.5,2305.6,2299.5,2290.6,2282.2,2272.1,2261.8,2252.6,2241.3,2233.9,2224.1,2214.6,2202.6,2189.4,2177.8,2167.1,2152,2137.8,2129.6,2118,2110.6,2100.6,2093.5,2088,2082.2,2075.7,2072.3,2066.9,2062.7,2057.1,2050.1,2045.3,2037.2,2029.8,2022.4,2013.7,2005.7,1998,1991.5,1983.9,1976,1970,1961.4,1954.4,1947,1940.2,1934.8,1929.5,1922.8,1916.8,1912,1906.9,1899.8,1892,1884.4,1876.9,1870.7,1866.7,1861,1853.8,1848.8,1843.6,1839.5,1832.9,1826.4,1818.3,1810.8,1803.4,1798.5,1792.4,1786.6,1780.1,1774.4,1769.5,1764.4,1759.5,1752.7,1745.3,1738.8,1732.3,1723.3,1717.1,1709.8,1703.6,1697.9,1693.2,1688.1,1682.6,1678.5,1673.5,1666.9,1662.1,1655.7,1649.7,1643.6,1635.5,1628.3,1621.5,1614.3,1607.1,1599.7,1593.9,1588.4,1585.6,1580.3,1575.5,1571.8,1569.4,1566.6,1564.2,1559.8,1557,1553.5,1549.1,1545.7,1542.2,1537.7,1534.5,1530.9,1526.4,1523,1519.6,1515.3,1511.6,1508.1
0,3465.4,3327.2,4538.3,3505.1,3838.1,4110.6,3982.3,3869.2,3755.1,3682.9,3625.8,3593.7,3577.1,3566.6,3564.4,3564.5,3572.8,3574.8,3581.3,3581.5,3591.9,3592.2,3605.1,3613.8,3618.4,3622.9,3622.9,3617,3608.5,3610.5,3608.1,3599.1,3594.3,3589.8,3589.8,3585.4,3589.5,3589.6,3589.6,3596.2,3600.3,3602.5,3610.9,3626.3,3658.6,3678.8,3712.5,3741.7,3774.1,3798.8,3836.5,3856.2,3870.2,3870.8,3861.1,3839.3,3822.6,3804.1,3794.6,3780.2,3764.4,3741.8,3721.4,3700.8,3698.4,3691.4,3684.9,3693.5,3698,3706,3710.3,3718.9,3731.7,3740.7,3742.8,3746.9,3742.2,3739.8,3737.5,3730.7,3731,3728.8,3726.3,3728.8,3728.8,3722,3719.6,3717.5,3713.3,3713.4,3713.2,3710.7,3706.2,3704,3699.6,3695.2,3702,3699.7,3699.9,3700,3706.7,3704.8,3707.2,3713.9,3722.8,3725.1,3725.6,3721,3712.4,3705.1,3698.9,3696.8,3690.4,3679.7,3677.6,3684.1,3697.4,3708.7,3715,3737.3,3751.1,3769.1,3783.1,3790.2,3797,3804.3,3809,3810.9,3817.7,3815,3820.1,3822.2,3822,3824.4,3826.7,3831.4,3824.3,3828.7,3823.9,3826.5,3824.1,3823.8,3824,3816.7,3814.6,3809.8,3807.9,3803.2,3784.7,3775.9,3768.8,3766.5,3759.6,3759.8,3764.5,3764.4,3773.9,3790.3,3804.4,3811.6,3827.6,3837.1,3851.4,3853.9,3851.7,3851.9,3847.7,3841.1,3832,3816,3804.7,3790.7,3783.9,3771.4,3762,3752.2,3747.4,3745.6,3746.4,3738.2,3735.4,3720.5,3719.7,3713.4,3711.8,3709.2,3697.4,3683,3680.4,3677.9,3674.7,3664.6,3652.5,3650,3638.8,3633.8,3631.4,3630.6,3639,3641.2,3645.4,3649.3,3658.1,3669.6,3671.8,3682.9,3689.6,3691.8,3696.6,3694.4,3696.7,3696.6,3694.3,3692.5,3685.7,3690.5,3692.9,3695.2,3699.7,3697.8,3693.7,3694.8,3695.3,3693.6,3692.1,3688.8,3687.6,3688.4,3695,3703.5,3716,3723.8,3736.6,3746.7,3759.9,3761.6,3772.5,3777.1,3774.6,3779.6,3787,3782.2,3787,3782.6,3782.3,3782.4,3787.2,3778.6,3781,3774.2,3772.2,3763.4,3761.7,3759.4,3754.5,3756.1,3757.4,3752.3,3754,3753.5,3757.4,3752.3,3752.1,3753.9,3753.5,3742.1,3730.7,3728.6,3731,3722,3715.7,3711.3,3702.5,3689.3,3682.7,3671.9,3656.6,3636.7,3619.6,3596.4,3571.5,3542.3,3520.4,3492.3,3464.8,3432.2,3400.2,3370.4,3339.4,3301.9,3277.5,3246.3,3216.1,3186.1,3160,3135.7,3115,3094.5,3077.6,3065.1,3054,3043.3,3037.1,3029.5,3022.1,3010.2,3001.4,2995.4,2985.1,2970.9,2958.1,2944,2930.3,2915.1,2899.9,2883.9,2862.7,2843,2823.7,2804.5,2787.7,2767.9,2750.5,2732.3,2717.6,2705.5,2692.5,2680.7,2664.3,2649.3,2635.6,2622.1,2609.7,2595.3,2583.4,2579.1,2571.8,2561.8,2554.3,2553.2,2542.7,2537.7,2526,2517.9,2503.5,2489.4,2474.6,2458.8,2443.4,2427.9,2412,2396,2380.6,2366.6,2354.9,2342.5,2331.7,2323.7,2315.9,2309,2302.6,2293.2,2282,2274.6,2262.6,2254.2,2242.8,2233.8,2224.1,2212.9,2201.1,2187.8,2177.9,2162.4,2149.7,2137.7,2126.6,2118,2108.4,2101.9,2094.2,2086.3,2082.1,2076.5,2074.5,2068.9,2065.3,2059.1,2050.7,2046.7,2037.8,2030.4,2022.9,2011.8,2004.4,1998,1990.7,1985.8,1979.4,1970.5,1963.8,1956.2,1949.4,1942.7,1936.7,1930.7,1924.6,1918.6,1913.8,1907.5,1900.9,1892,1885.5,1878,1871.2,1865.7,1859.8,1854.4,1848.3,1843.1,1838.9,1833.6,1825.4,1817.2,1809.2,1801.3,1796.4,1790.9,1784.6,1778.6,1771.9,1766.4,1760.4,1755.9,1749.9,1742.7,1735.8,1728.3,1721.7,1714.7,1709,1703.2,1697.5,1692.7,1688.1,1682.7,1677.6,1672,1666.5,1660.7,1655.3,1649.2,1643.6,1635.6,1629.2,1622.7,1613.9,1607.2,1600.8,1595.5,1590.6,1587.2,1581.9,1577.4,1573.8,1570.2,1568.2,1564.6,1562.2,1558.2,1554.3,1551.1,1546.8,1542.5,1538.1,1534.2,1530.2,1525.3,1521.6,1517.3,1513.4,1508.8,1504.6
0,3441.7,4641.2,4504.3,4365.7,3811.4,4102.2,2815.7,3844.3,3741.2,3658.8,3608.6,3577.3,3562.5,3554.1,3554.2,3556.3,3562.2,3570.6,3573,3581.4,3591.9,3598.5,3611.2,3621.8,3626.5,3628.9,3626.5,3624.4,3624.3,3619.9,3613.4,3608.6,3604.2,3602.1,3599.8,3595.6,3593.6,3597.7,3602.2,3604.6,3611,3615.2,3623.9,3634.9,3657,3683.5,3701.6,3731.4,3759.3,3781,3812,3833.9,3843.7,3843.1,3834.2,3815.3,3793.8,3786.5,3772.2,3760.8,3747.5,3728.8,3708.3,3688,3683.3,3682.7,3688.9,3697.5,3701.7,3721.3,3732,3738.5,3754.1,3765.3,3767.6,3765,3765,3762.6,3762.7,3753.6,3751.3,3751.3,3751.4,3751.4,3744.5,3742.1,3742.2,3739.9,3733.5,3735.5,3737.9,3742.5,3731.1,3728.8,3722,3719.8,3717.8,3729.2,3726.9,3727.1,3727.4,3729.8,3725.3,3736.9,3743.3,3745.9,3743.8,3741.5,3741.3,3732.1,3730.1,3718.7,3714.3,3703.5,3710.7,3715.5,3727.1,3738.3,3754,3767.7,3786,3800,3818.6,3825.7,3835,3834.6,3839.4,3834.2,3843.5,3836.3,3838.2,3838.5,3834,3836.3,3840.6,3833.6,3831.2,3823.9,3828.4,3825.9,3830.5,3837.5,3835.3,3823.6,3820.9,3818.8,3814.5,3805.2,3798.4,3789.4,3775.7,3769,3764.1,3764.2,3764.5,3771.6,3778.6,3794.9,3816.4,3828.2,3849.5,3859.1,3866,3868.6,3871.1,3866.5,3862.3,3858.4,3846.7,3839.8,3828.7,3814.5,3809.3,3799.2,3796.3,3790.7,3792.4,3787.9,3783.7,3777.6,3769.9,3762.6,3755.3,3747.3,3746.2,3741.8,3725.7,3713.6,3712.8,3708,3697.8,3696.9,3684.3,3674.9,3667.4,3662.5,3659.9,3659.2,3669.7,3671.5,3678,3680.3,3682.8,3694,3703,3703,3703.2,3709.9,3712.5,3710.3,3710.3,3708.3,3710.2,3710,3707.9,3703.8,3706.3,3713.1,3713.9,3709.3,3710.1,3711.5,3709.6,3709.6,3712.7,3713.3,3714.1,3707.7,3713.9,3727.1,3732.8,3738.9,3754.1,3757.8,3773,3779.6,3788.8,3791.2,3789.1,3796.2,3801.4,3801.1,3796.6,3803.5,3803.6,3798.7,3801.1,3801.5,3799.9,3790.8,3788.6,3787.1,3778.1,3777.6,3772.7,3768,3773.5,3774.9,3772.4,3767.4,3773.6,3768.7,3775,3770,3767.6,3755.8,3748.9,3744.3,3742.3,3735.6,3729.2,3727,3711.4,3707.3,3693.9,3685.5,3669.7,3650.1,3630.5,3606.9,3579.5,3552.4,3526.1,3492.2,3460.6,3428,3394.1,3362.8,3330,3301.6,3270.2,3239.4,3214.3,3186,3156.7,3137.2,3111.8,3095.9,3078.8,3067.9,3060,3050.7,3041.5,3032.5,3023.6,3013.2,3002.8,2994,2983.8,2965,2953.7,2941.2,2928.9,2910.9,2894.7,2873.3,2853.7,2834.1,2815.1,2798.3,2783.2,2763.1,2747.2,2729.9,2717.6,2704.2,2691.3,2679.5,2664.3,2650.4,2639,2623.2,2610.9,2597.5,2585.7,2578.1,2570.4,2561,2554.5,2549.2,2540.8,2529.5,2520.7,2511.7,2498.6,2485.4,2471.6,2455.8,2441.3,2426.9,2413.7,2397.8,2381.3,2138.7,2123.9,2343,2335.2,2324.5,2317.4,2309.3,2302.5,2293.1,2284.7,2275.3,2265.2,2255.1,2246.1,2235.5,2224.1,2212.9,2201.8,2188.6,2174.8,2162.5,2149.8,2133.9,2125.2,2115.6,2109.1,2101.1,2094,2087.5,2082.7,2078.6,2074.6,2068.8,2066.1,2059,2052.7,2046.7,2037.9,2031,2023,2014.4,2005.8,1998.6,1992.1,1985.3,1979.3,1971.2,1964.4,1957.3,1950.6,1942.2,1936.2,1931.3,1925.2,1917.9,1912.7,1906.3,1899,1891.4,1883.8,1877,1870.7,1865.1,1858.2,1852.7,1847.1,1842.5,1837.3,1830.6,1824.8,1816.1,1807.7,1801.2,1795.3,1789.7,1782,1775.9,1769.2,1762.2,1757.7,1752,1745.6,1737.7,1731.7,1725.5,1718.3,1711.9,1705.6,1701.3,1696.6,1692.3,1687.1,1681.8,1677.5,1671.1,1666.5,1659.8,1654.5,1648.4,1641.7,1635.2,1628.3,1621.4,1615.1,1607.2,1601.6,1597.6,1592.6,1587.1,1583.1,1578.2,1575.4,1571.8,1569,1565.4,1563,1559.4,1554.7,1550.7,1546.8,1543,1538.4,1533.8,1529.1,1524,1520.1,1514.9,1511.3,1506.8,1502.7
0,3869.4,4174.7,4024.3,4319.6,3773,3647.5,1536,3815.2,3718,3636.8,3587.7,3564.6,3548.1,3543.9,3550,3550.1,3554.4,3564.7,3573,3579.1,3591.9,3600.6,3611,3619.5,3628.2,3632.4,3636.6,3634.1,3631.8,3631.8,3625.2,3618.7,3614.3,3612.2,3614.3,3614.5,3610.3,3610.4,3619.1,3621.2,3623.7,3625.7,3632.1,3641.2,3658.7,3679,3699.7,3713.9,3728.3,3752.6,3771.9,3784,3802.9,3802.7,3804.8,3789.8,3771.1,3764,3756.5,3742.9,3734.2,3711.1,3693.5,3677.3,3671.8,3682.5,3688.6,3694.8,3709.8,3725.4,3745,3751.7,3764.9,3778.8,3785.6,3778.3,3776,3782.9,3771.7,3769.5,3771.9,3774,3774.1,3771.8,3774.2,3774.2,3774.3,3772,3765.1,3760.5,3764.9,3760.2,3755.7,3751.7,3752,3749.7,3747.5,3747.7,3749.8,3752.3,3752.8,3752.7,3752.8,3757.4,3757.3,3762.1,3762,3759.6,3759.6,3756.9,3750.1,3750.5,3743.6,3739.5,3742.3,3749.5,3761.3,3773.3,3791.6,3808,3819.5,3838.2,3852.5,3861.7,3866.2,3861,3863,3862.6,3864.9,3857.4,3850.4,3852.9,3846.2,3848.3,3847.9,3843.2,3838.2,3830.9,3833.2,3828.2,3832.9,3832.8,3832.7,3825.7,3828,3816.3,3814.4,3809.8,3803.2,3791.7,3780.5,3771.2,3760,3762.4,3767.1,3776.6,3790.5,3805,3819.1,3835.5,3859.2,3871.4,3883.6,3881.4,3886.8,3889.9,3880.7,3878.5,3874.1,3864.6,3855.4,3847.5,3840,3836.8,3836.2,3834.6,3831.9,3831.5,3826.7,3818.1,3812.7,3804.8,3801.7,3789.3,3783.8,3782.6,3769.2,3756.2,3749.5,3736.1,3737.4,3728.7,3719.1,3706.7,3692.3,3691.9,3691.3,3690.5,3698.8,3705.3,3700.7,3705,3711.8,3718.7,3718.6,3732.6,3732.2,3730.5,3733,3732.9,3733,3728.6,3726,3730.3,3721.4,3715.3,3722,3724.8,3725.1,3723.2,3720.2,3718.9,3719.6,3728.4,3732.6,3730.6,3735.6,3733.8,3737.4,3745.9,3752.2,3757.9,3764.5,3775.6,3782.1,3784.3,3795.7,3801.1,3798.9,3806.1,3813.5,3810.8,3808,3807.9,3819.7,3815,3822.2,3815.1,3815.3,3806.8,3807.3,3802.8,3798.3,3791.1,3783.7,3785.6,3789.7,3791.5,3788.5,3787.7,3791.8,3784.6,3784.7,3791.2,3784,3774.5,3767.3,3760.6,3756.2,3747.1,3742.9,3734.2,3725.1,3711.6,3707.4,3694.2,3676.5,3656.7,3636.8,3617.6,3583.6,3552.6,3528,3495.8,3462.2,3429.6,3395.8,3360.8,3326.4,3296.3,3264.8,3237.8,3208.9,3187.8,3158.3,3133.8,3116.3,3098.8,3084.8,3073.8,3061.4,3058.3,3049,3038.5,3025,3016.1,3007.3,2997,2982.3,2966.5,2948.4,2935.7,2920.7,2904.1,2884,2864.2,2845.9,2822.8,2803.8,2788.4,2775.7,2760.8,2746.1,2728.7,2715.2,2703.2,2693.7,2678.4,2661.9,2649.2,2636.7,2624.4,2613.2,2599.9,2591.1,2580.3,2568.2,2560,2552.4,2545,2537.8,2528.3,2518.9,2509.5,2496.6,2482.2,2468.5,2452.9,2440.3,2425.8,2411.7,2397.6,2385.5,1901.8,1658.2,2344.4,2337.6,2328,2319,2312.7,2306.7,2297.1,2287.2,2276.1,2266.7,2256,2248.7,2237,2225.7,2217.1,2203.5,2190.1,2178.6,2165.5,2150.6,2138.6,2125.1,2118.5,2110.6,2102.6,2095.4,2087.5,2082.9,2077.9,2073.8,2070.2,2064.6,2058.4,2052.8,2045.9,2038.6,2030.3,2022.2,2014.4,2007,2000.1,1992.8,1987.8,1980.6,1974.3,1965.7,1957.3,1950.6,1943.4,1938.5,1931.8,1925.9,1918.5,1912.7,1905,1897.9,1889.6,1882.6,1875.3,1869.1,1862.7,1856.5,1850.1,1844.2,1839.5,1833.9,1829.1,1822.6,1815.1,1807.1,1799.1,1792.8,1786.6,1780,1773.9,1766.6,1758.2,1752.6,1747.9,1740.7,1735.1,1727.3,1722.2,1715.8,1709.4,1704.6,1699.5,1695.6,1690.5,1686.7,1682.2,1676,1670.6,1664.6,1658.6,1653.2,1646.7,1640.1,1633.8,1628.7,1622.3,1615.1,1608.8,1603.4,1598.4,1593.8,1589.2,1584.6,1580.2,1575.8,1573,1570.6,1567.4,1564.6,1560.6,1555.5,1550.7,1546.8,1542.6,1538.7,1533.8,1528.3,1522.9,1518.1,1512.7,1509.2,1504.6,1500
0,3797.6,4109.1,4381.3,4247.5,3727.3,4010,1524,3763.6,3682.2,3617.3,3568.6,3550.2,3540,3539.9,3540,3542,3550.6,3562.9,3567,3581.8,3589.9,3596.1,3606.9,3617.6,3628.1,3632,3636.2,3638.3,3635.9,3638,3637.9,3627.1,3629.3,3625.1,3629,3627.2,3627.3,3625.1,3627.4,3632,3636.4,3636.3,3632,3641.1,3656.7,3666.2,3680.1,3692,3701.8,3708.2,3723,3730.1,3742,3750.9,3754.7,3749.8,3732.8,3734.8,3729.8,3722.6,3715.8,3697.8,3677.7,3670.8,3667.8,3673.5,3681.7,3696.4,3714.1,3726.6,3749.2,3762.7,3774,3790.2,3797.2,3797.1,3792.3,3787.7,3787.7,3790.2,3794.9,3794.9,3792.7,3794.9,3792.7,3794.9,3794.9,3792.9,3786,3788.2,3788.2,3783.8,3781.5,3779.4,3775,3768,3770.9,3770.9,3777.9,3773.4,3775.8,3773.5,3771.4,3780.9,3776.1,3780.7,3782.9,3778.4,3780.2,3772.8,3770.7,3775.4,3768.3,3768.6,3778.7,3788.8,3799.2,3808.5,3820.4,3834.7,3861.2,3875,3889.5,3891.6,3903.2,3900.2,3899.6,3896.8,3893.7,3881.4,3874.5,3869.6,3860.3,3858,3860.3,3852.9,3848.1,3835.7,3838.2,3835.6,3837.8,3835.4,3837.6,3830.4,3825.8,3828.4,3814.4,3810.1,3798.7,3785.4,3776.5,3765.6,3761.1,3766.1,3770.5,3775.2,3789.2,3800.9,3826.9,3850.8,3867.4,3882.2,3894.7,3902.1,3904.7,3910.1,3906.3,3898.5,3901.2,3891.1,3881.7,3878.9,3870.5,3870,3866.8,3865.8,3874.8,3869.4,3862.5,3858.3,3854.3,3843.8,3848,3832.5,3822.1,3818.6,3808.4,3796.7,3784.2,3777.7,3758.7,3755.4,3745,3732.8,3722.7,3724.2,3723.7,3722.8,3728.7,3732.8,3732.5,3735,3735,3739.4,3750.7,3746.3,3753.1,3750.9,3755.5,3757.7,3755.7,3753.5,3748.5,3743.9,3744.3,3739.7,3740.5,3736.3,3743.7,3742.1,3742.7,3730.4,3737,3748.1,3750.2,3752.3,3761.5,3758.8,3765,3776.1,3782.3,3786.4,3791,3800.1,3797.7,3805.1,3814.3,3815.2,3817.6,3815.6,3825.3,3827.4,3827.2,3822,3819.4,3826.6,3824.2,3826.6,3822,3815.7,3815.9,3818.2,3813.6,3811.1,3810.3,3807.8,3805.2,3799.8,3803.8,3798.9,3800.9,3795.9,3795.9,3798.1,3798,3790.9,3779.2,3772.4,3765.4,3756.4,3752.5,3745.5,3732.2,3718.6,3705.4,3692,3679,3659,3634.9,3617.6,3585.8,3552.5,3528.1,3499.7,3464.1,3429.6,3397.5,3358.6,3328,3292.6,3264.7,3235.9,3208.7,3187.5,3162.8,3136.9,3117.7,3103.2,3090.7,3081.3,3073.5,3064.3,3050.6,3046,3034,3016.1,3008.8,2997,2982.4,2966.8,2948.4,2933,2918,2894.5,2878.7,2856.3,2833.3,2811.3,2793.8,2781,2768.3,2752.2,2738.8,2723.9,2710.4,2700.8,2688.9,2679.5,2666.5,2652.5,2639.8,2627.7,2615.2,2602.1,2590,2579.2,2569.5,2561.9,2550.4,2544.2,2535.5,2525.3,2007.9,1999.8,2492.4,2479.3,2464.5,2452.7,2436.3,2424.8,2409.7,2398.3,2385.4,2372.4,2358.8,2348.8,2340.2,2333,2322.2,2316.2,2309.1,2299,2288.7,2281,2270,2260.1,2253.5,2242.1,2229.8,2220.2,2205.9,2194.2,2183.3,2167.9,2155,2140.1,2129.6,2118.5,2110.6,2103.3,2094.1,2088.3,2082.9,2077.2,2072.3,2070.1,2064.6,2057.6,2052,2045.3,2038.5,2031.7,2023.1,2015.1,2007.2,2000.7,1994.1,1987.2,1979.9,1973.9,1965.7,1957.6,1950.6,1945.2,1936.5,1931.2,1925.8,1919.2,1910.8,1903.8,1896.6,1888.5,1880.9,1872.4,1864.8,1859.3,1853.2,1848.3,1842.5,1837.9,1832.3,1827.6,1822,1814.4,1806,1798,1791.9,1786.6,1779.4,1771.7,1763.6,1755.1,1748.7,1743,1735.7,1730.2,1723.5,1717.7,1711.3,1705.3,1702.9,1698.6,1694,1690.6,1686.1,1682.2,1676.6,1670.7,1665,1657.6,1653.2,1645.3,1638.3,1632.9,1627,1622.4,1614.6,1608.4,1603.9,1599.2,1594.7,1590.6,1586.2,1580.2,1577.4,1574.6,1571,1567.4,1563.8,1559.8,1555.1,1550.7,1546.8,1542.6,1538.3,1532.5,1527.6,1522.2,1516.8,1512.8,1508.2,1503.9,1498.7
0,2809.4,3982.1,4292,4171.5,4079.9,3945.1,3831.8,3733.6,3653.5,3595.9,3556.3,3542,3538,3534.1,3540.3,3540.3,3546.7,3554.7,3565.3,3577.9,3586.2,3594.8,3605,3617.7,3626,3632.3,3638.5,3642.5,3640.2,3642.3,3644.4,3635.7,3633.6,3633.6,3639.9,3637.9,3635.8,3635.8,3640.3,3640.5,3642.7,3642.7,3638.4,3640.9,3654.6,3657.6,3666.9,3670.2,3669,3670.4,3680.3,3693,3701.2,3700.8,3709,3700,3690.1,3691.4,3695.6,3686.7,3684.5,3675.4,3662.1,3652.8,3656.9,3666.9,3679.1,3700.7,3713.8,3733.2,3753.2,3766.9,3780.7,3794.7,3808.8,3804,3801.6,3803.9,3797,3804.1,3804.2,3809,3804.4,3806.7,3806.8,3804.4,3811.4,3816.2,3804.7,3802.4,3800,3800,3798.1,3793.5,3793.7,3791.7,3794.2,3801.1,3806,3806.2,3808.9,3806.4,3799.6,3804.4,3806.6,3806.6,3803.8,3798.9,3800.9,3801,3798.4,3802.9,3803.3,3803.2,3811.5,3821.2,3831.9,3849.3,3861.7,3871.9,3890.9,3910.3,3921.6,3924.4,3930.8,3930.3,3929.3,3921.3,3913.5,3905.7,3893.6,3888.9,3874.5,3867.5,3867.3,3860.4,3850.8,3848.3,3838.5,3843.3,3838.5,3840.5,3835.8,3826.4,3826.1,3826.4,3817.6,3808.3,3804.2,3785.9,3775.3,3768.5,3762.2,3762.4,3764.9,3769.5,3787.9,3806.1,3830,3851.5,3870.4,3892.1,3905,3914.6,3924.8,3922.4,3921.3,3921.3,3921.3,3913.5,3910.4,3902.7,3899.5,3904.5,3903.2,3907.6,3922.2,3914.4,3909.2,3904.6,3893,3891.7,3885.8,3867.4,3866.8,3853.7,3832.3,3821.7,3808.3,3802.1,3792.5,3780.3,3767.5,3758,3754.6,3749.4,3751.1,3752.2,3757.7,3761.7,3758.9,3760.8,3760.5,3764.7,3776,3771.5,3776.3,3775.9,3775.9,3774,3776.1,3776.5,3769.5,3769,3762.4,3762.7,3758.4,3759.4,3761.7,3757.9,3758.7,3752.6,3759.6,3763.4,3771.7,3778.7,3783.1,3777.6,3786.6,3795.3,3801.9,3808.6,3806.1,3813.3,3816.5,3821.5,3826.2,3824.3,3829.2,3819.9,3829.6,3831.7,3831.4,3831.1,3833.2,3835.5,3837.9,3831.1,3831.2,3826.5,3829.2,3828.8,3824,3821.4,3816.1,3818.5,3820.4,3815.4,3817.2,3817.3,3814.6,3809.7,3807.2,3809.8,3809.6,3802.6,3791,3781.6,3772.5,3761.4,3754.5,3748.1,3729.5,3716.4,3703.3,3694.4,3674.2,3659,3639.4,3613.6,3583.7,3550.7,3528.2,3502.1,3464.3,3433.3,3399.5,3360.6,3322.7,3296.4,3266.4,3238.8,3212.1,3192.2,3169.2,3146.4,3128.2,3115.4,3102.9,3088.9,3082.5,3070.3,3061.1,3052,3035.5,3023.6,3008.9,2997.1,2981.3,2961.2,2944.3,2929.1,2911,2888,2867.9,2844.4,2821.2,2801,2786.3,2768.6,2755.9,2744.8,2732.4,2720,2709.1,2699.4,2687.6,2678.1,2664,2651.4,2638.7,2627.7,2615.5,2604.2,2593.2,2584.7,2571.7,2560,2549.4,2542.1,2532.7,2523.3,1259,1000.5,2488.4,2477.2,2462.5,2448.7,2437.1,2423.8,2410.4,2397.4,2387,2373.4,2361.3,2350.6,2341.7,2333.7,2327.3,2318.6,2312.7,2302.3,2294.5,2284.4,2275.1,2265.8,2256.2,2246.1,2236.4,2222.7,2210.7,2198.2,2184.8,2173.3,2157.2,2143,2130.6,2120.8,2110.8,2102,2094.9,2087.1,2083.7,2078,2073,2068,2065.3,2058.3,2052.1,2043.8,2038.6,2031.2,2022.4,2015.7,2006.6,2000.6,1994.8,1988.6,1981.3,1974.5,1966.3,1957.7,1953.1,1946.4,1939,1932.3,1925.2,1917.5,1909.7,1901.4,1893.1,1885.7,1878.2,1869.5,1862.1,1856,1850.5,1844.3,1839.4,1834.9,1830.7,1825.4,1820.4,1812.8,1804.5,1797.5,1791.4,1785.1,1777.5,1770.2,1761.6,1751.6,1744.8,1738.4,1731.5,1724.8,1720,1713.3,1708.6,1702.9,1700,1696.6,1692.1,1690.5,1684.5,1680.2,1675.8,1669.7,1664.3,1657,1651.8,1645,1637.8,1632.2,1626.6,1621,1614.3,1609.3,1605.1,1600.1,1595.3,1591.6,1587.8,1582.6,1579,1575.4,1572.2,1568.2,1565,1561.4,1556.3,1551.9,1547.5,1543.7,1538.8,1533.3,1528.2,1522.1,1516.8,1511.7,1506.9,1502.5,1497.4
0,0,1292.5,4179.8,4077.1,3994.4,3880.2,3789.1,3698,3630,3577,3544,3538,3540,3538.3,3540.3,3548.7,3552.7,3559.2,3565.7,3573.9,3580.1,3594.9,3605.4,3617.9,3628.3,3639.2,3643.1,3644.8,3649,3644.5,3648.6,3642.3,3640,3637.9,3646.6,3642.1,3646.4,3644.3,3642.4,3646.8,3642.5,3638.2,3631.8,3629.9,3637,3637.8,3636.2,3632.6,3631.7,3629.2,3638.6,3641.3,3651.8,3656.1,3659.9,3652.9,3650.1,3655.6,3657,3652.5,3657,3648.5,3637.6,3635.2,3643.2,3652.8,3672.3,3689.2,3713.1,3732.9,3755.3,3766.9,3778.2,3801.6,3806.3,3815.9,3813.5,3815.8,3811.2,3808.9,3816,3818.5,3818.5,3820.7,3816.1,3820.9,3825.6,3825.6,3816.3,3816.4,3819,3816.7,3814.5,3814.6,3810.3,3808.1,3810.5,3817.8,3824.9,3827.3,3829.9,3825.3,3827.7,3822.9,3827.7,3825.2,3820.6,3817.6,3822.4,3826.7,3824.2,3829,3829.4,3834.1,3848.8,3856.6,3869.8,3886.1,3898.5,3911.1,3925.9,3940.7,3955.3,3959.7,3959.1,3963.3,3952.3,3951.6,3940.9,3926,3918.2,3911.4,3894.2,3882.2,3879.8,3870.5,3863.3,3860.6,3855.7,3853,3848.4,3850.6,3843.1,3836.1,3838.2,3829.4,3822.8,3811.5,3800.6,3784.5,3771.6,3758.8,3754.7,3752.3,3761.3,3770.6,3784.3,3802.8,3831,3857.1,3886.2,3898.1,3912.8,3927.8,3933,3932.7,3930.5,3933.2,3938.1,3933.1,3937.5,3927.1,3934.3,3925.9,3933.3,3940.4,3942.8,3940,3940.2,3935.5,3923.5,3916.1,3914.5,3898.5,3894.4,3876.3,3863.3,3850.2,3839.5,3826.4,3820.2,3815.4,3805.7,3794.6,3791,3788.2,3783.9,3789.5,3790.9,3787.1,3783.6,3780.8,3784.8,3789.2,3795.5,3790.4,3792.5,3792.9,3794.9,3799.7,3806.6,3801.6,3794.7,3789.8,3785.1,3783.3,3781.1,3779.3,3784.6,3780,3774,3769.9,3778.8,3780.8,3792.1,3794,3800.4,3802.7,3806.4,3812.8,3822.1,3824.7,3829.4,3825.2,3825.8,3833.3,3835.4,3838.4,3835.9,3834,3838.6,3843.2,3837.7,3840,3839.9,3839.8,3842.1,3844.5,3839.4,3839.9,3840.1,3832.9,3835,3827.4,3827.2,3826.7,3826.5,3831.1,3830.8,3828.3,3833,3835.3,3828.2,3830.7,3826,3819.2,3811.9,3795.6,3784.2,3768,3754.5,3748,3729.5,3716,3691.9,3685.5,3669.8,3654.7,3633,3615.7,3586.2,3554.9,3532.4,3500,3470.3,3441.2,3403.3,3362.4,3328,3299.7,3271.5,3243.9,3217.1,3195.3,3172.2,3157.4,3142.6,3127.9,3120.1,3104.3,3091.7,3080.9,3067.1,3055,3041.5,3026.6,3008.9,2997.2,2980.1,2959.8,2940.1,2923.5,2904.1,2879.9,2858.8,2833.9,2805.8,2786.9,2768.2,2755.9,2744.7,2736,2727.4,2715,2705.4,2695.8,2682.8,2674.5,2661.7,2650.1,2638.9,2626.4,2614.3,2601,2593.3,2581.5,2569.7,2560.1,2548.4,2538.2,2525.6,2517.3,2504.9,2493.6,2484.6,2474.2,2459.4,2443.7,2433.3,2422,2409.4,2397.3,2387,2374.2,2364,2353,2344.2,2332.6,2327.4,2320.4,2313.6,2303,2293.5,2285.9,2277.8,2267.5,2261.1,2249.3,2238.1,2225.9,2213.2,2201.9,2188.7,2174.1,2158.8,2143.7,2131.9,2120.3,2110.7,2103.5,2094.9,2087.7,2079.3,2074.4,2070.9,2066.7,2061.2,2055.5,2050.1,2042.4,2035.9,2028.5,2022.5,2013.8,2005.3,1999.4,1993.7,1987.2,1980.7,1974.6,1966.4,1958.3,1952,1945,1937.7,1931.8,1924,1915,1905.5,1899.2,1891.5,1882.8,1875.8,1866.1,1858.9,1853.7,1847.6,1842.7,1837,1832.3,1827.5,1822.5,1817.8,1811.3,1801.9,1795,1787.8,1780.5,1775.5,1766.1,1758.5,1749.6,1743.3,1735.9,1728,1722.1,1717,1711,1705.7,1700.3,1697,1693.3,1690.1,1687.8,1684,1679.3,1674.8,1668.4,1663.3,1656.6,1651.3,1644.6,1637.8,1632.2,1626.5,1621.1,1615.6,1609.8,1606.4,1601.4,1596.1,1593.3,1589.2,1585.4,1581.4,1577,1573.8,1570.6,1566.6,1562.2,1557.5,1552.3,1548.8,1543.8,1539.6,1533.9,1528.1,1521.7,1516.2,1512.1,1506.8,1502.3,1497
0,0,0,2867.2,3976.6,3915.9,3824.8,3750.1,3673.5,3615.1,3566.7,3546.1,3542.2,3540.2,3542.4,3548.6,3548.5,3548.6,3552.9,3565.4,3569.5,3575.9,3584.4,3594.7,3605.1,3615.9,3623.9,3632.2,3636.4,3644.7,3646.7,3642.5,3640.2,3644.6,3644.6,3655.3,3653.1,3650.8,3653,3652.9,3646.6,3648.7,3637.7,3629.2,3623.2,3623.9,3620.1,3607.8,3602.2,3599.2,3592,3599.7,3603.9,3604.1,3610,3614,3609,3612.7,3614.4,3624.2,3628.1,3628.1,3625.6,3616.8,3619,3633.6,3652.3,3669.1,3690.8,3710.8,3730.4,3752.9,3773.5,3787.4,3804,3811.2,3818.2,3815.9,3820.6,3818.3,3816,3823.2,3823.4,3825.8,3835.4,3837.7,3837.8,3840.1,3837.8,3835.5,3831,3831.1,3833.4,3828.9,3831.9,3829.6,3832.1,3832.4,3832.2,3841.9,3839.8,3846.8,3847.1,3842.1,3846.7,3844.6,3839.4,3844,3841.4,3843.4,3852.7,3855.2,3855.1,3860.1,3867.4,3877.7,3895.5,3911.4,3924.5,3938.1,3942.9,3955.8,3965.2,3977.8,3982.4,3979.3,3983.8,3972.5,3964.3,3953.8,3943.9,3933.6,3918.7,3902,3899.6,3892.8,3885.3,3880.1,3870.4,3867.9,3865.6,3863,3860.5,3855.4,3848.2,3843.4,3836.7,3830.4,3812.1,3803.7,3785.6,3770.1,3760.1,3756.1,3756.7,3763.4,3779.2,3791.2,3811.6,3837.1,3868.2,3889.4,3903.7,3921.4,3939.1,3946.1,3951,3953.1,3950.1,3954.8,3949.4,3949.2,3950.9,3943.2,3945.5,3942.9,3950.5,3958.6,3958.8,3953.6,3948.7,3935.6,3931.4,3931.6,3919.7,3910.5,3897.6,3886.1,3871,3862.4,3853.2,3844.2,3833,3827.4,3820.2,3812.9,3811.2,3813.1,3811.2,3811.5,3815,3804.7,3803.2,3804.6,3806.2,3807.7,3816.8,3809.4,3809.2,3816.5,3818.4,3823.5,3823,3818.3,3818,3813.9,3811.4,3809.4,3807.1,3805,3795.7,3798.6,3796.8,3801,3800.3,3804.5,3811.5,3816.1,3817.8,3815.3,3829.3,3840.8,3838.5,3844,3841.6,3844.6,3847.3,3854.6,3859.5,3852.8,3849.8,3856.9,3854.3,3851.9,3846.4,3846.3,3848.8,3851.2,3846,3846.1,3846.3,3844.1,3841.8,3836.9,3836.6,3838.6,3835.8,3840.7,3840.5,3840.2,3840,3847.2,3840.1,3847.5,3840.2,3842.8,3828.7,3818.8,3800.1,3788.6,3774.8,3759,3745.6,3731.9,3707.2,3695.9,3680.5,3663.1,3643.5,3624.4,3607.3,3582.1,3554.9,3530.7,3502.3,3470.5,3443.3,3404.9,3371.6,3338.8,3311.9,3280.2,3250.7,3232,3205.2,3190.2,3175.1,3158.7,3145.5,3129.4,3120.1,3104.3,3093.3,3082.4,3065.7,3050.6,3031.1,3016.3,3000.1,2984.5,2961.3,2938.8,2916.6,2894.6,2874.4,2848,2823.3,2796.6,2777.9,2758.2,2748.3,2739.6,2729.7,2718.7,2710.1,2701.8,2690.9,2681.5,2674.2,2660.3,2648.9,2638.9,2626.5,2614.2,2604.4,2591.2,2584.9,2573,2560.2,2547.6,2537.3,2525.7,2513.2,2502.2,2491.8,2480.7,2468.6,2455.6,2441.8,2430.4,2418.1,2404.6,2396.4,2383.2,2369.6,2359.4,2349.2,2341.4,2334.3,2325.6,2319.7,2311.7,2302.2,2292.7,2285.1,2277.8,2271.6,2262.6,2252.5,2241.3,2228.2,2217.8,2205.8,2193.2,2178.7,2163.2,2148.2,2137.1,2123.2,2113.9,2104.3,2095.7,2086.5,2080.8,2074.6,2068.8,2064.5,2059,2054.2,2047.3,2041.1,2034.5,2027.3,2019.2,2012,2004,1998.2,1991.7,1984.1,1980.1,1973.3,1965.1,1958.2,1952.8,1945.7,1938.9,1931.3,1922.8,1915,1906.3,1895.7,1886.7,1879.2,1873,1866,1858.3,1851.6,1846.5,1842.1,1836.5,1832.3,1826.9,1822.1,1816.1,1808.6,1801.9,1793.4,1786.6,1779.5,1772.4,1763.5,1755.8,1747.3,1740.4,1734.8,1727.1,1719.9,1715.1,1708.5,1702.8,1698.5,1694.3,1690.5,1688.2,1685.3,1681.5,1677.5,1674.4,1668,1662.9,1657.7,1651.2,1644.1,1637.8,1631.8,1627.8,1622,1616,1611.9,1606.5,1602.1,1598.2,1594.9,1590.4,1586.2,1583,1579,1575.8,1570.6,1567,1563,1558.2,1552.8,1549.3,1545.1,1540.5,1533.9,1527.9,1522.6,1517.3,1511.7,1506.4,1502.1,1496.7
0,871.3,1221.3,829.8,3928.4,3881,3805.8,3740.8,3671.3,3625.9,3585.5,3560.4,3554.5,3548.3,3546.3,3546.4,3550.6,3552.6,3557,3561.1,3561.2,3569.7,3577.8,3586.1,3596.7,3605.1,3617.7,3626,3634.4,3642.6,3646.8,3649.1,3649.1,3653.3,3651.1,3659.7,3659.7,3661.8,3661.7,3659.5,3657.3,3650.6,3643.9,3631.2,3618.8,3619.2,3608.8,3599,3587.4,3577.9,3568.6,3565.6,3572,3574.7,3576.5,3581.8,3577.2,3574.1,3584.1,3597.9,3601.7,3605.6,3603.6,3607.6,3616,3628.3,3649.4,3668.8,3692.7,3717,3737,3757.4,3782.9,3789.7,3808.6,3818.3,3820.8,3818.4,3821.1,3821.1,3821.2,3828.5,3840.5,3840.5,3842.6,3840.3,3842.7,3847.8,3845.3,3838.1,3835.8,3836,3835.9,3835.8,3846,3846.1,3846.4,3851.4,3853.8,3863.5,3863.6,3868.4,3866.2,3868.2,3865.8,3866.2,3861,3863,3863,3867.4,3869.5,3881.5,3879.2,3884.1,3886.7,3906.9,3917.5,3938.3,3949,3954.9,3965,3975.4,3980.9,3988.3,4000.5,3994.7,3996.5,3982.5,3977.1,3964.3,3951.7,3941.7,3929.5,3917.3,3907.6,3902.8,3898.6,3893.1,3892.7,3887.8,3875.6,3872.6,3872.7,3865.3,3855.7,3851,3839.8,3828.6,3815.4,3807.2,3794.1,3779.2,3768.4,3767.2,3758.6,3774.4,3783.8,3794.7,3820.4,3845.5,3869.5,3890.5,3914.8,3931.9,3949.1,3953.5,3965.7,3964.9,3967.2,3963.7,3965.8,3963.2,3962.9,3962.7,3954.9,3955.3,3960.7,3964,3959.1,3961.6,3953.8,3943.9,3944,3933.6,3921.3,3915,3908.3,3890.3,3881.8,3874.4,3864.3,3848.6,3848.8,3851,3842.9,3838.9,3838.5,3829.8,3832.5,3832.5,3832.7,3821.8,3825.7,3821.7,3820.6,3827.1,3831.3,3830.6,3828.3,3833.1,3837.5,3844.4,3844.2,3839.7,3839.7,3844.4,3842,3839.9,3839.5,3832.3,3832.6,3826,3821.2,3823.3,3830.5,3832.2,3831.8,3834.2,3836.5,3841,3857.6,3857.4,3858.1,3860.6,3863.3,3868.7,3866.1,3868.8,3868.7,3866.2,3866,3863.7,3863.8,3858.5,3858.1,3855.6,3853.1,3852.9,3853.1,3850.7,3850.7,3850.8,3850.7,3850.8,3845.8,3840.9,3845.6,3852.8,3852.7,3850,3852.3,3857.1,3854.7,3854.7,3857.2,3852.5,3838.1,3826,3814.1,3795.5,3779.3,3761.1,3745.1,3724.8,3704.6,3682.3,3671.6,3649.8,3635,3615.5,3603,3578,3551,3522.5,3502.4,3472.6,3441.3,3407,3378.8,3344.3,3322.6,3290.5,3264.6,3244,3223.5,3205.2,3193.5,3178.2,3166.7,3148.8,3135.9,3120,3107.2,3091.7,3076.2,3061.3,3038.6,3020.7,3004.7,2985.8,2964.3,2940.2,2916.6,2894.5,2871.7,2845.2,2820.5,2792.5,2773.8,2754.1,2743,2730.9,2722.2,2716.1,2702.9,2694.6,2683.9,2673.2,2664.9,2659,2644.5,2637.6,2623.2,2615.2,2603.3,2593.5,2581.8,2568.7,2558.2,2546.8,2534.3,2522.8,2511.5,2501.4,2489.1,2478.8,2463.7,2451.7,2441.8,2432.3,2417.9,2402.8,2390.9,2378.8,2368.6,2359.4,2350.2,2340.4,2331.7,2322.2,2316.2,2308.1,2299.5,2291.8,2284.3,2277.6,2272.5,2265.1,2254.1,2243,2229.8,2218.6,2206.7,2197.2,2182.3,2166.3,2150.5,2138.6,2123.2,2114.8,2105.2,2094.4,2086,2080.1,2075.3,2068.2,2062.5,2057.7,2051.4,2044.6,2037.8,1831.3,2024,2016.4,2010.1,2002.1,1995.7,1989.2,1982.3,1977,1970.8,1963.3,1955.1,1950.2,1944.7,1936.7,1928.8,1921.7,1910.4,1900.4,1892.2,1883.3,1875.2,1869.1,1861.7,1854.8,1850.4,1845.5,1841,1836.6,1832.2,1826.8,1822.1,1815.7,1808.1,1799.7,1793.4,1785.5,1778,1771.4,1763.6,1754.2,1745.9,1738.8,1731.9,1724.7,1718.4,1712.6,1706.1,1700.8,1694.8,1691.9,1688.1,1685.4,1682.1,1679.8,1676.1,1671.6,1666.6,1662.1,1658.2,1651.7,1644.9,1638.8,1633.6,1627.4,1622,1617.3,1612.3,1607.3,1602.1,1598.2,1594.6,1590.9,1586.2,1582.6,1579.4,1574.6,1571,1567.4,1563,1557.4,1554.4,1550.1,1545.8,1540.5,1533.5,1527.8,1522.5,1517.2,1512.5,1507.4,1501.7,1497.1
0,0,399.9,1613,3890.9,3841.7,3787.4,3738.5,3675.7,3636.5,3600.1,3574.9,3566.6,3560.6,3548.1,3548.3,3550.4,3552.4,3554.5,3558.8,3558.8,3560.9,3571.3,3575.6,3585.7,3600.4,3609.1,3617.4,3627.5,3636.2,3644.4,3653.2,3657.6,3659.6,3661.8,3663.8,3663.8,3663.8,3665.9,3661.6,3657.1,3652.7,3644,3629,3618.4,3614.7,3598.3,3585.9,3570.2,3562.8,3547,3540.2,3542.5,3549,3547,3552.4,3547.9,3548.9,3560.8,3568.2,3582.7,3586.2,3590.2,3593.7,3602.3,3629.4,3646.5,3668.2,3690.2,3712.3,3732.4,3759.7,3780.5,3792.3,3801.6,3816.1,3820.9,3818.8,3821.6,3819.4,3821.8,3828.8,3836.3,3840.9,3843.2,3848,3848,3847.9,3843.4,3841.1,3838.4,3838.5,3843.1,3843.2,3848.3,3848.6,3850.9,3858.2,3865.3,3877.5,3882.4,3880.2,3884.9,3887.3,3887.1,3882.4,3882.1,3889.3,3882.1,3891.6,3894.1,3899,3906.5,3901.8,3908.9,3916.8,3937.2,3947.5,3956.5,3969.5,3974.9,3979.8,3987.4,3989.8,4000.2,3994.7,3996.3,3988.2,3982.9,3972.3,3962.7,3947.4,3940.2,3927.7,3920.9,3918.7,3911.7,3904,3900.9,3905.6,3898,3895,3889.9,3887.2,3872.7,3860.9,3852.2,3838.9,3825.5,3822.1,3807.1,3794.1,3783.3,3777.1,3784.7,3793.9,3798.1,3810,3842.6,3860.9,3887.1,3920.6,3932.6,3944.7,3962,3968.9,3980.9,3980.4,3974.4,3981.5,3978.2,3972.5,3980.2,3970.2,3962.3,3960.2,3963.5,3964.1,3967.2,3962,3954.4,3944.2,3936.3,3938.9,3929.2,3919.5,3908.1,3899.5,3888.9,3885.9,3883.2,3873.3,3865.3,3864.4,3861.9,3856.8,3857.6,3854.5,3857.5,3857.3,3860.4,3854.1,3854,3850.7,3849.5,3858.2,3855.1,3849.9,3847.3,3849.8,3849.2,3861.6,3866.2,3859,3856.6,3856.6,3860.9,3856.2,3853.5,3853.5,3848.7,3839,3841.9,3844.3,3848.7,3855.8,3860.6,3862.9,3862.8,3869.7,3877,3879.7,3884.5,3884.7,3892.2,3885.2,3887.7,3887.4,3887.4,3884.9,3882.7,3882.6,3872.6,3870.1,3867.4,3865,3864.9,3860.1,3867.1,3862.5,3855.2,3857.4,3850.5,3850.5,3850.8,3850.7,3855.7,3850.7,3858,3855.4,3864.8,3862.5,3869.8,3867.4,3867.5,3862.6,3852.7,3833.4,3821.3,3797.7,3783.6,3765.2,3742.4,3722.1,3702,3680,3664.5,3643,3628.1,3611.3,3598.6,3569.8,3547.1,3524.2,3496.5,3468.6,3449.1,3410.6,3384.5,3353.1,3324.3,3297.5,3280.1,3254.2,3240.6,3223.6,3208.3,3198.4,3183.1,3163.4,3148.8,3135.9,3118.4,3102.6,3088.7,3070.4,3044.7,3026.8,3010.8,2990,2965.7,2941.5,2919.2,2898.4,2871.6,2847.9,2820.4,2796.1,2772.3,2753.6,2739,2729.2,2721,2711.1,2702.7,2690.8,2681.3,2673.1,2662.6,2654.5,2643.4,2633.1,2621.9,2611.8,2601,2590.3,2580.6,2568.8,2555.3,2544.7,2531.4,2519.9,2508.7,2497.5,2485.1,2473.7,2460.1,2447.9,2437.3,2427.6,2412.3,2400.2,2387.2,2374.1,2364.9,2354.7,2345.7,2337.8,2328.3,2320.4,2310.8,2303.8,2297.8,2290.2,2282.7,2275.9,2270.8,2262.4,2254.3,2244.3,2230.5,2220.2,2209,2198.9,2184.7,2168.7,2153.7,2140.3,2125.5,2114.7,2105.5,2095.9,2086.5,2080.1,2072.6,2066.8,2061.8,2055,2050.2,2043.9,2035.2,2026.6,2021.3,2013.9,2008.2,2000.8,1993.3,1985.9,1981,1974,1967.8,1960.6,1953.9,1947.7,1941.9,1933.8,1925.9,1918.3,1908.4,1896.4,1888.1,1878.3,1871.3,1865.1,1859.4,1853.8,1849.4,1845,1839.4,1835.1,1830.7,1824.7,1821,1815.1,1808.7,1799.7,1792.3,1785,1777.5,1770.8,1763,1753.1,1746.1,1738.9,1732.4,1724.3,1717.3,1711.6,1704.5,1699.4,1693.7,1690,1686.8,1683,1679.8,1676.6,1673.9,1669.8,1665.7,1661.2,1656.8,1650.5,1644.8,1638.8,1633.2,1627.5,1622.8,1617,1613.5,1608.3,1603.3,1598.3,1594.6,1591.3,1586.7,1583.4,1579,1575.8,1571.8,1567,1562.6,1559,1553.7,1550.2,1546.3,1540.6,1534.4,1528.2,1522.9,1517.2,1512.5,1507.8,1502.8,1497.1
0,0,0,3498.6,3497.9,3818.8,3780.9,3731.9,3682.7,3640.7,3606.6,3589.7,3579.1,3564.4,3556.2,3556.3,3554.3,3550.1,3554.2,3554.3,3554.3,3552.2,3556.6,3566.7,3575.1,3583.4,3598,3606.5,3618.9,3633.9,3638.1,3648.7,3659.5,3661.7,3664,3670.4,3665.9,3663.7,3665.9,3659.2,3657,3648.4,3639.9,3629.2,3609.9,3608.2,3587.4,3571.2,3555.2,3543.8,3526.4,3522.7,3519.5,3525.9,3524.2,3527.9,3527.3,3528.4,3543.9,3559.6,3569.6,3575.6,3583.4,3593.4,3603.9,3622.8,3639.8,3659.2,3687.8,3703.2,3723.5,3752.8,3771.2,3773.6,3792.5,3795,3807.2,3809.7,3812.5,3819.8,3817.4,3829.6,3836.8,3841.7,3844,3845.9,3848.2,3850.4,3841,3845.8,3836.1,3843.3,3840.6,3848.2,3857.8,3860.4,3863,3867.8,3884.8,3889.6,3894.4,3901.7,3904,3906.8,3909,3903.9,3906.3,3898.8,3896.3,3904,3908.9,3913.7,3914,3914.2,3916.8,3929.4,3932.2,3952.8,3960.6,3966.2,3966.5,3971.4,3979.1,3989.1,3999.2,3996.5,3998.8,3988,3980.4,3973,3975.9,3968.5,3958.5,3938.9,3934.3,3934.9,3927.3,3924.7,3924.1,3921,3905.6,3907.3,3899.4,3894.6,3887.3,3875.7,3861.7,3853.1,3847.1,3837.1,3824,3811,3799.8,3805.4,3805.6,3806.9,3819.9,3838.4,3859.5,3882.4,3911.6,3936.3,3952.8,3965.4,3979.2,3989.6,3996.8,3996.3,3989.8,3991.6,3986.1,3990.7,3985.5,3977.9,3970.1,3965.5,3963.7,3966.3,3962.1,3959.8,3951.9,3944.4,3941.7,3936.5,3931.8,3924.5,3915.5,3904,3898.6,3897.9,3895,3890.2,3888,3880.2,3884.5,3883.5,3880.6,3884.3,3886.7,3886.9,3896.6,3894.7,3885.8,3881.8,3877.8,3877.3,3879.4,3873.8,3864.1,3869.1,3873.8,3878.1,3883.1,3875.8,3873.3,3873.3,3870.7,3877.9,3872.8,3874.9,3867.4,3867.4,3860.6,3862.8,3867.6,3867.9,3867.8,3879.7,3889.5,3889.3,3897,3899.3,3901.7,3904.3,3909.2,3902.2,3899.7,3904.4,3901.9,3899.2,3894.3,3891.8,3887,3889.4,3876.7,3876.8,3872,3866.9,3869.1,3866.8,3864.4,3864.7,3855.3,3855.7,3853.5,3856.3,3859.1,3863.7,3866.2,3866.4,3871.2,3875.9,3878.1,3875.5,3873.1,3867.8,3857.8,3845.5,3823.7,3804.7,3781.3,3760.4,3739.8,3719.4,3692.8,3666.6,3657.9,3640.5,3623.4,3602.4,3586,3563.2,3538.7,3518.2,3496.4,3468.4,3445.3,3414.5,3388.1,3364,3334.9,3311.7,3294.1,3273.2,3257.5,3240.7,3228.7,3211.4,3196.4,3183.2,3165.1,3148.7,3131.2,3115.2,3096.6,3076.5,3053.7,3034.2,3021,2998.7,2977,2949.9,2921.8,2903.9,2875.4,2850.2,2820.2,2795.9,2775.6,2757.1,2741.3,2729,2719.3,2711,2702.7,2693,2678.9,2670.6,2661.5,2652.2,2643.2,2632,2619.6,2608.6,2599.9,2587,2577.4,2565.8,2551,2540.5,2527.1,2515.8,2504.7,2491.3,2480.5,2469.1,2459.2,2443.4,2434.5,2422.9,2409.7,2396.4,2383.4,2370.4,2359.4,2351.3,2341.4,2331.8,2323,2314.3,2306.4,2302.2,2295.3,2287.7,2280.9,2274.1,2268.2,2260.8,2252.5,2242.1,2230.5,2218.6,2210.7,2199.6,2184.9,1951.2,2153.7,2141.1,2127.8,2115.5,2106.4,2095.3,2086.6,2078.4,2069.2,2064.8,2058.5,2052.9,2048.8,2040.4,2033.1,2025.2,2019.9,2011.3,2004.7,1998.3,1991.2,1984.7,1977.9,1969.4,1963.7,1958.2,1949.6,1943.6,1937.5,1930.1,1921.7,1915,1905.7,1894.1,1885.9,1874.9,1869.2,1862.4,1856.7,1851.1,1846.5,1842.6,1839.4,1833.4,1829.6,1824.7,1819.9,1813.9,1806,1799.2,1789.7,1782.5,1777,1768.3,1761.5,1753.2,1745.6,1738.9,1732,1724.3,1717.8,1710.6,1705.5,1699.5,1694.2,1689.9,1684.9,1679.9,1677.1,1674.3,1670.3,1667.4,1664.3,1660.2,1655.9,1650.6,1645.1,1639.7,1634,1627.4,1622.3,1617.4,1614.1,1609.7,1602.5,1597.9,1595.9,1591.3,1586.7,1583.8,1578.6,1574.6,1570.6,1567.9,1562.6,1557.7,1553.7,1550.1,1546.3,1540.6,1533.6,1528.2,1522.5,1517.2,1512.6,1508.2,1503.4,1497.5
