4038.1,4035.3,4035.6,4043.8,4048.9,4059.6,4073.8,4084.3,4092.6,4103.3,4116.6,4122.1,4127.4,4132.3,4134.9,4140.2,4134.7,4134.8,4140.5,4140.6,4143.9,4143.9,4146.9,4155.4,4161.3,4172.3,4198,4212.6,4233.3,4259.2,4283.2,4304,4321.3,4333.5,4346.8,4368.7,4379.1,4395.7,4399.2,4412.6,4422.9,4439.7,4455.9,4461.7,4460.3,4482.7,4488.7,4487.6,4497.3,4503.2,4499.2,4501.8,4501.6,4504.5,4498.3,4501.7,4505.4,4512.2,4509.3,4510.6,4511.2,4505.5,4506.4,4502.9,4497.9,4507.9,4512,4520.7,4540.8,4550.1,4573.3,4578.9,4591,4587.2,4596.1,4595.4,4588,4564.2,4550.2,4530.1,4513.4,4483.8,4461.3,4429,4403.7,4381.9,4354.1,4326.2,4302.8,4275.9,4249.1,4220.2,4185.5,4160.1,4121,4093.7,4064,4030,4003.9,3983.4,3953,3926,3911.6,3887,3877.4,3855.4,3838.1,3813.6,3784.6,3765.5,3742.3,3732.9,3719,3707.8,3699,3705.9,3733.3,3767.5,3852.6,4012.8,4198.8,4387.3,4587.3,4813.7,5043.4,5306.3,5572.3,5711.5,5752,5778,5782.3,5792.6,5764.9,5770.7,5765.4,5749.9,5743.6,5727.7,5716.8,5706.3,5706.8,5711.2,5690.3,5669.1,5652.9,5637.7,5622.7,5612.3,5607.7,5573.4,5548.9,5525.3,5517.1,5496.8,3537.9,926.9,0,0,1134.4,2423.3,2651.7,2651.6,2649.4,2644.8,2642.6,2641.7,2635.9,2622.2,2611.1,2601.1,2589.2,2575.9,2560.9,2547.2,2532.5,2519,2507.8,2494.5,2482.7,2468.6,2458.8,2444.2,2431.7,2420.1,2406,2394,2382.9,2373.4,2364.5,2354.5,2343,2331.1,2321.2,2312.5,2303,2294.5,2283.3,2278.2,2269,2262.2,2255.8,2247.3,2235.9,2227.1,2216.6,2204.9,2192.4,2180.9,2167.3,2155.1,2139.3,2128,2117.1,2106.3,2096.4,2087.9,2079.3,2070.2,2062.8,2056,2048.6,2043.8,2037.1,2031.5,2025.6,2018.7,2012.9,2006.4,1999.5,1992.7,1986.9,1977.9,1971.7,1963.4,1954.5,1948.8,1940.8,1933.9,1927.3,1918.7,1911.5,1905,1897.9,1892.6,1887.5,1880.4,1877,1871.2,1863.9,1857.7,1851.7,1846.5,1841.5,1836.2,1830.1,1823.2,1816.1,1811.3,1806.5,1801.9,1795.5,1789.3,1779.6,1771.1,1762.1,1753.1,1743.1,1732.4,1723.1,1713,1705.5,1697.7,1692.3,1688.2,1684.1,1682.1,1678.6,1675.3,1672.1,1668.5,1664.9,1661.7,1658.8,1655.4,1650.3,1647.3,1641.9,1638.1,1634.8,1628.2,1623.8,1617.8,1610.8,1605.3,1598.4,1591.6,1585.2,1579.9,1575,1570.2,1566.2,1561.4,1557,1553,1546.9,1541.2,1535.5,1530.5,1524,1519.5,1513.8,1509.9,1504.9,1500,1494.9,1490.7,1485.9,1481.9,1476.6,1472.1,1467.6,1464.5,1461.7,1457.9,1453.8,1450.3,1446.7,1442.6,1440.3,1436.5,1434.3,1430.7,1428.1,1425.2,1420.6,1416.7,1411.2,1406.4,1400.8,1396.8,1393.9,1389.5,1385.5,1383.4,1380.9,1378.8,1376.6,1374.9,1372.2,1369.8,1366.9,1363.5,1360.3,1357.2,1353.9,1350,1345.9,1342.9,1339.3,1335.7,1332.7,1328.5,1324.4,1320.1,1315.9,1312.1,1307.1,1303.5,1300.3,1297.8,1294.9,1292.4,1290.5,1287.7,1283.9,1280.6,1276.8,1272.7,1268.3,1264.3,1260.5,1256.5,1253.3,1250.1,1246.9,1243.2,1239.6,1235.7,1232.7,1230.3,1227,1224.5,1222.8,1221.2,1219.1,1217.1,1214.6,1212.1,1209.1,1206.6,1204,1200.5,1197.2,1194,1190.2,1187.1,1184.3,1181,1178.4,1175.7,1172.5,1170.9,1168.6,1166.2,1163.1,1159.7,1156.8,1152.8,1150.4,1147.8,1145.5,1143.3,1141.1,1138.3,1135.8,1133.2,1131.4,1129,1127,1125,1123,1120.4,1118.4,1116.2,1114,1112,1110.6,1108.6,1106.4,1104.4,1102.6,1100.8,1099.2,1097.6,1096.2,1094.2,1092,1090,1088.2,1086.6,1085.8,1085.4,1084.8,1083.4,1081.7,1079.7,1076.9,1073.9,1070.7,1066.7,1062.4,1057.7,1053.6,1049.9,1046.8,1044.8,1042.7,1040,1036.8,1035,1032.6,1030.5,1028.2,1026.2
4017.4,4020.1,4020.2,4028.4,4036.7,4044.7,4058.6,4071.4,4085.2,4095.8,4104,4109.1,4119.8,4132.7,4134.8,4134.7,4139.9,4140,4143.1,4148.6,4143.6,4143.9,4147.2,4153.1,4167.2,4175.6,4193,4213.1,4233.8,4254.7,4278.5,4298.9,4316.5,4329.1,4341.9,4364.8,4376.3,4396.3,4413.2,4417.4,4430,4437.5,4459.5,4465.4,4470.3,4479.8,4492.2,4484.6,4496.8,4492.6,4492.6,4498.7,4501.4,4501.1,4511,4507.8,4514.3,4517.3,4511.4,4522,4522.4,4512.3,4519.8,4520.8,4521.2,4521.8,4518.2,4538.3,4544.8,4558.1,4574,4573.8,4589.6,4588.7,4594.9,4588,4584.4,4567.1,4553.4,4529.7,4509.9,4476.9,4454.1,4432.2,4403.4,4378.4,4356.8,4326.2,4302.4,4281.3,4248.8,4228.3,4187.8,4159.7,4132.1,4104.2,4066.6,4035.1,4011.7,3988.7,3963.4,3938.4,3918.8,3899.5,3882.5,3870.2,3850.1,3825.6,3794.3,3777.4,3749.2,3728.3,3719,3705.6,3694.5,3703.7,3731,3767.9,3852.7,4012.8,4190.3,4387.7,4583.6,4806.2,5040,5269.8,5542.5,5663.6,5719.6,5750.4,5749.1,5744,5749,5749,5738.6,5733.1,5717.2,5722.2,5695.8,5695.8,5701.6,5695.8,5695.8,5674.3,5663.6,5652.9,5642.5,5637.8,5618.3,5603.3,5583.4,5569.9,5560.3,5546.7,2634.8,945.4,0,0,1115.4,2156.8,2644.7,2647,2645.9,2640.1,2636.9,2636.9,2632.5,2622.1,2608.7,2597.7,2583.6,2571.5,2558.8,2546.1,2528.2,2515.9,2503.7,2491.5,2478.6,2468.7,2452,2440.3,2428.9,2417.5,2404,2391.4,2380.2,2369.1,2359.1,2347.4,2338.4,2328.5,2318.6,2310,2301.4,2293.5,2283.3,2276.6,2267.4,2261.5,2253.2,2246.5,2236.7,2227.9,2215.8,2205.7,2194,2183.1,2170.1,2157.3,2142.3,2128.8,2116.4,2105.7,2097.1,2087.6,2079.9,2071,2063.4,2056.7,2050.5,2045.1,2037.7,2032.1,2024.9,2018.3,2011.7,2005.8,1999,1991.7,1985.8,1977.5,1970.3,1962.7,1955.1,1948.8,1941.9,1934.5,1926,1919.3,1910.8,1903.8,1895,1889,1884.5,1879.9,1873.5,1868.9,1863.5,1857.2,1851,1846.1,1841.6,1836.6,1830.2,1822.9,1815.7,1808.6,1804.3,1798.6,1793.4,1787.7,1778.5,1768.6,1760.8,1750.1,1739.7,1729,1720.7,1710.7,1701.7,1695.4,1689.9,1685,1682.1,1679.1,1676.3,1673.5,1670.6,1332.4,1329.6,1659.9,1657.6,1653.6,1649.9,1645.8,1641.6,1636.8,1632.4,1627,1622,1614.7,1609.4,1603.1,1596.7,1590.4,1584.8,1578.7,1573,1569.4,1565.8,1560.6,1557.4,1553.4,1547.9,1541.6,1536.2,1531.2,1524,1519.1,1513.8,1509.8,1504.5,1499.9,1495,1490.1,1484.9,1480.5,1476.2,1470.9,1466.9,1463.2,1459.9,1456.8,1453.5,1449.1,1446.4,1442.9,1439.6,1435.1,1433.2,1429.9,1427.2,1424,1420.9,1415.5,1410.6,1406.7,1402.4,1396.7,1392.9,1389.8,1385.9,1382.4,1379.7,1377,1374.1,1372.3,1369.9,1366.5,1363.9,1361.3,1358.3,1356.3,1352.7,1348.4,1344.8,1341.1,1337.8,1334.2,1330.6,1327.1,1323.2,1318.6,1315,1311.1,1307.4,1303.7,1301.1,1298,1296.1,1293.6,1291.2,1288.9,1285.2,1281.3,1277.4,1273.1,1268.5,1264.3,1260.1,1255.9,1252.5,1249.6,1246,1242.5,1238.9,1235.5,1231.5,1228.9,1226.5,1223.5,1221.9,1220.2,1218.6,1216.8,1214.7,1212.1,1209.2,1207,1204.2,1200.9,1197.2,1193.6,1190.8,1186.8,1184.5,1181.4,1178.5,1176,1172.5,1170.2,1168.5,1165.5,1162.7,1159.1,1156,1152.9,1149.7,1147.2,1145.7,1143.3,1141.2,1138.9,1136.1,1134,1132.2,1129.8,1126.6,1125,1122.4,1120.6,1118.4,1116,1114,1111.8,1110.4,1108.6,1106.8,1105.2,1103,1101,1099,1097.6,1095.8,1094,1092,1089.8,1088.4,1086.8,1085.8,1085.2,1083.8,1083.2,1081.3,1079.3,1076.5,1073.1,1069.5,1065.5,1061.6,1056.6,1052.9,1048.8,1045.7,1043.7,1041.8,1039.5,1036.9,1033.9,1031.3,1029.3,1027,1024.8
4004.5,4002.1,4002.5,4018.9,4032.3,4043.2,4053.7,4070.1,4083.2,4089,4097.3,4104.9,4109.3,4121.9,4127.2,4135.3,4140.5,4146,4145.6,4160.2,4163.2,4155.3,4156.1,4161.8,4173.1,4182.1,4196.7,4208.7,4226.9,4252.5,4267.2,4290.6,4311.5,4323.7,4336.5,4355.8,4371.2,4388,4407.7,4414.9,4421.4,4434.8,4444.2,4460.3,4459.6,4480.7,4483.2,4481.8,4488,4497,4496.1,4501.9,4501.5,4507.8,4507.6,4510.8,4523.9,4527.1,4536.9,4540.4,4537.4,4537.9,4544.9,4542.1,4542.5,4536,4546,4549.6,4566.3,4575.9,4579.6,4585.9,4588.1,4591.2,4594.1,4587.2,4576.9,4559.9,4539.4,4529.5,4506.3,4486.6,4450.9,4435.2,4403.4,4384.4,4362.7,4335.3,4305.2,4284,4251.2,4222.3,4190.5,4156.7,4126.5,4107.3,4069.3,4051.2,4014.6,3999.2,3971.4,3943.6,3923.8,3904.3,3884.7,3877.3,3855.1,3820.7,3792.3,3775.4,3742.4,3728.4,3710.2,3698.9,3690.2,3695,3724.3,3765.4,3848,4007.7,4193.3,4381.1,4590.7,4814,5031.3,5251.2,5512.2,5643,5678.1,5713.1,5733.4,5722.4,5733,5733,5717.2,5712.4,5701.3,5690.7,5685.8,5685.4,5686.2,5695.8,5690,5679.5,5679.2,5668.4,5652.9,5648,5638.4,5623.3,5624.8,5600.4,5596.1,5591.4,2159.2,1449.3,0,0,1118.4,2413.4,2641.3,2638,2638,2633.4,2631,2631.1,2625.6,2615.4,2604.2,2591.3,2579.1,2566.2,2553.5,2539.9,2527.2,2510.9,2500.6,2485.7,2474.5,2463.7,2448,2434.7,2423.2,2411.8,2399.6,2389.7,2377.4,2366.5,2355.7,2345.6,2335.9,2325.1,2315.2,2307.4,2298.8,2290.2,2284.3,2275.8,2266.5,2259.8,2251.6,2244,2237.5,2228.7,2216.6,2206.5,2194.7,2183,2170.2,2157.1,2142.4,2128,2117.2,2107,2097,2088.3,2079.1,2071.5,2064.7,2057.3,2053.2,2047.6,2041,2034.6,2026.8,2020.3,2011.9,2006.1,2000.6,1993.4,1986.4,1978.3,1969.1,1964.6,1954.9,1947.9,1941.3,1934.5,1926.5,1919.3,1909.1,1902.6,1894.3,1889.6,1883.3,1877.1,1872.9,1867.2,1861.1,1856,1851.6,1845.4,1839.3,1833.9,1827.5,1820.9,1814,1808.1,1802.3,1797.6,1791.3,1785.1,1775.9,1765.6,1758.1,1746.2,1736.7,1726.1,1715.9,1706.4,1698.8,1692,1685.9,1682.2,1679.9,1677.3,1673.8,1671.2,1668.9,1665.6,1663.4,1659.5,1655.8,1652.3,1647.9,1644.9,1640.2,1635,1630.7,1625.2,1620.3,1613,1607.8,1602,1595.4,1588.8,1584,1577.5,1573,1569,1565.4,1561.4,1558.2,1554.6,1548.2,1543.1,1537.3,1532,1524.8,1519.5,1513.9,1510.1,1504.9,1499.9,1495,1489.7,1484.7,1479.4,1475.8,1470.5,1466.7,1462.6,1459.2,1455.2,1452.5,1448.7,1445.4,1441.8,1437.7,1433.7,1431.3,1428.6,1426.1,1422.8,1419.8,1416.1,1411.3,1406.5,1402.1,1396.9,1393.4,1389.4,1385.5,1383,1379.4,1376,1373.2,1370.5,1367.8,1363.9,1361.1,1358.1,1355.7,1352.9,1349.7,1347.1,1343.4,1339.9,1336,1332.1,1328.9,1325.4,1321.7,1318.2,1314.4,1310.8,1307.8,1303.8,1300.9,1298.3,1296.1,1294.5,1291.6,1289.2,1284.9,1280.9,1277.3,1273,1268,1263.9,1260,1255.6,1251.9,1248.5,1245.3,1241.1,1237.4,1234,1230.5,1227.7,1225.3,1223.1,1221.4,1219.6,1217.9,1216.6,1214.3,1212,1209.9,1207.3,1204.3,1200.9,1197.2,1194.1,1191.5,1187.6,1184.9,1182.3,1178.8,1176,1173.6,1170.8,1168.5,1165,1161.9,1043.2,1155.6,1152,1149.2,1146.8,1145.2,1142.8,1140.9,1138.8,1136.9,1134.6,1132.2,1129.6,1126.8,1124.8,1122.4,1120,1118.4,1116.2,1113.6,1112.2,1111,1109,1107.6,1105.2,1103.2,1101.2,1099,1096.8,1095.2,1093.4,1091.4,1089.4,1087.8,1086.4,1085,1084.2,1083.4,1081.9,1080.4,1077.8,1075.2,1072.5,1069.1,1064.7,1060.6,1055.8,1051.6,1047.9,1045,1043.1,1041.1,1038.6,1036.2,1033.5,1030.6,1028,1025.7,1024
3989.8,3992.2,4000.2,4008.6,4017.3,4036,4049.6,4062.8,4076.1,4089.4,4092.5,4105.3,4115.8,4125,4132.7,4138.2,4148.9,4148.4,4157,4162.6,4162.6,4168.5,4166.2,4175.6,4178.8,4184.6,4202.2,4211.4,4229,4249.9,4264.1,4288.5,4302.7,4318,4330.6,4355.9,4369,4392.3,4408.8,4407,4426,4430,4446.8,4449.6,4457.2,4475.4,4481,4486.4,4491.9,4497.1,4500.1,4515.9,4514.8,4521.1,4521,4530,4543.2,4546.4,4553.2,4560,4570.1,4570.5,4570.7,4570.8,4574.4,4578,4571.7,4585.1,4585.3,4585.2,4595,4598,4601.1,4597.4,4596.9,4586.6,4576.4,4562.9,4546,4526.1,4499.7,4476.7,4457.3,4438,4402.8,4384.1,4365.7,4337.9,4307.5,4274.6,4250.9,4222,4193.3,4167.6,4132,4107.6,4077.6,4054.4,4028,4002.5,3979.3,3951.3,3926.6,3906.6,3895.2,3878.1,3855.7,3821.5,3787.8,3768.7,3747.4,3726.3,3701.2,3694.4,3686,3690.6,3726.6,3767.8,3857.5,4013,4193.3,4381.3,4604.7,4817.6,5018.9,5224.5,5482.5,5610.7,5655.8,5691.7,5701.5,5696.1,5706.1,5711.7,5706.7,5706.7,5691.1,5674.7,5675.6,5680.4,5685.1,5679.6,5684.8,5685,5674,5668.8,5663.6,5679.3,5659.5,5649.5,5650.2,5635.2,5636.7,5636.7,3731.4,986.9,0,0,274.9,2138.9,2630,2629,2630.1,2625.6,2623.3,2621.1,2617.7,2609.9,2596.6,2586.8,2574.8,2558.6,2548.2,2536.6,2519,2508.7,2494.5,2483.5,2472.5,2459,2447.1,2433.7,2420.4,2409.1,2397.1,2387.8,2374.9,2363.9,2354.9,2346,2334.2,2323.6,2314.5,2306.7,2298,2290.2,2280.9,2275,2264,2258.1,2250.5,2244.9,2235.1,2226.3,2215.8,2206.5,2195.4,2183.1,2171.8,2157.1,2143.8,2130.3,2118.5,2108.6,2097,2088.9,2079.1,2072.9,2066.2,2060.6,2055.8,2049.1,2042.3,2033.4,2027.5,2020.4,2012.7,2006.7,2000.6,1992.8,1985.1,1977.5,1971.1,1963.9,1956.6,1949,1942.9,1934.9,1926.5,1918.7,1910.3,1901.3,1892,1886.8,1881.6,1875.2,1870.5,1866.2,1860,1854.2,1849.3,1843.1,1838.3,1832.8,1826.8,1819.4,1812.4,1805.3,1799.6,1793.3,1788.8,1781.6,1773.8,1763.7,1754.8,1742.7,1732.5,1722.7,1711.6,1703.6,1695.6,1689,1684.1,1679.3,1677,1675.7,1671.7,1669.4,1667,1664.7,1661.3,1657.7,1655.7,1651.4,1646.6,1642.7,1639.2,1633.7,1628.2,1625.1,1618.2,1612.2,1606.2,1600.7,1594.2,1588.8,1583.1,1577.4,1573.8,1569.4,1565,1561.8,1558.6,1554.2,1549.4,1544.6,1539.3,1533.2,1526.6,1519.9,1515,1510,1505.8,1500.2,1493.9,1490,1484.3,1479.4,1474.7,1470.1,1466.2,1462.2,1459.1,1455.2,1452.2,1448.4,1444.6,1441.3,1436.9,1433.6,1430.3,1427.5,1424.2,1421.7,1419.1,1415.1,1411.7,1406.7,1403,1398.8,1394.3,1390.3,1386.5,1383,1379.2,1374.8,1372,1369,1365.4,1361.7,1358.6,1356.1,1353.5,1350.5,1348,1345.1,1342.2,1338.1,1335.1,1331.2,1327.8,1324.3,1320.7,1316.2,1313.3,1310.2,1306.9,1304.1,1301.2,1299.1,1296.1,1294,1291.6,1288.9,1284.4,1280.8,1277,1272.7,1267.5,1263.9,1259.4,1256,1252.3,1248.3,1244.5,1240.5,1237,1233.1,1230,1226.7,1223.9,1222.1,1220.5,1220.1,1218.2,1216,1214.2,1211.7,1209,1206.5,1204,1200.6,1196.8,1193.8,1191.1,1187.6,1184.7,1182.5,1179.5,1176.6,1173.8,1171.2,1168.7,1164.8,1162.2,1042.5,1155.2,1151.5,1149.2,1146.6,1144.9,1143.1,1141,1139,1136.6,1134.6,1132.2,1129.6,1127.4,1125,1122.8,1120.6,1118.4,1116.4,1114.4,1112.6,1110.6,1109.6,1108.4,1106,1104,1101.8,1099.4,1097.6,1095.2,1093.4,1091,1088.8,1087,1085.4,1084.2,1083.4,1082.1,1080.2,1078.7,1076.4,1073.6,1070.7,1067.1,1063.3,952.5,948.8,1050.6,1047.2,1044.7,1042.3,1040.3,1037.9,1035.4,1032.8,1029.9,1027.3,1025.2,1022.8
3977,3984.9,3988.2,3999.5,4010.3,4023.7,4031.4,4052.3,4070.9,4081.9,4092.5,4100.4,4116,4127.9,4135.8,4140.9,4151.6,4162.5,4165.1,4176.5,4168.1,4176.9,4174.2,4177.5,4189.1,4195.1,4193,4213.3,4231.1,4249,4269.7,4281.8,4302.9,4318.1,4331.2,4350.1,4373.1,4386.2,4400.7,4414.6,4425.7,4435.9,4439.3,4455.1,4456.2,4470.8,4469.3,4487.1,4496.1,4501.6,4507,4512.7,4521.7,4521.2,4527.4,4543.4,4546.2,4559.6,4569.8,4576.6,4583.5,4590.5,4597.5,4584.2,4587.9,4591,4594.7,4601.3,4600.7,4608,4607.7,4603.9,4603.9,4596.7,4593.5,4589.9,4576.2,4556.1,4539.5,4526.3,4503.1,4476.7,4453.9,4428.1,4406,4377.8,4349.7,4337.4,4307.4,4271.4,4250.5,4224.4,4190.3,4170.5,4137.6,4109.9,4083,4059.4,4028.1,4007.6,3982,3953.8,3928.8,3906.7,3892.4,3875.4,3853.1,3823.8,3783.2,3768.9,3743,3721.9,3708.1,3692.2,3683.7,3688.4,3719.7,3763.1,3859.8,4020.8,4196.2,4384.1,4601.2,4806.4,5014.5,5219.6,5456.5,5585.4,5645.5,5676,5691.3,5690.9,5696.1,5701.1,5701.9,5685.7,5685.3,5674.7,5675.1,5679.9,5685.1,5674.6,5690.4,5684.6,5689.8,5689.8,5695.3,5689.6,5695.7,5686.1,5675.6,5682.3,5684.2,5114.2,2671.4,998.6,0,0,274.9,2134.1,2623.6,2617.9,2618,2616.8,2612.3,2614.6,2607.8,2601,2588.9,2578,2567.2,2554.6,2543.8,2531.4,2515.9,2503.5,2493.5,2480.4,2469.5,2456.9,2444.2,2431.8,2417.8,2409.2,2399.2,2388.7,2374.9,2364,2354.3,2342.3,2332.5,2321.9,2312.1,2305.9,2297.2,2288.4,2280.9,2274.2,2264.9,2258.1,2253.1,2244.9,2236.7,2228.7,2217.4,2208.1,2197.8,2183.8,2171.8,2159.4,2146.5,2133.1,2122.1,2109.9,2098.4,2090.4,2082,2073.6,2067.5,2061.3,2057.2,2050.4,2043.5,2035.5,2029.7,2020.5,2013.5,2007.4,1999.8,1993.5,1986.3,1979.1,1971.4,1965.5,1957.3,1950.3,1943.5,1933.7,1925.3,1916.9,1908.4,1900.2,1892.4,1885,1879.8,1872.4,1867.2,1863.2,1672.6,1485,1847.2,1840.9,1836.1,1831.2,1823.3,1816.7,1809.7,1803.9,1797.6,1790.8,1785.8,1778.6,1769.2,1759.1,1750.2,1739.8,1728.6,1719.3,1708.9,1700.7,1693.2,1687.3,1681.6,1678,1675.4,1672.6,1669.9,1666.5,1665.1,1662.1,1660.4,1657.6,1653.6,1649.7,1645.8,1641.5,1637.5,1632.4,1626.8,1623.3,1617.6,1610.7,1603.9,1599,1593.4,1587.2,1583,1577,1573,1568.6,1565.4,1561.8,1558.2,1553.8,1551,1545.9,1540.1,1534.8,1528,1522.3,1516.1,1511.6,1506.2,1500.8,1494.7,1489.6,1485.2,1479.4,1474.4,1470.2,1466.6,1462.8,1459,1455.5,1451.8,1447.3,1444.7,1440.4,1436.6,1432.4,1428.9,1425.6,1423.6,1420.1,1416.7,1413.5,1409.7,1406,1402.3,1397.4,1394.3,1390.3,1386.1,1382,1378.4,1374.5,1369.8,1365.9,1363,1359.3,1355.9,1352.9,1350,1347.9,1345.7,1208.3,1205.3,1335.9,1332.7,1329.3,1325.8,1323.3,1319,1315.7,1312.1,1309.8,1306.7,1304.2,1302.2,1299.3,1296.9,1294.5,1291.9,1287.8,1283.9,1279.7,1276.2,1272.2,1267.6,1263.8,1259.5,1255.7,1252,1247.9,1244.2,1239.6,1235.7,1232.5,1229.3,1226.4,1223.7,1222,1221,1219.4,1217.8,1216.2,1214.2,1212.4,1209.1,1205.7,1202.9,1199.5,1196,1193.4,1190,1187.7,1185.4,1183.5,1180.1,1177.3,1174.1,1171.8,1168.7,1165.5,1161.8,1158.1,1154.5,1151,1148.8,1146.4,1144.7,1142.8,1141.1,1138.8,1137,1135.1,1133,1130.2,1128,1125.6,1123,1120.8,1119,1117,1114.8,1113.2,1111.6,1109.6,1108.2,1106.4,1104.6,1102.2,1099.8,1097.6,1095.2,1092.8,1091,1088.6,1087,1085.4,1084,1082.5,1080.9,1079.1,1076.8,1074.5,1071.6,1068.4,1065.3,1061.5,846,736.8,1049.4,1045.9,1043.8,1041.6,1039.6,1037.2,1035.2,1032.1,1029.4,1027,1024.7,1022.3
3974.4,3974.6,3980,3996.7,4004.5,4012.7,4036.6,4049.7,4067.8,4086.9,4094.8,4105,4121,4131.2,4141.8,4152,4160,4165.2,4176.1,4179.3,4181.9,4182.1,4179.6,4182.4,4194.1,4197.4,4209.2,4218.3,4224.6,4245.2,4257.4,4275.3,4302.3,4315,4324.9,4341,4364.3,4384.5,4408.5,4419.4,4424,4440.3,4457.2,4455.4,4465,4468.8,4483.3,4485,4499.7,4502.1,4507.6,4515.9,4528.1,4531.1,4537.6,4553.7,4573.4,4583.6,4590.1,4597.2,4604.1,4604,4611,4611.3,4614.4,4607.5,4607.7,4611.3,4614.3,4617.6,4613.9,4613.9,4600,4593.4,4590,4583.5,4559.9,4546.2,4536.1,4523.4,4503.2,4473.5,4447.4,4425.1,4393.4,4377.6,4349.7,4325.4,4295.4,4274.3,4245.2,4218.8,4193,4170.5,4142.9,4110.3,4083.2,4056.7,4030.4,4001.9,3968.3,3948.4,3923.5,3901.7,3882.5,3863.6,3848.2,3807.6,3774.3,3755.3,3738.8,3720.2,3708.3,3689.8,3683.4,3692.5,3730.8,3777,3871.8,4033.9,4207.3,4396.6,4611.5,4809.7,5009.9,5214.6,5447.1,5589.7,5639.8,5675.9,5690.3,5700.6,5707.2,5711.6,5717.1,5707.1,5696.1,5690.9,5680.3,5679.9,5690.3,5711.3,5700.8,5705.6,5706.1,5705.9,5705.9,5716.6,5717.4,5717.5,5713.1,5724.4,5719.7,5726.2,2723.6,1022.9,0,0,572.9,1880.1,2617.7,2609.7,2610.7,2607.3,2606,2601.5,2598.1,2591.3,2579.3,2570.6,2563.2,2550.3,2539.6,2527.5,2512.6,2498.6,2489.5,2478.4,2466.5,2455.9,2441.3,2431.8,2418.7,2408.3,2397.3,2384.2,2375,2364.1,2353.4,2343.4,2331.8,2321.8,2312.2,2303.4,2295.5,2286.8,2280.8,2273.3,2264.8,2259,2253.9,2244.8,2234.3,2227.1,2218.2,2210.5,2198.6,2186.2,2174,2162.6,2148.1,2134,2122.8,2111.2,2100.5,2090.4,2081.2,2074.4,2067.6,2062.3,2056.6,2051.8,2043.6,2036.7,2029.1,2022.7,2014.8,2007.5,2000.4,1994.4,1987.5,1980.4,1971.8,1965.5,1958.3,1950.8,1942.8,1935.5,1927,1917.9,1910.1,1901.4,1893.1,1885,1877.4,1871.2,1866.6,1860.4,1856.4,1850.9,1844.5,1839.9,1834.5,1830.2,1823.8,1816.6,1808.7,1803.4,1796.6,1790.3,1783.8,1775.4,1767.1,1757.6,1746.8,1736.3,1726.6,1715.8,1708,1698.3,1690.8,1684.9,1679.3,1675.9,1673.1,1670.4,1667,1665.1,1663,1660.7,1657.2,1655.8,1651.8,1649.3,1644.1,1640.6,1635.6,1631,1627,1621.5,1615.5,1609.1,1603.9,1598.2,1591.6,1586.7,1582.6,1576.6,1572.6,1567.8,1565.4,1561.8,1557.4,1554.2,1550.3,1546.7,1541.5,1535.5,1529.2,1523.9,1517.2,1512.1,1507.3,1500.5,1495.1,1490,1484.4,1479.6,1475.1,1470.2,1466.7,1462.8,1458.7,1455.9,1451.5,1447.6,1444.7,1439.6,1435.8,1432.5,1428.7,1424.7,1422.2,1418.4,1415.1,1411.5,1408.4,1405.4,1400.4,1396.5,1393.4,1389,1384.8,1381.5,1376.5,1372.1,1367.4,1363.9,1361,1356.4,1352.6,1350,1348,1345.5,1343,1340.1,1070.2,1333.2,1329.8,1327.3,1323.8,1321.6,1317.6,1314,1310.8,1309.3,1307.3,1304.2,1302.2,1299.5,1296.6,1293.6,1290.3,1287,1282.8,1278.5,1274.4,1270.4,1265.5,1262.1,1258.6,1254.5,1251.2,1246.8,1242.6,1238.8,1235.1,1231.7,1228.7,1225.5,1223.7,1221.1,1220.3,1219.2,1218.5,1216.7,1214.6,1212.2,1208.7,1205.6,1202.6,1198.8,1195.9,1192.6,1189.5,1187,1185.2,1183,1179.7,1177.2,1174.3,1172,1168.9,1165.8,1162,1157.9,1154.4,1150.8,1148,1145.7,1144.4,1143.1,1141.4,1139.7,1137.2,1135.4,1133.3,1131,1128.2,1126,1123.4,1121.4,1119.2,1117.4,1115.2,1113.4,1112,1109.8,1109,1107.2,1105.2,1102.6,1100.6,1098,1095.8,1093.8,1091.2,1089.2,1087.6,1085.6,1083.4,1081.3,1079.9,1078.3,1075.2,1072.5,1069.6,1066.2,1063.3,1059.8,1055.9,1051.7,1048.7,1045.5,1042.8,1040.9,1038.9,1036.8,1034.7,1031.8,1029.5,1026.7,1024.7,1022.8
3974.3,3976.9,3985.2,3998.2,4009.4,4025.2,4038.7,4054.1,4067.6,4083.5,4105.1,4110.3,4126.1,4136.4,4152.4,4157.7,4165.4,4176.3,4182.1,4184.6,4187.4,4179,4181.8,4190.7,4190.8,4202.4,4211.4,4217.8,4224.1,4242.2,4256.5,4275,4299.3,4305.9,4319.1,4342.4,4356.2,4373.7,4396.7,4418.1,4428.9,4432.6,4456,4460.8,4465.5,4473.3,4477.6,4492,4494,4501.9,4508,4523.3,4532,4538.1,4541.1,4560.8,4580.7,4590.7,4607.8,4603.9,4617.9,4628.3,4635.3,4624.7,4631.8,4624.8,4621,4614.2,4624.6,4627.8,4624.5,4614,4610.8,4604.2,4587.3,4587.5,4577.4,4560.4,4537.1,4517.2,4493.9,4470.9,4447.5,4418.9,4390.6,4362.7,4337.9,4313.1,4292.3,4271.4,4242.1,4216.1,4190.2,4170.6,4134.3,4107.1,4082.8,4053.3,4029.9,3998.5,3965.4,3932.8,3910.5,3884.2,3860.1,3845.7,3819.3,3795.2,3762.7,3742,3720.7,3713.6,3697.5,3685.9,3690.2,3697.1,3739.8,3788.2,3888.8,4041.6,4221.6,4409,4625,4816.7,5013.5,5218.4,5450.8,5589.4,5649.9,5675.3,5706.9,5706.7,5717.5,5733.7,5728.1,5728.2,5728.2,5712.4,5706.6,5711.8,5711.4,5716.6,5721.4,5716.4,5731.9,5727.1,5732.1,5732.4,5738.7,5738.4,5756,5745.9,5746.5,5763.7,4547.5,508.9,433.7,0,307.9,1074.1,2608.5,2599.2,2598.9,2597.9,2595.7,2593.1,2590.8,2581.8,2572,2564.4,2556.8,2544,2534.5,2522,2508.7,2496.6,2486.3,2475.3,2462.5,2453.7,2440.4,2428.9,2416.7,2406.4,2397.3,2384.2,2375.9,2365.9,2354.2,2341.5,2330.7,2321.9,2309.5,2300.7,2295.5,2286.8,2280.8,2272.3,2264.8,2258.1,2252.4,2243.2,2236,2227.9,2216.6,2208.1,2198.6,2187,2173.9,2161.7,2146.5,2133.8,2122.9,2112.2,2099.9,2089.7,2083.5,2076,2068.5,2065.1,2060.3,2052.6,2045.1,2038.9,2030.4,2023.4,2016,2009.5,2002.3,1993.8,1987.4,1979.5,1973,1968.5,1961.4,1953.1,1947,1937.3,1930.7,1920.7,1912.9,1903.1,1893.7,1885.6,1879.1,1871.1,1865.5,1860.5,1853.6,1849.8,1844.4,1839.5,1833.9,1828.5,1821.5,1814,1807.2,1801.3,1794.5,1787.2,1780.1,1773.4,1764,1753.5,1745.4,1735.3,1724.7,1714.4,1706,1697.1,1690.3,1683.5,1678.9,1675.4,1670.8,1668.4,1664.2,1662.1,1659.4,1657.2,1655.5,1651.8,1648.9,1646.2,1641.4,1637.1,1632.6,1629.3,1625,1621.1,1616.1,1609.9,1603.8,1598.2,1592.4,1587.1,1582.2,1576.2,1571.8,1567,1564.2,1560.6,1556.2,1553.4,1549.5,1545.3,1541.8,1535.9,1530.4,1524.7,1518,1513.6,1507.6,1502.3,1495.4,1490,1485.4,1479.3,1474,1470.5,1466.6,1463.2,1458.5,1453.8,1450.1,1446.1,1442.7,1438.6,1434.8,1431.3,1427.3,1424,1420.6,1417,1414,1410.2,1266.4,1403.5,1399.4,1395.2,1392.4,1388,1384.2,1379.9,1376.2,1371.4,1366.8,1361.9,1357.9,1354.7,1350.3,1348,1345.1,1343.1,1339.8,1337.1,1334.5,1330.9,1328.5,1325.5,1322.9,1320.7,1316.3,1312.7,1309.9,1308.6,1306.1,1303.7,1300.9,1298.6,1295.5,1292.7,1288.7,1285,1280.5,1276.7,1272.3,1268.7,1264.3,1260.7,1257,1252.3,1248.8,1245.7,1241.4,1238,1234.3,1231,1228,1225,1222.2,1221,1220.3,1219,1218.1,1216.3,1214.7,1212.3,1209.5,1205.9,1203.4,1199.4,1195.5,1192.7,1190.1,1187.6,1185.1,1183,1180.2,1177.3,1174.9,1172.3,1168.9,1165.5,1162.2,1158.4,1154.8,1151.2,1148.4,1146.6,1144.8,1144,1141.5,1139.7,1137.4,1135.4,1133.5,1131.1,1128.6,1125.8,1123.4,1121,1118.8,1117.2,1115,1113,1111.2,1109.8,1108.4,1106.8,1104.8,1102.6,1100.4,1098.2,1096,1094.6,1092.4,1090.4,1087.8,1085.6,1083.6,1080.9,1078.6,1075.8,1072.9,1070.4,1066.9,1064.2,1061.4,1057.4,1054.2,1051.1,1047.5,1044.5,1042.2,1040.3,1038.4,1036.5,1034.2,1032,1029.5,1027.8,1025.8,1023.5
3988.9,3991.6,4002.4,4008,4019,4029.8,4040.1,4053.4,4069,4090.4,4101.4,4114.9,4133.6,4135.4,4149.1,4165.7,4173.8,4181.9,4193.3,4198.8,4195.8,4192.9,4190.2,4193.4,4196.2,4205.2,4217.1,4226,4232.3,4244.3,4259.1,4265.2,4281,4296.6,4313.2,4326.1,4346.4,4367.2,4378.4,4401.7,4413,4425.8,4449.1,4457.2,4461.2,4465.8,4483.4,4488.4,4493.3,4508.5,4517.6,4523.3,4535.7,4548.4,4551.4,4570.9,4584.1,4601.1,4607.9,4617.6,4628,4628,4635,4635.1,4635.3,4628.1,4628.2,4638.7,4638.7,4631.9,4635.5,4628.7,4625.7,4615.6,4606.1,4595.9,4582,4568.6,4538,4518.3,4494.7,4468.2,4435.5,4407,4378.6,4353.6,4329.1,4304.8,4274.5,4256.8,4233.3,4213.2,4190.2,4164.9,4142.7,4109.7,4077.1,4047.9,4019,3988.2,3964.9,3927.3,3892.7,3869,3857.1,3843.4,3823.5,3785.9,3755.9,3730.3,3716.4,3702.7,3699.7,3688.2,3690.5,3710.6,3749.3,3800.4,3901.4,4068.5,4233.4,4431.6,4639,4824,5029.4,5230.7,5464.3,5598.5,5655.3,5690.4,5707.8,5728.3,5739,5750.3,5739.9,5744.7,5733.7,5728.2,5727.9,5732.5,5732.5,5721.4,5737.2,5742.2,5742.7,5747.7,5753.9,5764.6,5770.4,5765.2,5782.5,5782,5783.9,5784.8,5754.4,1026.7,0,0,0,542.6,2600.2,2588.7,2587.5,2588.6,2584.1,2583.6,2579.2,2571.3,2565.6,2555.9,2548.3,2029.8,2528.3,2515.9,2502.8,2491.3,2481.3,2469.3,2459.5,2449.7,2439.3,2424.9,2414.7,2406.4,2395.3,2383,2372.2,2363.1,2350.5,2338.7,2330.5,2318.3,2309.5,2299,2290.2,2284.2,2277.3,2269.9,2262.3,2255.6,2248.2,2242.5,2233.5,2224.7,2215.2,2207.3,2196.2,2186.3,2174,2160.2,2146.5,2133.8,2123,2110.7,2100.7,2091.2,2083,2075.4,2069.8,2064.5,2060.3,2053.3,2046.5,2038.4,2030.2,2021.9,2016,2009.4,2001.5,1994,1989.3,1980.8,1974.2,1967.7,1961.3,1953.9,1946.5,1940.2,1933.6,1922.8,1913,1904.3,1894.3,1885,1878.5,1870.6,1864.3,1858.8,1852.6,1847.6,1842.9,1838.4,1833.2,1827,1821,1812.9,1806.2,1798.8,1793.4,1786.2,1778.6,1770.8,1761,1752.5,1743.9,1733.3,1724.7,1714.9,1705.5,1698,1690.5,1684.3,1678.9,1673.5,1670.3,1666.8,1664.4,1659.9,1658,1654.9,1652.9,1649.8,1647.1,1642.8,1638.5,1634.6,1631.8,1628.4,1624.7,1620.7,1615.4,1609.7,1603.3,1599.1,1592.9,1587.5,1581.8,1576.6,1570.6,1566.2,1563.4,1559,1555.8,1552.2,1549.1,1545.3,1540.7,1535.1,1529.6,1525,1519.3,1514.4,1508.6,1503.2,1497.3,1491.1,1486,1480.8,1475,1471.2,1466.9,1462.6,1459.4,1455.2,1451.1,1446.7,1442.7,1438.2,1434.6,1430.1,1427,1423,1419.2,1415.8,1412.9,1409.2,1406,1402.3,1398.7,1394.3,1391.2,1387.6,1383.9,1379.9,1375.9,1370.1,1365.9,1361.8,1356.7,1352.9,1349.2,1346.4,1343.5,1340.7,1338.3,1335.1,1331.8,1329.1,1326.2,1323.3,1321.2,1318.4,1315.2,1311.6,1309,1307.2,1305.7,1302.2,1299.4,1296.8,1294.1,1291.6,1287.6,1283.5,1279.4,1274.5,1270.7,1266.6,1263.2,1259.2,1255.1,1251.2,1247.3,1244.1,1240.1,1236.2,1232.9,1229.5,1226.3,1223.5,1221.6,1219.9,1219.4,1218.7,1217.6,1215.9,1213.3,1211.5,1208.7,1206.1,1203,1199,1195.4,1192.3,1190.1,1187.4,1185.1,1183.7,1180.9,1177.4,1174.4,1171.9,1168.5,1165,1162.2,1158.5,1155.1,1151.8,1149,1147.1,1145.6,1144,1142,1140.2,1138,1135.4,1133.1,1130.9,1128.6,1126.2,1123.6,1121.6,1119.2,1116.8,1114.8,1113,1111.4,1109.6,1108,1106.2,1104,1102.2,990.4,1098.8,1096.4,1094.6,1093,1090,1088,1085.4,1082.6,1080.1,1077.3,1074.3,1071,1067.3,1064.7,1062.3,1059.4,1055.8,1053.2,1050.2,1047.1,1044.7,1042.1,1040.3,1038.4,1036.8,1034.9,1032.4,1030.3,1028.6,1026.2,1024.4
4006.5,4006.4,4019.9,4025.2,4033.8,4044.5,4049.6,4060.3,4078.8,4094.8,4105.8,4116.4,4132.8,4140.4,4157,4170.7,4176.2,4181.7,4187.2,4189.9,4198.4,4192.8,4198.7,4201.7,4207.5,4210.7,4219.3,4225.5,4237.7,4246.5,4243.8,4262,4268.3,4284.1,4300.4,4314.2,4331,4348.1,4368.8,4382,4395.8,4418.2,4421.2,4444.9,4452.7,4464.2,4472.4,4483.6,4489.2,4498.2,4507.6,4523.1,4535.5,4542.1,4558.4,4564.3,4591,4600.6,4607.4,4617.2,4627.8,4634.8,4635.1,4642.1,4631.7,4639,4642.5,4642.9,4646.8,4646.8,4647,4647.4,4643.9,4627.3,4621,4607.1,4586.5,4565.7,4548.7,4529,4499.3,4462.8,4429.8,4411.2,4370.4,4338.9,4317.5,4296.2,4266.3,4248.4,4225.1,4204.7,4182,4167.9,4137.1,4101.6,4072.1,4045.3,4011.4,3980,3957,3917.2,3880,3854,3842,3828.1,3802.2,3769.4,3739.4,3723.7,3709.6,3700.4,3697.4,3686.1,3699.7,3715.5,3761.6,3815.4,3926.9,4085.3,4260,4454.3,4660.6,4846.5,5041.7,5244.2,5474.6,5609.7,5665.7,5691.2,5717.9,5733.5,5756.3,5744.6,5756.4,5756.3,5749.2,5749.2,5748.6,5754.1,5737.5,5742.5,5747.7,5758.2,5758.2,5758.5,5769.5,5780,5797.3,5786.7,5792.3,5799.3,5799.4,5811.3,5796.9,1053,463,0,0,543.8,2589.6,2577.1,2578.2,2576.8,2577.6,2574.1,2571.8,2566.1,2559.3,2549.7,2542.2,2531.5,2524.2,2513.9,2500.7,2486.3,2478.3,2469.3,2457.5,2447.9,2437.3,2425.7,2414.8,2403.4,2393.3,2382,2372.1,2358.4,2347.7,2337.8,2326.9,2316.5,2306.8,2296.3,2290.2,2281.8,2274.9,2266.6,2259,2253.9,2245,2239.3,2231.1,2222.3,2212.9,2203.4,2193.8,2184.7,2170.8,2160.2,2146.6,2133.9,2121.6,2109.9,2099.3,2089.4,2082.4,2075.5,2069.9,2064.6,2059.6,2054.8,2047.2,2040.4,2032.3,2023.8,2016,2009.4,2002.1,1994.3,1987.2,1980.1,1973.6,1968.4,1962,1955.2,1948.3,1940.9,1931.8,1923.3,1913.7,1903.8,1894.8,1886.1,1878.1,1869.6,1862.1,1856.6,1852.3,1847.1,1841.3,1835.5,1831.7,1825.8,1817.3,1810.8,1804.2,1797.1,1790.9,1783.2,1777.1,1768.2,1759.5,1752.1,1742.4,1732.9,1724.2,1715.4,1706.3,1698.4,1690.9,1684.9,1678.4,1674,1669.7,1665.3,1661.8,1658.1,1654.7,1651.6,1649,1646,1642.8,1639.8,1635.3,1631.9,1629.4,1625,1622.5,1619,1614.1,1608.4,1602.5,1598.4,1593.3,1587.9,1581.4,1576.2,1570.6,1565.8,1562.2,1558.6,1554.2,1550.2,1546.9,1543.7,1539.1,1534.4,1530.1,1525,1519.7,1514.8,1510.1,1504.1,1498.4,1492.9,1487.9,1481.6,1475.4,1472,1468.5,1463.9,1459.3,1455.3,1451,1446,1443.1,1438.5,1434.5,1430.1,1426.4,1423,1418.2,1414.1,1411.6,1407.9,1403.6,1400.1,1396.6,1392.7,1389.9,1386.1,1382.4,1379.4,1375.4,1370,1365,1361.4,1357,1351.8,1348.1,1344.6,1341.7,1339,1336.3,1333,1330.3,1326.6,1324.8,1322.1,1319.8,1316.9,1314.2,1310.6,1308,1306.6,1304.2,1301,1297.7,1295.5,1292,1289.4,1285.7,1282.1,1277.9,1274,1270,1265.8,1262.3,1259.1,1254.9,1250.9,1247.3,1243.3,1239.1,1235.6,1232.5,1229.3,1225.9,1222.4,1220.6,1218.9,1217.7,1217.3,1216.5,1213.9,1212.8,1210.3,1207.8,1205.3,1202,1198.7,1194.6,1191.9,1189.6,1187.1,1185.5,1183.3,1180.4,1177.7,1174.3,1171.1,1168,1164.5,1161.1,1158.6,1154.9,1151.4,1148.9,1146.9,1145.6,1144,1141.7,1139.5,1137.7,1135.5,1133.1,1131.1,1128.4,1126.4,1123.8,1121.4,1119.4,1117.4,1115,1112.8,1110.8,1108.8,1107.6,1105.2,993,771.6,550,987.8,1096,1094.4,1092.2,1089.8,1087.6,1084.6,1081.9,1078.8,1075.9,1072.8,1068.8,1065.9,1063.4,1060.6,1057.8,1054.7,1052.5,1050.2,1047.7,1045.1,1042.8,1041.1,1039.5,1037.4,1035.1,1033.6,1031.3,1029.3,1027.3,1024.8
4027,4027.1,4029.8,4043.5,4043.5,4051.6,4054,4067.7,4086.1,4099.6,4110.4,4121.2,4131.9,4134.6,4150.8,4161.8,4167.3,4173,4181.4,4184.3,4181.5,4192.8,4190,4198.9,4198.6,4210.3,4213.7,4225.5,4225.6,4231.7,4246.3,4243.6,4256.3,4268.8,4276.2,4292.6,4303.4,4322.5,4351.6,4362.2,4380,4398.9,4415.1,4430.1,4438,4449.4,4460.5,4459,4468.9,4480.9,4500.1,4509.3,4515.5,4524.9,4534.5,4557.3,4580.2,4590.3,4600.4,4610.5,4617.5,4634.9,4638.5,4642,4645.5,4646,4649.6,4650.4,4650.6,4654.5,4654.9,4661.9,4655.3,4638.5,4635.3,4611.1,4600.5,4576.4,4553.2,4526,4492.9,4457.3,4428.1,4389.8,4349.7,4318.6,4297.4,4270.1,4246.6,4220,4208.3,4185.4,4168.3,4145.5,4120.9,4091,4061.5,4034.8,4003.1,3972.2,3936.4,3901.9,3877.2,3839,3832,3820.5,3794.7,3766.7,3730.2,3714.6,3701,3698,3697.8,3693.4,3709.5,3732.3,3778.1,3842.3,3947.8,4107.9,4293.7,4481.2,4678.3,4858.9,5050.1,5253.4,5485,5619.5,5676.2,5691.5,5728.7,5745.3,5744.4,5750.2,5755.7,5761.1,5760.2,5754.5,5748.9,5754.1,5742,5768.8,5769.6,5785.6,5774.2,5785.3,5790.5,5807.1,5807.7,5807.7,5808.2,5826.1,5832.2,5826.6,5801.1,1707.7,481.1,0,0,274.9,2583.3,2574.1,2572.8,2574.8,2571.4,2571.1,2566.5,2558.6,2554.3,2545.5,2537.1,2528.5,2519.1,2510.9,2499.7,2487.3,2478.4,2469.4,2457.5,2447.8,2436.2,2427.7,2413.7,2404.2,2394.9,2381.1,2370.9,2358,2346.7,2334.9,2324.2,2314.5,2302.2,2295.4,2286,2279.1,2272.4,2267.5,2259,2250.6,2245,2236.9,2228.7,2219.2,2211.3,2203.4,2191.7,2181.7,2170.1,2156.3,2143.6,2131.2,2120.2,2107.8,2097.2,2088.1,2081.8,2075.4,2068,2063.1,2059.7,2052.6,2045.8,2039.7,2032.3,2023.9,2017.9,2009.9,2003.8,1994.8,1988.2,1982.5,1974.1,1969,1962.5,1954.6,1947.8,1941.5,1931.7,1922.8,1913.2,1902,1892.4,1884.9,1875.3,1867.2,1859.3,1856.1,1849.8,1845.9,1840.7,1833.3,1828.5,1822.2,1815.7,1809.2,1802,1794,1787.7,1781.2,1774.5,1765.6,1756.7,1749.2,1741.3,1732.9,1725.6,1716.3,1707.8,1699,1693.3,1686.3,1680.2,1674.9,1669.9,1664.9,1659.6,1655.9,1652.6,1647.8,1645.9,1642.4,1639.9,1635.9,1632.6,1628.7,1626.7,1624.4,1621.4,1618.9,1614.4,1609.8,1602.9,1598,1592.5,1586.3,1580.2,1574.2,1569.4,1563.8,1560.6,1556.2,1553,1549.5,1545.7,1542.3,1538,1533.6,1529.7,1524.8,1519.3,1514.7,1509.8,1505.3,1500.2,1494.3,1489,1482.9,1477.2,1472.6,1468.7,1464.7,1459.8,1455,1450.4,1446.4,1441.9,1438.2,1433.7,1430.2,1425.6,1421.5,1417.3,1413.4,1409.3,1405.7,1401.7,1398.4,1395.4,1391.8,1388.7,1385.1,1381.8,1378.1,1374.5,1369.4,1364.9,1360.3,1356.2,1351.5,1347.6,1343.4,1340.6,1337.5,1334.5,1331.5,1329,1325.4,1323.1,1320.6,1318.9,1315.5,1313,1309.4,1306.6,1304.8,1302.5,1299.5,1296.6,1293.9,1290.6,1287.8,1284.5,1280.6,1276.4,1272.1,1268.1,1264.5,1260.9,1257.4,1254.2,1250.1,1246.4,1243.3,1239.1,1235.3,1232,1228.9,1225.3,1222.2,1220,1217.9,1215.8,1215.4,1213.8,1212.2,1210.1,1207.9,1205.7,1203.7,1200.3,1196.4,1193.5,1190.6,1188.5,1186.3,1184.4,1182.4,1180.3,1176.9,1173.9,1171.2,1167.8,1163.9,1161.2,1158.1,1154.9,1151.7,1149.1,1147.3,1145.8,1144,1142.2,1139.7,1137.6,1135.5,1133.7,1131.7,1128.6,1126,1123.8,1121.8,1119.6,1117.4,1114.8,1112.4,1109.8,1108.4,1106.4,1104.6,1102.6,1100.6,1098.6,1096.6,1094.8,1093.4,1091.6,1089,1086.6,1084,1080.9,1077.8,1074.8,1071.4,1067.8,1064.5,1062.4,1059.8,1056.6,1054.4,1052,1050.2,1048.2,1045.9,1043.7,1041.8,1039.9,1038.1,1036.1,1034.1,1032.3,1029.8,1028.6,1026.4
4042.5,4040,4047.9,4058.9,4058.7,4064.2,4069.8,4072.3,4088.1,4101.7,4109.6,4126,4128.5,4142.4,4148,4159.1,4167.3,4175.8,4173,4175.8,4175.8,4184.4,4181.8,4190.3,4193.1,4199.1,4205.2,4216.6,4217,4225.8,4223.1,4228.9,4246.9,4250.8,4260.6,4279.6,4292.9,4300.7,4325.6,4338.1,4353.8,4371.7,4387.6,4399.7,4417,4425.1,4434,4439.3,4454.5,4466.9,4476.5,4492,4501.3,4514.5,4523.8,4543.8,4563.2,4576.6,4590,4600.2,4610.6,4624.2,4631.4,4645.5,4649.3,4653.2,4650,4665.4,4658.2,4665.9,4669.9,4670,4670.1,4656.2,4632.4,4621.5,4608.3,4587.9,4563.5,4533.4,4497.3,4457.3,4419,4388,4338.6,4307.4,4282.7,4259.2,4221,4200.4,4183.4,4169,4143.7,4135.3,4099.6,4075.3,4040.4,4019.3,3987.8,3957,3926.9,3891.8,3860,3834.1,3827.3,3805.9,3786.9,3761.7,3732.5,3707.4,3700.7,3693.8,3702.8,3702.6,3716.4,3737.4,3778.9,3845.9,3956.2,4116.6,4291.3,4481.4,4686.4,4855.2,5054.9,5267.9,5490.7,5631.2,5660.6,5702.6,5728.6,5751,5751,5756.6,5756.4,5745.2,5761,5743.8,5759.4,5759.1,5763.8,5785.3,5790.6,5795.8,5779.4,5796,5796,5818.6,5818.3,5818.6,5829.9,5836.2,5842.5,5830.8,5832.6,1721.8,0,0,0,274.9,2052.5,2569.8,2570.4,2567.2,2570.2,2566.8,2562,2556.4,2547.7,2541.2,2535,2525.4,2517.3,2507.9,2493.6,2484.6,2476.4,2465.5,2456.6,2446.9,2438.1,2424.8,2415.4,2405.2,2390.2,2380.2,2371.7,2358,2345.4,2334,2324.9,2313.5,2301.2,2293.5,2285.9,2278.4,2271.6,2266.5,2257.4,2249,2242.6,2232.8,2225.5,2216.8,2207.4,2198.7,2190.9,2177.8,2165.9,2154.2,2141.4,2129.7,2118.8,2107.2,2096.5,2089.6,2081.1,2074.8,2068,2063.8,2058.3,2053.3,2046.3,2039.6,2032.2,2025.1,2018.4,2011.7,2004.4,1998.6,1990.7,1983.5,1975.8,1971.4,1964.5,1955.8,1948.4,1940.2,1930.7,1921.5,1912.1,1901.2,1891.3,1882.7,1874.8,1866.8,1859.4,1853.3,1848.2,1843.3,1837.8,1830.7,1825.2,1818.9,1812.6,1805,1799.8,1792.9,1785.7,1778.5,1770.2,1762.1,1755.2,1746.2,1738.8,1732.4,1724.6,1716.2,1708.3,1700.7,1694.2,1688.1,1682.2,1675.8,1671.8,1664.4,1658.7,1654.3,1650,1645.5,1642.5,1639.7,1635.8,1631.9,1628,1626.2,1624.2,1622.7,1620.6,1618.2,1614.3,1609.3,1604.2,1598,1591.7,1585.9,1579,1573.4,1568.2,1561.4,1557.4,1554.2,1550.2,1546.1,1543.5,1539.9,1535.8,1531.6,1528.2,1523.3,1518.4,1514.3,1510.2,1505.1,1500.5,1496,1490,1484.3,1478.3,1474,1469.8,1465,1460.1,1454.8,1450.1,1445,1441.2,1437.8,1434,1429.4,1424.9,1419.8,1416.8,1412,1407.6,1404.2,1401.1,1398.1,1394.4,1391.5,1388.4,1385.4,1381.7,1377.5,1374.5,1369,1364.6,1359.9,1356.1,1351.2,1347.3,1343.2,1339.8,1336.9,1333.6,1330.6,1326.9,1324.3,1322,1320.4,1317.8,1315,1311.6,1308.8,1305.4,1302.9,1300.3,1297.4,1295.5,1292.5,1290.1,1286.9,1283.9,1279.2,1275.4,1271.2,1266.9,1263.2,1259.5,1256.4,1252.5,1249.4,1246,1242.5,1238.1,1234.7,1231.7,1227.8,1223.8,1220.8,1217.5,1215.2,1213.8,1213,1211,1209.4,1207.1,1205.2,1202.8,1200.8,1197.6,1194.3,1191.6,1188.7,1187.6,1184.9,1183.6,1181.8,1179.3,1176.2,1174.2,1170.8,1167.3,1163.5,1161,1157.9,1155,1152.1,1149.6,1148.5,1146.4,1144.4,1142.6,1139.7,1137.8,1135.6,1133.7,1131.3,1129,1126.6,1123.4,1121.4,1119.6,1117.2,1114.6,1111.8,1109.8,1107.6,1105.6,1103.4,1101.6,1099.4,1097.8,1096,1094.2,1092.6,1090.8,1088.2,1085.6,1083,1080.7,1077.1,1074.2,1070.4,1067,1064.1,1061.5,1058.6,1056.4,1053.9,1051.9,1050.2,1048,1046.4,1044.3,1042.4,1040.7,1038.3,1037.1,1034.9,1032.9,1031.2,1029.4,1027.5
4061.3,4063.7,4066.5,4077.2,4074.9,4080.1,4085.5,4088.1,4101.4,4112.4,4120.4,4125.8,4133.9,4144.8,4150.4,4161.7,4172.9,4170.2,4170.1,4178.8,4176.2,4181.9,4184.8,4190.5,4190.7,4185.1,4191.2,4205.3,4214,4214.4,4216.9,4223,4232.5,4244.6,4254.2,4266.9,4274.6,4284.3,4306.1,4329.6,4341.8,4353.8,4372.9,4384.3,4393,4407.7,4416.5,4428.7,4441,4440.5,4462.8,4475.2,4491.2,4497.5,4503.7,4520.3,4536.6,4546.4,4569.7,4579.7,4593.4,4600.3,4621.1,4635.1,4649.7,4653.3,4650.2,4665.3,4669.1,4676.5,4687.7,4677.9,4678,4671.3,4646.9,4632.7,4615.5,4601.2,4567.7,4537,4500.3,4464.2,4429.4,4385.5,4336,4298.5,4262.6,4239,4203.5,4180.6,4161,4143.8,4122,4108.2,4081.2,4051.5,4030.3,3998.9,3975.3,3949.9,3916.9,3889.6,3860.4,3822,3821.9,3801,3789,3759,3732.1,3711.6,3698.4,3698,3702.8,3702.6,3720.8,3744.2,3779.3,3843.1,3956.5,4119.1,4291.5,4468.9,4672.1,4848.7,5060,5274,5487.9,5617,5662.2,5687.1,5729.6,5724.3,5740.6,5751.3,5751.1,5750.6,5749.7,5743.7,5754.2,5764,5769,5785.1,5801,5817.5,5801,5817.6,5828.5,5834.9,5834.9,5835.2,5846.5,5858.6,5858.3,5846.9,5840.9,2327.6,0,0,0,274.9,1535.1,2568.3,2570.3,2567.9,2569.9,2565.5,2562,2555.3,2546.7,2541.4,2531.8,2522.5,2516.4,2508,2495.7,2484.6,2474.7,2464.5,2454.7,2443,2435.3,2423,2413.4,2402,2390,2378.1,2366.2,2355.1,2341.8,2331.2,2322.3,2310.9,2301.4,2293.4,2284.1,2275.8,2270.7,2263.1,2254.9,2247.5,2240.3,2232.8,2221.6,2212.1,2204.3,2195.6,2187.8,2175.6,2162.7,2150.5,2138.5,2127.4,2116.6,2107.2,2097.2,2088.8,2079.6,2072.5,2067,2062.1,2054.7,2049.7,2042.9,2035.3,2028.9,2024.2,2018.2,2011.3,2004.2,1998.4,1992.5,1986.1,1978.9,1971.3,1963.2,1955.1,1947.1,1939.7,1929.5,1920.6,1910.9,1900,1891.2,1882.3,1873,1865.6,1858.9,1852.1,1847.1,1841.1,1835.6,1829.1,1823.1,1817.3,1809.9,1803.5,1795.5,1788.7,1782.6,1775.5,1767.7,1759.8,1752.3,1744.6,1736.4,1729.1,1722.6,1715.7,1707.9,1701.6,1695.5,1689,1683.5,1678.4,1671.7,1665.8,1660.1,1652.6,1648.2,1643.5,1641,1638,1634.1,1629.8,1628.6,1625.1,1623.4,1622.4,1620.3,1618.9,1614.4,1610.6,1604.7,1597.6,1591.8,1584.7,1577.4,1571.4,1565.4,1559.4,1555,1551.8,1548.4,1545,1541.5,1537.7,1535,1531,1527.1,1523.3,1518,1514,1509.7,1505.2,1501.3,1496.5,1491.8,1484.9,1479.8,1475.7,1470.8,1464.8,1460.2,1454.8,1449.6,1444.8,1440.6,1436.8,1432.4,1428.8,1424.5,1419.5,1415.8,1411.4,1407.5,1403.3,1400.6,1397.5,1393.7,1390.9,1388.4,1384.5,1381.1,1376.9,1372.6,1368.1,1363.7,1359,1355.2,1351.5,1347,1342.9,1339.8,1336,1333.3,1329.6,1326.1,1322.5,1321.2,1319.1,1317.6,1314,1311.3,1308.4,1305.1,1302.7,1300.2,1297.2,1295.1,1292,1289.6,1286.2,1283.1,1279,1274.9,1270.6,1265.9,1262.5,1258.4,1255.3,1251.2,1248.6,1244.7,1241,1237.4,1234,1230.4,1227.3,1224,1219.4,1215.7,1213.9,1211.4,1210.4,1208,1204.9,1203.6,1201.9,1199.3,1197.5,1194.6,1191.5,1189.1,1186.6,1185,1183,1181.4,1179.8,1177.4,1175.1,1172.7,1169.8,1167,1163.6,1161,1158.8,1156,1153.1,1150.9,1149.3,1147.6,1145.6,1143.1,1140.4,1137.9,1135.6,1133.7,1131.3,1129,1126,1123.6,1121.4,1119,1116.8,1114.4,1111.4,1108.8,1106.6,1104.6,1102.6,1100.4,1098.2,1096.8,1094.8,1093.4,1091.8,1090,1087.4,1085.2,1082.6,1080.1,1077,1073.8,1070,1066.7,1063.1,1060.8,1058.2,1055.4,1052.9,1051.6,1050,1047.8,1046,1044.3,1042.9,1041.5,1039,1037.8,1035.8,1033.9,1032,1029.8,1028
4077,4066.4,4079.9,4088,4083,4090.9,4085.7,4096.7,4104.4,4120.8,4125.9,4133.9,4147.7,4150.3,4156,4161.6,4172.9,4172.9,4167.7,4173.2,4176.1,4176.2,4176.8,4182.4,4182.4,4182.7,4188.3,4196.6,4202.7,4211.3,4217.2,4214.3,4223.4,4233.2,4239.3,4254.2,4258.6,4261.7,4292.1,4304.2,4322.1,4328.4,4351.9,4357.6,4372.7,4381.6,4397.2,4405.9,4415,4424.7,4437,4446.1,4455.5,4468.2,4480.9,4493.5,4509.9,4533.1,4539.6,4559.8,4573.3,4590.2,4607.4,4625.3,4639.5,4639.6,4657.6,4657.9,4669,4673.1,4684.6,4688.5,4682,4671.5,4650.7,4633.3,4619.4,4602.1,4567.4,4537.6,4503.8,4455.2,4420.3,4376,4332.7,4292.8,4256.4,4221.1,4192.1,4166.9,4141.9,4133.1,4102.9,4089.1,4059.8,4030.7,4014.7,3983.6,3962.6,3937.4,3909.6,3884.9,3853.2,3831.5,3819.3,3798.3,3786.7,3756.6,3731.7,3713.5,3704.6,3693.6,3693.5,3695.9,3710,3733,3769.6,3835.7,3953.7,4105.8,4277.3,4456.5,4648,4834.4,5048.8,5275.7,5490,5614.4,5663.6,5682.5,5709.3,5714.3,5725.3,5730.6,5752.5,5745.3,5734,5743.7,5754.1,5758.7,5784.5,5801.3,5822.8,5823.2,5822.6,5833.7,5844.8,5856.1,5850.9,5850.9,5861.9,5868.2,5874.2,5857.4,5851.4,1719.9,0,0,0,273.7,1802.2,2571.2,2572,2569.7,2567.6,2565.1,2561.8,2554.3,2548.7,2539.4,2531.8,2523.4,2516.5,2508.2,2492.8,2482.8,2472.6,2462.7,2454.8,2444.2,2433.5,2423.8,2411.6,2400.2,2390,2376.1,2366.2,2353.6,2338.1,2328.3,2319.5,2310.9,2299.4,2292.5,2284.3,2275.7,2269.9,2261.5,2254.1,2245.2,2238.5,2230.5,2220,2209.8,2199.6,2191,2180.2,2172.5,2159.6,2146.8,2134.8,2124.5,2115.1,2104.2,2095,2088,2078.8,2070.3,2065.6,2060.7,2051.1,2044.9,2039.3,2032.7,2026.6,2021.3,2016.6,2011.2,2004.8,1996.9,1991.7,1984.7,1977.6,1971.3,1961.5,1953.3,1944.5,1937.3,1928.3,1918.8,1909.1,1898.3,1888.5,1879.3,1871.3,1862.8,1856.7,1851,1846,1839.6,1832.9,1828,1821,1814.6,1808.2,1800.2,1794,1786.1,1779,1772.8,1764.7,1756.8,1748.7,1741.2,1734.4,1728.7,1721.7,1715.3,1709.2,1703,1697.9,1691.7,1686.7,1680.7,1675,1667.4,1659.6,1653.1,1648.7,1643.5,1641.4,1636.7,1632.5,1628.1,1626.9,1624.4,1622.6,1621.8,1620.3,1618,1615,1610.6,1604.7,1598.5,1591,1583.1,1576.2,1569,1563.8,1557,1553,1549.6,1545.2,1542.7,1539.7,1536,1532.2,1528.3,1525.1,1520.6,1516.9,1512.8,1509.9,1505,1502,1497.2,1492.9,1487.1,1480.7,1476.5,1470.8,1466,1459.8,1454.8,1449,1444.3,1439.4,1435.9,1431.9,1426.8,1423.3,1419.8,1415.6,1410.8,1406.9,1403.2,1399.6,1396,1393.1,1389.7,1386.5,1383.3,1379.6,1375.7,1371.3,1367.2,1362.1,1357.9,1354.6,1350.5,1346,1342.2,1338.6,1335.7,1332.4,1329.2,1325.2,1321.4,1320,1318.9,1316.4,1313.7,1310.8,1307.2,1304.8,1302.2,1299.7,1296.9,1293.9,1291.7,1288.5,1286,1281.5,1277.7,1274,1269.8,1264.9,1261.5,1257.5,1254.4,1250.3,1122.1,1244,1240.5,1236.5,1233.3,1229.6,1227.4,1223,1218.2,1214.1,1211.2,1209.4,1206.9,1204.7,1202.4,1199.7,1197.2,1195.1,1193.6,1190.9,1188,1185.5,1183.1,1181.8,1180.3,1179.1,1177.4,1175.9,1174,1172,1169,1166.4,1163.6,1161.2,1159,1156.7,1153.8,1151.9,1150.4,1148.9,1146.6,1144.2,1141.3,1138.3,1136,1134,1131,1129,1125.6,1123,1120.8,1118.8,1116.4,1113.8,1110.2,1108.2,1105.8,1103.6,1101.2,1099.2,1096.8,1095.4,1093.6,1092,1090.6,1088.4,1086.6,1084.2,1081.8,1079.5,1076.2,1073.4,1069.6,1066.5,1063.4,1060.5,1058.4,1055.4,1053.4,1051.8,1050.3,1048.2,1046.7,1044.9,1043.7,1042.5,1040.4,1038.4,1037.1,1034.8,1033,1030.6,1028.6
4087.7,4079.8,4088.1,4082.8,4093.9,4099.8,4099.7,4102.4,4112.9,4129.5,4137.1,4142.3,4144.8,4150.3,4158.7,4161.6,4172.9,4170.1,4167.7,4164.9,4167.8,4173.7,4179.6,4176.8,4182.7,4182.7,4185.4,4197.2,4205.9,4206.1,4203,4208.7,4217.5,4223.9,4233,4239,4245.9,4251.4,4275.4,4284.6,4308.1,4308,4323.5,4332.1,4350.2,4362.7,4374.7,4390.6,4399.6,4396.6,4411.9,4421.4,4423.8,4439.3,4455.2,4464.9,4490.4,4506.9,4513.3,4536.7,4560.4,4573.5,4587,4608.2,4622.3,4625.7,4643.6,4655,4661.6,4665.7,4681.2,4681.1,4685.2,4671,4653.4,4640,4633.1,4594.5,4570.8,4544.5,4506.7,4461.3,4420,4382.1,4335.8,4286.3,4244.5,4215,4180.7,4152.8,4133.1,4108.7,4092.2,4070.7,4047.1,4020.4,3991.7,3971.4,3950.6,3922.6,3907.6,3880,3853.2,3833.7,3824.1,3798,3781.8,3751.8,3724.4,3706.7,3695.5,3693.3,3689,3682.7,3705.4,3719.1,3758,3830.6,3938.5,4092,4267.7,4453.5,4641.2,4826.8,5049.7,5276.6,5486.6,5600.2,5645.1,5658.6,5678.6,5699.4,5715.6,5710.7,5708.7,5730.4,5713.2,5728.8,5738,5758.7,5774.2,5796,5812.3,5812.3,5823.2,5851.1,5850.9,5867.5,5862.3,5873.3,5862.1,5873.7,5873.4,5873.4,5281.1,540.2,0,0,0,535.7,2317.4,2575,2573.8,2571.6,2569.3,2570.3,2562.7,2556.3,2547.6,2540.5,2533,2524.5,2516.4,2507.3,2497,2486,2475.8,2462.9,2454.1,2444.3,2434.5,2421,2412.5,2400.3,2387.3,2375.4,2364.3,2349.9,2339.8,2328.1,2317,2309.9,2297.7,2289.3,2282.6,2274,2268.4,2258,2249.1,2241.9,2233.7,2224.8,2214.4,2205.1,2194.1,2184.7,2174,2164.9,2151.4,2141.7,2129.6,2122.4,2112.9,2101.3,2095,2086.4,2077.2,2070.2,2064,2055.1,2048.8,2041.5,2035.8,2029.8,2024.5,2018.4,2015.7,2008.8,2001.4,1996.7,1991.2,1983.2,1977,1971.2,1962,1953.3,1945.1,1937.9,1927.1,1917.5,1907.8,1897.3,1887.9,1878.2,1870.2,1861.7,1856.1,1849.8,1844,1838.5,1832.3,1827.5,1819.9,1814.1,1806.6,1798.7,1791.3,1784.7,1776.9,1770.7,1763.3,1754.2,1746,1737.8,1731.9,1727.2,1720.7,1714.9,1707.7,1702.1,1697.9,1693.1,1688.6,1682.6,1676.8,1668.2,1661,1653.8,1650,1644.8,1640.6,1635.4,1631.6,1628.2,1626.1,1623.1,1623.1,1621,1619.5,1617.6,1615.1,1611.6,1605.1,1598.5,1591.3,1582.7,1575,1567,1561.4,1555.8,1551.6,1546.8,1542.8,1540.5,1537.2,1534,1529.9,1526.3,1523.6,1520,1515.5,1511.7,1508.6,1505.4,1501.6,1498.6,1494.7,1488.7,1482.8,1477.1,1470.8,1465.9,1459.9,1454.1,1448.6,1443.8,1439.2,1435.4,1431.3,1427,1423.2,1419,1415,1411,1406.3,1402,1398.7,1395.4,1392.8,1389.2,1385.5,1382.1,1378.8,1374.7,1370.9,1366.2,1361.8,1357.3,1354.4,1350.5,1345.8,1341.9,1337.7,1335.1,1331.8,1329.3,1324.6,1321.7,1319.8,1318.1,1315.4,1312.6,1309.9,1176.1,1304.2,1301.7,1298.3,1295.4,1292.8,1290.5,1288.1,1284.8,1280.6,1276.9,1272.6,1268.6,1264.2,1259.7,1256.2,1252.7,1249.1,1246.3,1242.9,1239.2,1235.9,1232.2,1228.7,1225.6,1221.9,1217.7,1213.1,1208.8,1206.3,1204.2,1201.5,1198,1195.9,1193.4,1192.4,1190.3,1187.8,1185.2,1183.4,1180.8,1180.1,1178.6,1177.2,1175.1,1174.1,1172.4,1169.9,1168.4,1166.5,1163.2,1160.9,1158.8,1156.7,1154.9,1153.3,1151.5,1149.7,1147.5,1144.6,1141.7,1138.1,1135.4,1133.1,1130.2,1127.4,1124.4,1122,1119.8,1118,1115.6,1112.8,1109.4,1107,1104.4,1101.8,1099.8,1097.6,1095.2,1093.6,1092.8,1091.2,1089.4,1087.8,1086,1082.8,1080.8,1078.3,1075.8,1072.2,1068.8,1065.5,1062.8,1060.3,1057.9,1055.4,1053.6,1052.4,1050.8,1049.2,1047.4,1045.9,1044.7,1043.1,1041.6,1040,1037.8,1035.5,1033,1031.5,1029.4
4085.2,4085.3,4094,4094,4105.2,4108.5,4108.2,4116.2,4130.1,4132.3,4137.4,4142.6,4147.8,4150.3,4150.3,4158.8,4164.5,4167.4,4164.9,4165,4168.2,4168.5,4174.4,4171.6,4174.4,4180.4,4183.3,4188.7,4200.3,4200.4,4203,4203.1,4211.8,4215.3,4230,4238.4,4239,4250.7,4259.5,4274.3,4279.9,4298,4304.4,4319.6,4332.2,4344,4357.1,4366.4,4372.7,4374.8,4387.6,4396.8,4411.9,4417.6,4427,4442.5,4461.6,4477.7,4493.9,4520.5,4543.8,4553.6,4570.3,4597.7,4615.4,4625.8,4643.5,4654.5,4672.4,4680.1,4688.1,4687.8,4681.5,4673.9,4659.6,4646.7,4632.5,4608.4,4580.5,4547.1,4506.4,4467,4419.1,4375.2,4325.8,4283.3,4241.1,4206.6,4172.6,4141.9,4119.9,4092.5,4068.1,4055.2,4028.5,3997,3976.5,3960.6,3938,3917.2,3900.1,3872.7,3857.7,3833.4,3823.9,3802.6,3783.7,3753.7,3728.7,3706.2,3693.1,3688.7,3682.4,3673.6,3687.2,3707.9,3746.2,3816,3925.4,4078.1,4246.8,4426.9,4630.7,4816.5,5039,5275.1,5479.4,5573,5621.1,5629.6,5659.4,5660.4,5673.6,5683.6,5699.3,5682.5,5691.4,5706.8,5716.9,5742.7,5764.1,5785,5790.2,5817.3,5816.8,5839.1,5856.3,5856.7,5862.3,5868.3,5872.9,5878.9,5890.3,5890.3,4716.1,0,0,0,0,1062.7,2580.1,2579.1,2576.7,2575.5,2572.4,2570.1,2566.9,2558.2,2550.9,2543.4,2535,2528.6,2519.5,2509.3,2500.1,2489,2479,2468,2455.2,2446.3,2432.6,2425,2413.6,2401.2,2390,2377.1,2362.5,2348.9,2338.7,2324.7,2315.1,2305.5,2294.3,2288.5,2279.1,2272.3,2262.6,2252.3,2244.3,2234.8,2225.6,2217.6,2209.1,2198.9,2186.3,2177.1,2166.3,2157.3,2146.3,2135,2126,2115.8,2108.6,2100.5,2092,2084.9,2075,2066.8,2060.5,2053.7,2045.4,2038.5,2031.8,2025.7,2020.4,2017.2,2011.9,2006.6,2000,1994.2,1987.5,1982.7,1975.5,1968.9,1961.4,1952,1943.3,1935,1923.6,1913.3,1904.1,1895,1886.1,1877.6,1869.1,1861.7,1854.4,1849.4,1844.4,1838.4,1832.9,1826.8,1820.9,1813.7,1806,1798.3,1788.2,1781.7,1774.3,1768.2,1759.8,1750.6,1743.7,1736.5,1730,1723.7,1719.3,1713.1,1707.4,1702.2,1698.3,1693.2,1688.2,1349.7,1344,1001,1662.3,1654.8,1649.9,1644.2,1640.1,1635.5,1631.1,1626.8,1624.4,1622.7,1621.5,1620.6,1619.1,1617.2,1614.7,1610.9,1604.7,1597.4,1590.9,1580.2,1573.4,1566.2,1559.8,1553.9,1549.2,1544.8,1541.2,1538.7,1535.1,1530.3,1528.4,1524.1,1521,1517.8,1514.9,1510.9,1508.2,1505.6,1502.4,1499,1494.3,1490.4,1484.2,1478.7,1472.3,1466.3,1459.2,1453.4,1448,1443,1438.2,1434.6,1431.1,1426.5,1422.9,1419.1,1414.7,1410.6,1406.3,1402.3,1398.4,1396,1393.1,1388.9,1385.2,1382.4,1378.4,1375.3,1371.1,1366.4,1362.1,1358.5,1354.5,1350.4,1346.3,1342.2,1338.6,1335.6,1332.1,1328.7,1323.7,1320.9,1319,1317.6,1315.3,1312.3,1308.7,1175.5,1303.4,1300.5,1297.6,1295.1,1292.2,1289.8,1286.7,1283.3,1279.1,1275.6,1271.6,1267.4,1263.2,1258.9,1254.8,1252.3,1248.7,1245.7,1242.1,1238.5,1235,1231.8,1228.1,1225.2,1220.7,1216.2,1211.4,1207.4,1204.8,1201.8,1199,1195.8,1193,1190.8,1189.1,1187.3,1184.6,1182.6,1180.4,1178.9,1178.5,1177,1175.1,1173.8,1172.8,1171,1169.5,1167.8,932.1,930.8,927.4,1158.8,1157.5,1155.3,1154.1,1152.5,1150.3,1148.3,1145.3,1141.7,1137.7,1135.5,1132.6,1129.4,1126.2,1123.4,1121,1119.2,1117.2,1115,1112.2,1109.2,1106.2,1103.6,1101,1098.2,1096,1093.2,1092.6,1091,1089.6,1087.8,1086.4,1084.2,1081.8,1079.3,1077.6,1074.5,1071.6,1068.3,1065.5,1062.3,1060.3,1058,1056,1054.4,1052.8,1051.6,1049.8,1048,1047.1,1045.5,1044,1043,1040.7,1038.2,1036.6,1034.3,1032,1030.3
4077.3,4079.9,4085.9,4091.6,4108.2,4111.1,4119.7,4119.5,4130.2,4140.8,4148.8,4148.2,4150.7,4150.4,4153,4161.7,4164.6,4173.3,4170.8,4162.4,4160.3,4166.2,4177.4,4171.9,4172.1,4177.7,4183.8,4192.3,4200.5,4206.3,4206.2,4214.8,4220.1,4226,4228.7,4228.9,4232,4246.3,4252.5,4264.6,4279.2,4285.6,4292.2,4304.4,4310.2,4322.8,4332.2,4344.7,4353.5,4356.4,4362.4,4368.3,4380.4,4389.2,4404.6,4413.9,4435.7,4448.4,4474.7,4504.7,4530.5,4550.7,4570.8,4594.7,4612.1,4626.4,4643.4,4669.1,4676.2,4683.7,4691.4,4696.2,4688.2,4677.6,4667.1,4646,4628.8,4605.1,4580.3,4549.4,4509.4,4459.7,4421.8,4374.2,4328.1,4282.6,4246.8,4203.5,4167,4136.2,4103.1,4078.8,4057.4,4036.6,4010.3,3987,3966.4,3948,3927.7,3914.8,3904.8,3887.3,3857.7,3845.2,3835.5,3813.8,3790.5,3760.4,3733.1,3706.2,3697.5,3679.8,3671.1,3656.1,3669.6,3682.8,3723.2,3791.9,3904.7,4053.5,4217.4,4398.4,4609.7,4794.5,5018.8,5257.7,5447.7,5548.6,5586.5,5610.7,5624.3,5644.3,5654,5658.1,5663.3,5662.2,5681.2,5685.7,5716.7,5722,5753.8,5774.4,5790.2,5801.3,5806.3,5828.6,5856.3,5850.7,5861.8,5867.9,5867.7,5884.8,5890,5884.2,4683.9,0,0,0,296.1,1067.6,2592.7,2589.5,2587.2,2585.9,2578.4,2575.1,2570.8,2563.3,2557,2549.7,2538,2531.7,2523.5,2514.4,2502.1,2494.1,2483.1,2472,2460.2,2445.4,2435.5,2422.4,2411.8,2401.3,2390,2377.2,2363.3,2349.7,2336,2323.1,2314.3,2303.8,2294.3,2285.8,2276.8,2267.3,2258.4,2250.8,2241.2,2232.4,2224.2,2215.5,2202.7,2190.9,2181,2171,2159.7,2149.8,2138,2130,2123.1,2114.4,2105.8,2095.6,2089.9,2081.3,2073,2065.3,2057,2050.3,2040.5,2033.6,2027.2,2022.5,2017.1,2013.1,2007.2,2002.5,1996.1,1992.9,1986.9,1978.8,1971.9,1965.7,1958.2,1948.2,1938.5,1929.5,1917.5,1908.4,1899.5,1891.4,1882.2,1875.4,1867.9,1860.5,1854.8,1849.5,1844.4,1838.5,1832.9,1826.8,1820.3,1811.9,1805.5,1796.6,1788.8,1780,1771.8,1765.4,1757.2,1749.7,1741.9,1735.6,1729.2,1722.7,1717.5,1712.6,1706.4,1702.2,1697.9,1694.1,1688.7,844.1,671.6,499.9,1331.7,1657.4,1651.6,1646.8,1642.5,1636.2,1631.7,1627.6,1626.4,1623.1,1621.9,1620.1,1617.3,1616,1612.1,1608.7,1602.6,1596.1,1588,1578.6,1571.4,1564.6,1557.8,1552.7,1548,1543.4,1540.6,1536.7,1533.6,1531,1526.8,1523.3,1519.9,1516,1512.9,1509.7,1506.9,1503.9,1502.8,1498.7,1495.3,1490.3,1485.7,1479.6,1473.3,1466.3,1459.6,1453.5,1447.6,1441.9,1437.9,1434.6,1430.4,1426.9,1422.8,1418.5,1415,1410.5,1406.8,1402.4,1398.4,1395.9,1392.1,1388.7,1385.5,1381.8,1378.4,1373.9,1370.3,1365.9,1361.9,1357.8,1354.6,1350.5,1346,1342.2,1338.9,1335,1331.5,1328.4,1325.5,1322.3,1319.8,1317.4,1314.4,1311.9,1308.8,1306.2,1303.7,1300.5,1297.5,1295.3,1292.5,1289,1286,1282.1,1277.6,1274.7,1270.3,1265.9,1261.7,1258.1,1254.5,1251.6,1248.6,1245.5,1241.8,1238.3,1234.5,1231.6,1227.6,1224.6,1220.5,1215.3,1210.5,1206.5,1203.3,1200.4,1197.6,1194.3,1191.5,1188.8,1187.1,1185.7,1182.9,1180.8,1178.3,1177.5,1176.1,1174.8,1173.4,1172,1171.1,1169.6,1168.7,1167.2,1164.5,1162.5,1160.7,1159,1157.3,1155.7,1154.1,1152.7,1150.6,1148.2,1145.8,1141.5,1137.7,1135,1131.4,1128.4,1125.4,1122.8,1120.4,1118.6,1116.8,1114.6,1111.8,1108.8,1106.2,1103.4,1100.4,1097.8,1095.6,1092.6,1091.6,1089.8,1088,1086.6,1084.8,1082.6,1080.7,1078.7,1076.5,1074.1,1070.4,1067.7,1065,1062,1060.7,1057.8,1055.8,1054.4,1053.2,1052,1050.2,1048.1,1047.3,1046.2,1045.1,1043.5,1041.6,1039,1036.7,1034.3,1032.4,1030.4
4066.1,4066.4,4072,4091.3,4102.5,4102.9,4116.7,4116.7,4133.1,4138.5,4140.5,4148.4,4153.7,4153.3,4153,4158.8,4170.6,4167.8,4165.3,4165.4,4168.7,4169.3,4175.4,4181.1,4181.3,4175.4,4181.3,4198.2,4201.2,4215.4,4209.3,4214.9,4220.1,4225.7,4237.4,4231.5,4234.5,4243.3,4251.9,4258,4270.1,4282.6,4283,4295.1,4301,4313.9,4323.6,4329.5,4332.1,4344,4340.8,4349.7,4355.6,4361.9,4376.7,4395.1,4411.3,4429.8,4459,4484.8,4504.7,4531.1,4557.8,4591.9,4608.7,4622.6,4654.9,4662.2,4676.6,4688.5,4695.6,4706.7,4685.5,4681.5,4660.2,4635.4,4628.7,4604.3,4576.5,4546,4515.8,4466.7,4421.3,4383.4,4336.8,4288.2,4249.8,4203.7,4163.8,4127.6,4094.7,4070.9,4044,4023.2,3997,3981.5,3955.9,3943.1,3927.3,3912.2,3892.1,3884.4,3862.3,3849.8,3840.2,3823.4,3799.9,3774,3735.2,3710.5,3688.6,3673,3658,3647,3658.2,3671.2,3704.9,3772.8,3886.9,4023.8,4191,4370.1,4572.2,4775.8,4995.9,5235.8,5395.2,5510.5,5552.6,5576.4,5589,5598.9,5618.3,5627.1,5636.9,5652,5666,5676,5696.1,5711.6,5743,5769.3,5768.3,5784.6,5812.1,5823.3,5828.8,5850.7,5856.3,5862.1,5867.7,5884.4,5873.3,5867.7,2314.2,0,0,0,0,1841.5,2603.4,2600.2,2595.8,2591.4,2589.1,2585.8,2578,2569.6,2562.1,2552.7,2544.3,2535.9,2527.7,2520.5,2511.3,2499.2,2487.2,2476.1,2462.2,2448.5,2436.8,2424.3,2413.7,2402.3,2386.4,2373.4,2361.5,2346.9,2335.1,2323.1,2312.6,2302.2,2290.9,2283.3,2273.4,2264.2,2255,2246.2,2238.1,2226.7,2217.8,2208.5,2196.5,2186.4,2175.7,2164.9,2152.9,2143.3,2133.8,2125.6,2119.8,2111,2102.9,2095.8,2086.5,2078,2070.9,2064,2055.8,2047.3,2037.7,2030.3,2025.1,2019.8,2015.1,2010.4,2005.8,2001.3,1994.7,1990.3,1983.8,1975,1968,1961.9,1952.5,1942.7,1933.6,1923.5,1914.5,1902.9,1895.5,1886.8,1880.1,1871.9,1865.1,1859.4,1854.8,1848.8,1843.2,1840.1,1833,1826.9,1820.6,1812.4,1804,1795.5,1787.7,1779,1769.9,1763.8,1756.4,1748.2,1740.5,1732.7,1726.2,1722,1716.5,1711.6,1706.8,1703.3,1698.4,1694.5,1690.3,1685.4,1344.3,1338.4,1665.7,1658.2,1653.2,1649,1643.2,1637.7,1633.7,1628.7,1625.9,1624.2,1621.2,1619.4,1617.2,1613.7,1610,1605.7,1600.2,1592.7,1584.8,1576.2,1569,1563,1557,1551.9,1546.4,1542.6,1539,1535.9,1532.6,1529.1,1525.6,1522.5,1519,1515.3,1511.7,1508.2,1506.3,1503.9,1500.5,1498,1494.1,1489.2,1485.6,1479.6,1472.5,1466.3,1459.3,1452.9,1446.6,1441.5,1437.9,1433.6,1430.4,1426.6,1422.8,1418.6,1415.2,1411.5,1407.1,1402.5,1398.6,1396.5,1393,1389.6,1386.3,1381.5,1377.4,1373.3,1369,1365.7,1361.6,1358.2,1354,1350.1,1346.6,1342.8,1339.2,1335.3,1331.1,1329.3,1326.4,1322.7,1320.3,1317.7,1315.2,1312.5,1309.7,1307.1,1303.9,1301.9,1298.6,1295.8,1292.6,1289,1285.7,1282.4,1277,1273.6,1268.9,1265,1260,1256.8,1253.2,1250.6,1248.2,1245.5,1241.7,1238.5,1234.2,1231.5,1228.4,1224.3,1220.1,1214.7,1210.4,1206.6,1202.7,1200.2,1197.1,1193.9,1190.8,1188.3,1186.5,1184.6,1182.3,1179.4,1177.1,1176.1,1174.2,1173.8,1172.2,1170.8,1170.5,1169.1,1168.1,1165.6,1164.2,1161.9,1160.2,1159,1156.9,1154.7,1153.9,1151.9,1150.1,1147.3,1144.8,1140.9,1137.7,1134,1131.4,1128.2,1125.2,1122.2,1119.8,1118,1116.8,1114.6,1111.8,1108.2,1105.6,1102.8,1099.8,1097.4,1094.4,1091.2,1090,1088.4,1086.6,1085,1083,1081.1,1079.1,1077,1075.3,1073.1,1069.9,1066.9,1064.8,1062,1060.1,1058.2,1055.8,1053.8,1053,1051.8,1050.1,1047.9,1047.5,1045.7,1044.9,1043.8,1041.3,1039,1036.7,1034.3,1032,1030.5
4049.9,4055.6,4063.5,4074.8,4088.6,4094.5,4099.8,4113.9,4124.5,4135.3,4140.5,4140.2,4142.5,4139.3,4145,4159,4167.4,4170.6,4167.6,4165.4,4171.3,4172.1,4184.2,4183.7,4181.5,4176.2,4187.5,4196,4210,4204.4,4209.8,4221.2,4229.4,4234.5,4243.3,4245.8,4245.8,4246,4260.7,4263.8,4276.1,4279.4,4279.8,4294.8,4297.9,4301.5,4317.1,4320.2,4325.8,4328.7,4334.3,4334.5,4340.3,4349.2,4355.6,4376.9,4392.5,4411.3,4443.2,4475.5,4501.7,4527.8,4561.8,4581.9,4609.7,4627,4654.8,4669.8,4684.4,4695.6,4702.4,4703.3,4696.1,4678.4,4663.7,4649.7,4621.8,4604.4,4576.7,4539.2,4512,4465.9,4427.7,4382.8,4336.8,4297.3,4252.4,4197.6,4161.4,4116.4,4089.3,4065.3,4038.6,4015,3986.7,3966.2,3948.2,3932.6,3919.6,3914.4,3894.4,3886.5,3866.7,3857.1,3852.1,3830.5,3806.8,3780.9,3741.7,3712.7,3692.7,3668.7,3648.9,3640.3,3642.8,3653.7,3686.7,3753.9,3869.5,4002.6,4165,4348.2,4548.3,4750.3,4971.1,5206.5,5362.2,5472.8,5519.1,5531.2,5564.8,5575.1,5604.3,5607.9,5617.2,5642.9,5645.6,5665.4,5686.3,5711.8,5737.7,5764,5774.1,5795.2,5817.4,5828.7,5834.1,5844.6,5856,5861.6,5856.1,5861.7,5879.1,5878.9,5770.4,0,0,0,0,266.6,2610.8,2606.4,2602.1,2596.5,2595.3,2587.7,2582.4,2575.8,2566.3,2557.9,2549.7,2543.1,2535,2525.6,2514.3,2501.1,2490,2478.1,2463.1,2449.5,2437,2422.3,2411.8,2398.3,2386.5,2372.5,2356.9,2345,2333.3,2321.3,2310,2298.8,2288.4,2278.4,2269.3,2260.1,2250.3,2241.4,2232.4,2221.1,2210.9,2200.6,2189.6,2179.7,2168.8,2157.5,2149.3,2137.6,2130.3,2122.1,2114.9,2107.6,2099.4,2093.5,2085.9,2076.6,2068.8,2061.3,2053.6,2044.5,2035.1,2028.3,2023.8,2017.7,2011.8,2008.3,2003.8,1998.8,1990.7,1986.2,1980.1,1973.7,1966.1,1958.2,1950.1,1940.3,1930.5,1921,1910.8,1900,1892.7,1885.6,1878.8,1870.1,1864.5,1858.8,1853.8,1850,1843.9,1838.9,1832.5,1827,1819.5,1812.3,1804.2,1795.1,1786.3,1777.5,1767.8,1761.1,1753.6,1746.8,1738.6,1732.2,1725.3,1721.4,1716.4,1711.5,1706.9,1703.2,1698.9,1695.5,1691.1,1685.4,1681.1,1673.3,1667.2,1662,1656.4,1650.5,1645.8,1640.6,1634.9,1630.4,1627.3,1624.4,1621.9,1618.9,1615.8,1612.9,1607.7,1603.4,1597.3,1590.2,1582.3,1574.2,1567,1561,1555,1550.8,1546.4,1542,1538.6,1535.1,1532.9,1528.7,1523.6,1520.6,1517.8,1513.1,1509.7,1507.6,1505.6,1501.6,1499.2,1496.2,1492.4,1487.7,1483.2,1477.8,1470.2,1464.5,1312.2,1306.4,1444.7,1440.5,1436.4,1432.7,1429.7,1425.5,1421.8,1418.5,1415.5,1411.8,1407.7,1402.7,1399.4,1396.2,1393,1389.3,1385.7,1380.8,1376,1372,1367.8,1364.3,1360.6,1356.1,1353,1349.8,1345.7,1341.9,1338.9,1335,1332,1329.1,1326.2,1323.3,1320.6,1318.9,1316.8,1315.1,1311.7,1308.6,1305.4,1303,1300,1296.1,1293.1,1289,1285,1280.9,1277.1,1272.5,1268.2,1264.3,1259.6,1256.8,1254,1250.3,1247.8,1244.5,1241.4,1238.3,1234.5,1231.5,1227.8,1224.6,1220.1,1215.6,1210.5,1207.3,1203.6,1200.7,1197.1,1194,1190.9,1188.7,1186.7,1184.8,1182.5,1179,1176.6,1175.3,1174,1172.8,1171.1,1170.3,1169.1,1167.6,1166.7,1165,1163.5,1162.7,1160.7,1159.5,1157.3,1155.1,1152.8,1151.8,1149.2,1147.7,1143.6,1140.7,1137.2,1133.8,1131.2,1127.8,1124.8,1122,1119.6,1117.6,1116,1113.4,1111,1107.6,1104.8,1102,1099.2,1096.4,1093.4,1090.4,1088.8,1087,1085.4,1083.4,1081.4,1079.8,1077.7,1076,1073.9,1071.1,1069,1066.1,1064.2,1061.4,1059.7,1057.7,1055.4,1053.6,1052.4,1051.6,1049.9,1047.9,1047,1045.5,1044.1,1042.6,1040.7,1038.5,1036.3,1033.6,1031.8,1029.8
4044.6,4050.2,4058.2,4066.7,4080.2,4088.9,4094.3,4105.5,4113.4,4127,4129.5,4137.2,4136.9,4136.9,4139.6,4150.7,4164.8,4165,4168,4162.8,4171.6,4175.3,4181.4,4178.8,4181.3,4181.8,4190.5,4199.2,4219.6,4216.3,4227.6,4224.1,4235.7,4243.6,4252.2,4254.8,4254.4,4257.4,4266,4269.2,4281.5,4281.8,4288.6,4294.7,4292,4304.4,4313.4,4322.9,4328.5,4331.3,4331,4328.2,4337.3,4346.6,4355.8,4368.2,4386.9,4402.4,4428,4469.4,4488.4,4521.6,4551.5,4582.6,4616.8,4637.7,4662.9,4691.8,4706.6,4703.7,4707.9,4703.9,4696.8,4682.3,4668.3,4646.5,4618.3,4601.2,4580.4,4549.4,4505.6,4465.7,4430.3,4388.9,4336.5,4300,4249.9,4206.2,4161.2,4119.3,4083.7,4067.5,4027.7,4001.8,3981.1,3955.7,3945.2,3934.8,3919.4,3911.9,3896.4,3893.8,3879,3869,3852,3835.2,3813.7,3776,3741.8,3712.5,3685.9,3661.7,3637.8,3620.9,3621,3640.7,3671,3737.7,3842.6,3984.5,4145.4,4311.4,4515.2,4721.5,4944.6,5180.1,5316.3,5429.4,5474.9,5497.8,5536.6,5545.9,5574.1,5598.5,5613.8,5628.4,5647.1,5661.5,5697.1,5722.6,5742.4,5763.2,5779.2,5795.3,5816.9,5827.9,5855.7,5867.1,5867.1,5872.7,5867.5,5873.1,5873.1,5867.3,5120.4,0,0,0,0,528.6,2618.3,2612.1,2608.8,2599.7,2596.4,2590.8,2582.4,2575.9,2570.4,2559.9,2552.6,2543.2,2536.1,2524.6,2514.2,2500,2488.1,2477.1,2462.1,2445.7,2433,2419.3,2407,2395.7,2383.7,2368,2353.3,2342.4,2331.6,2319.6,2310,2297,2286,2275.1,2265.1,2257.9,2245.3,2235.9,2227,2218.1,2206.3,2196.1,2185.2,2175.1,2163.6,2152.3,2142.7,2133.2,2126.6,2118.6,2110.7,2103.8,2097.3,2090.1,2082.9,2075.8,2068.2,2060.7,2050.7,2042.4,2032.5,2025.1,2019.7,2012.5,2007.7,2004.5,2000,1995.5,1989,1983.8,1977.5,1971.8,1963.6,1954.4,1945.2,1934.6,1926.9,1918.5,1907.1,1897.7,1890.9,1882.1,1876.5,1871.8,1864.5,1859.4,1854.9,1849.9,1845.1,1840,1833.5,1827,1819.5,1810.8,1802.6,1794.5,1783.6,1775,1766.8,1760.6,1753.6,1745.5,1739.1,1731.3,1724.7,1720,1714.9,1711,1707.4,1703.2,1698.9,1694.6,1690.1,1685,1680.1,1673.8,1668.8,1662.5,1657.6,1485.9,1482.8,1641.7,1637.4,1632.1,1629.3,1625.1,1622.7,1618.8,1615.3,1610.7,1605.2,1600.2,1594.2,1586.4,1579.4,1572.2,1564.6,1559.8,1554.3,1550.4,1546,1542.8,1538.9,1535.4,1531.8,1528.6,1525.2,1520.6,1517.9,1513.1,1508.6,1505.8,1502.4,1500.2,1496.1,1494.4,1489.4,1485.1,1480.7,1475.1,1467.6,1170.2,1020.8,870.1,1441.8,1437.4,1434.1,1430.3,1427.4,1424.9,1421.1,1417.5,1414.6,1411.2,1407.7,1403.4,1400.3,1396.6,1393.7,1389.3,1384.4,1379.5,1375.1,1371.1,1366.6,1361.9,1358,1353.8,1351.3,1348.1,1345.1,1342.1,1338.3,1334.7,1332,1329.4,1326.4,1323.6,1321.8,1320.6,1318.6,1316,1313,1310.5,1307.4,1304.9,1301.3,1297.8,1294,1289.5,1285.1,1280.9,1276.1,1271.9,1268,1264.1,1259.7,1257.1,1253.5,1250.2,1247.8,1245.1,1241.6,1238.2,1234.9,1231.3,1227.9,1224.4,1220.8,1216.8,1212.1,1208.1,1204.9,1202.2,1198.8,1195.8,1191.8,1189.6,1187.1,1185.4,1182.4,1179.4,1176.8,1174.7,1174,1172.5,1171.2,1169.8,1168.2,1167.7,1167.3,1165.5,1163.3,1162.4,1160.4,1159.1,1157,1154.8,1153.2,1151.4,1149.2,1146.6,1143.6,1140.2,1136.6,1133.2,1130.4,1127.6,1123.8,1121.4,1118.8,1117.2,1115.4,1113.4,1110.4,1107,1104.4,1101.2,1098.6,1095.8,1093,1089.6,1087.6,1086,1084,1082,1080.4,1078.6,1076.1,1074.3,1072.3,1070.2,1067.6,1065.1,1062.9,1060.3,1058.4,1057.1,1055.3,1053.5,1052.5,1050.8,1049.5,1047.7,1046.4,1045.1,1043.6,1041.6,1040.1,1037.7,1035.8,1033.1,1031.3,1029.5
4036.6,4034.3,4044.7,4058.5,4063.9,4078.2,4083.5,4092.1,4108.1,4116.1,4118.8,4132.4,4132,4134.3,4137,4150.9,4156.3,4162.2,4162.5,4168.4,4171.7,4177.7,4184.2,4184.7,4187.5,4193.5,4193.9,4205.8,4222.7,4228.4,4237,4233.5,4245,4258.4,4264,4272.5,4274.8,4275.1,4277.4,4286.8,4293.1,4296.6,4302.6,4309.2,4315.3,4318.4,4327.9,4334.1,4340.6,4352.4,4355.2,4343.2,4358.7,4371.1,4368.3,4377.5,4396.4,4415.3,4434.4,4469.7,4498.7,4524.9,4555.2,4592.7,4613.5,4635,4660.5,4685.5,4700.6,4707.5,4711.6,4704.6,4701.4,4672.6,4665.7,4647.4,4622.3,4601.2,4566.7,4545.8,4508.6,4472.1,4430,4392.2,4342.1,4296.4,4252.4,4206.3,4160.9,4119.2,4078.1,4062.1,4027.7,4004.3,3986.2,3962.7,3944.8,3937.4,3926.9,3911.7,3899,3893.7,3881.7,3869.1,3856.9,3832.9,3811.3,3776,3737.1,3710.2,3681.2,3657.3,3635.6,3616.4,3614.5,3629.6,3664.1,3735,3837.5,3968.9,4126.1,4290.9,4495.5,4697.1,4920.6,5150.6,5279.9,5392.2,5437.1,5465.2,5498.7,5532.1,5556.5,5585.3,5610.2,5633.8,5643.5,5658.3,5677.3,5712.5,5733.2,5753.5,5774,5800.8,5800.8,5822.4,5833.4,5856,5850.2,5844.7,5855.9,5855.9,5855.9,5850.4,3438.7,0,0,0,562.8,1585.9,2622,2616.2,2610.6,2603.9,2595.3,2590.9,2581.2,2575.9,2567.4,2559.9,2549.5,2543.3,2534.7,2524.5,2512.2,2497.8,2486.9,2474,2459.1,2444.6,2429,2413.7,2405.1,2392,2378.9,2362.3,2349.5,2338.8,2328.2,2317.9,2306.5,2294.6,2284.2,2275.2,2262.6,2252.9,2242.2,2232.8,2223.8,2212.8,2203.4,2190.8,2182.2,2170.8,2160.8,2150.3,2140.6,2131.8,2123.7,2117.1,2109.2,2103.3,2096.5,2087.8,2082,2073.5,2066.8,2055.8,2047.3,2040.3,2031.9,2022.3,2017.1,2010.4,2005.9,2000,1996.1,1992.1,1985.1,1980.7,1974.3,1967.4,1959.4,1951.4,1942.1,1932.7,1923.8,1914.5,1906.2,1895.4,1889.6,1881.5,1875.2,1869.6,1864.6,1858.8,1854.3,1849.2,1845.1,1839.6,1833.5,1826,1817.9,1810.3,1802,1794.7,1783.7,1774.5,1765.8,1758.7,1753,1745.4,1738.6,1730.7,1724.2,1719.5,1714.4,1711,1707.4,1703.2,1698.7,1693.4,1689.1,1684.1,1679.7,1673.3,1668.1,1662.5,1658.5,1653.2,1648.4,1643.1,1638.8,1633.9,1630.2,1625.9,1621.6,1617.7,1612.6,1608.1,1602.7,1597.4,1591,1584.3,1576.6,1570.6,1563.8,1558.2,1555.4,1550.3,1546.9,1543,1540.1,1536.9,1534,1529.3,1524.8,1521.1,1518.2,1512.3,1508.2,1505,1502.1,1498,1495.4,1492.2,1487.9,1483,1477.7,1472.3,1464.9,1458.2,1305.2,1445.8,1440.1,1436.5,1432.2,1429.3,1426.1,1422.9,1419.8,1416.5,1413.7,1410.9,1407.3,1403.4,1400.3,1396.2,1393.1,1388.4,1383.8,1378.3,1373.6,1369,1364.6,1359.7,1355.9,1352.1,1349.5,1346.3,1344.2,1340.6,1337.4,1334.7,1331.5,1329.7,1326.5,1324.3,1323,1320.6,1319.2,1316.9,1314.2,1312.1,1309.1,1306.6,1302.7,1298.3,1294.3,1289.7,1285.2,1280,1276.1,1271.9,1267.5,1263.6,1260.4,1256.5,1253.3,1250.7,1248.1,1245.1,1241.2,1238,1234.9,1232.1,1228.7,1224.8,1221.6,1217.4,1213.9,1210.6,1207.6,1204.9,1201.2,1197.5,1193.9,1191,1188.4,1185.7,1182.7,1179.3,1176.9,1174.8,1173.2,1172.1,1170.7,1169.4,1168.6,1167.6,1166.2,1165.4,1163.7,1162.2,1160.8,1158.5,1156.2,1154.5,1152.6,1150.6,1148.5,1146.1,1142.7,1139.3,1135.3,1132.4,1129,1125.6,1122.6,1120,1117.8,1115.6,1114,1112.2,1109.4,1106.4,1103.8,1100.8,1098,1095,1092,1088.8,1086.4,1084.6,1082.6,1080.6,1078.9,1076.8,1075,1072.7,1070.7,1068.4,1066,1063.7,1061.6,1059.4,1058,1056.2,1054.8,1053.3,1052.3,1051.2,1049.1,1047.7,1045.8,1044.3,1042.5,1040.6,1038.8,1037.1,1034.6,1032.5,1030.3,1028.4
4029,4031.7,4037.1,4042.6,4053.6,4067.5,4072.7,4078.3,4097,4102.7,4107.9,4116.1,4129.4,4134.3,4134.3,4142.7,4156.6,4167.8,4165.2,4162.8,4168.5,4180.8,4186.7,4190.2,4187.6,4185.4,4202.7,4220.4,4226.1,4234.6,4245.7,4251.6,4262.5,4273.6,4281.9,4290.5,4289.8,4292.8,4298.4,4301.4,4307.8,4311.2,4314.5,4321.1,4333.3,4339.5,4342.5,4361.4,4364.6,4367.9,4376.9,4373.6,4377.3,4386.4,4396.1,4399.2,4424.8,4437.3,4456.4,4489.1,4525.3,4544.7,4575.2,4603,4617.1,4638.4,4664.1,4686.7,4694.1,4705.4,4705,4690.9,4683.6,4673.2,4662.1,4640.1,4615.5,4598,4573.5,4542,4504.9,4471.6,4429.6,4382.4,4345.5,4305.5,4251.9,4209.1,4163.7,4122.1,4086.8,4067.6,4033,4009.5,3983.7,3968.1,3952.3,3939.6,3931.7,3919,3903.8,3893.8,3884,3871.6,3856.7,3835.3,3806.5,3771.4,3734.8,3708,3681.3,3650.8,3629.2,3610,3614.6,3625.5,3659.7,3726,3832.6,3966.2,4106.9,4281.7,4479.2,4682,4900.1,5118.5,5251.1,5361.8,5408,5450,5499.1,5523.8,5552.6,5576.1,5601.1,5621.2,5629,5654.5,5684.3,5708.7,5729.1,5753.5,5779.6,5795.6,5800.8,5806,5827.9,5833,5827.8,5827.8,5833.4,5833.4,5827.9,5828.2,5012.4,0,0,0,273.7,798.6,2624.4,2619.8,2612.8,2603.9,2596.3,2590.9,2580.2,2572.8,2564.2,2553.5,2547.4,2538.8,2529.5,2519.4,2508,2493.8,2480.9,2466.9,2452.3,2436.6,2422.1,2408,2396.5,2384.4,2372.6,2359.5,2346.9,2336.2,2324,2314.4,2304,2293.8,2282.6,2271.8,2260.2,2251.3,2240.7,2230.4,2219.9,2211.3,2200.3,2189.4,2180.1,2166.8,2157,2148.9,2139,2128,2121.3,2114.8,2107.5,2100.2,2093.6,2085.7,2077.1,2070,2063.4,2054.3,2046.6,2037,2027.2,2020.3,2014.3,2009,2003.9,1998,1990.2,1984.4,1980.6,1976.2,1970.6,1963,1957,1947.6,1940.9,1931,1923.1,1912.8,1903.8,1895,1887.9,1880.8,1874,1868.5,1863.9,1858.9,1852.5,1849.3,1842.8,1836.7,1831.2,1824.8,1816.7,1809.4,1800.3,1792.6,1782.3,1772.9,1764.2,1757.8,1751.2,1745.4,1739.5,1731.6,1725.2,1720.8,1716.8,1713.5,1708.8,1703.6,1698.9,1693.2,1688.8,1683.2,1679.3,1673.9,1669.3,1663,1658,1653.1,1648,1644.5,1638.6,1633.9,1628.4,1623.7,1619.3,1615.5,1610.2,1602.9,1598,1592.2,1587.1,1580.6,1573.4,1567.8,1562.2,1557.4,1554.6,1550.4,1546.1,1543,1540.8,1536.6,1533.6,1529.7,1525.2,1520,1516.2,1512,1507.5,1503.5,1500.7,1497.3,1494.2,1490.5,1486,1480.7,1476.1,1470,1462,1454.7,1448.3,1443.3,1437.7,1434.1,1431,1427.8,1425.5,1422.1,1419.2,1415.9,1412.8,1411.1,1407.3,1403.9,1400.3,1396.8,1392.8,1388.1,1382.4,1377,1371.4,1367.2,1362.6,1358.5,1354,1350.4,1347.8,1344.5,1342.1,1339.7,1336.5,1334.1,1331.2,1329.4,1326.8,1324,1322.6,1321,1319.9,1317.5,1314.8,1312.9,1310,1306.8,1303.6,1300,1295,1290,1285.5,1280,1275.3,1271.1,1267.7,1263.8,1260.5,1257,1254.3,1251.5,1248.5,1245.4,1241,1237.9,1234.9,1231.9,1228.7,1225.8,1221.8,1218.7,1215.2,1211.9,1208.9,1205.8,1202.6,1198.6,1195.3,1192.7,1189,1186.4,1183.2,1180.2,1177.6,1175.7,1173.5,1172.2,1170.9,1169.5,1168.2,1167.5,1166,1164.6,1163.5,1161.8,1160.8,1158.4,1156.4,1154.3,1151.8,1149.6,1147.4,1144.9,1142.2,1138.7,1134.5,1131.2,1127.8,1124.6,1121.4,1118.8,1116.6,1114.6,1112.8,1110.8,1108.2,1105.4,1103,1100,1097,1093.8,1091.2,1087.8,1085.2,1083.4,1081.3,1079.5,1077.4,1075.3,1073.5,1071.5,1069.3,1066.7,1064.6,1062.1,1060.4,1058,1056.8,1055.6,1054,1052.7,1051.7,1050,1048.5,1046.6,1045.2,1043.5,1041.6,935.2,933.6,931.8,1033.6,1031.7,1029.5,1027.7
4021.4,4029.6,4032.2,4040.4,4048.8,4056.9,4065.3,4073.4,4086.8,4100,4108.1,4110.7,4121.4,4126.4,4131.7,4139.9,4154.1,4159.4,4162.3,4165.3,4162.9,4177.4,4180.8,4189.7,4190.8,4194.1,4208.7,4229.5,4241.5,4252.7,4264,4267.1,4280.8,4294.7,4303.3,4312,4317.3,4313.9,4319.4,4331.6,4331.9,4335.1,4338.6,4344.6,4351.5,4363.9,4376.1,4386.2,4392.4,4404.6,4404.4,4410.8,4411.2,4417.2,4420.9,4440.4,4455.9,4469,4491.5,4521.7,4544.7,4574.7,4595,4615.6,4630.6,4651.4,4674.4,4685.4,4696.4,4697.1,4700.7,4690.4,4672.2,4661.4,4643.5,4632.4,4614.2,4593.8,4565.7,4545,4507.7,4467.8,4422.8,4378.7,4342.1,4302.6,4255.1,4200.5,4163.6,4127.5,4092.5,4065.2,4044,4017.5,3991.7,3970.8,3957.6,3947.3,3936.9,3926.6,3909,3893.7,3886.4,3869.3,3857,3830.3,3806.5,3769,3732.5,3705.5,3679,3646.6,3631.5,3612.4,3612.9,3625.7,3666.5,3728.4,3835.1,3961,4109.5,4275.5,4472.4,4674.8,4899.7,5108.9,5236,5331.4,5392,5444.8,5469.3,5512.3,5549.3,5572.3,5592.1,5606.6,5641.2,5655.6,5685.7,5705.1,5729.9,5756,5758.8,5779.8,5790.1,5789.5,5800.4,5816.6,5800.3,5800.4,5794.9,5794.9,5794.9,5794.9,3834.5,570.2,0,0,831,1065.1,2373.3,2624.3,2615.3,2603.1,2595.4,2589,2581.5,2571.7,2560.2,2551.6,2542.2,2533.8,2527.7,2511.2,2499.2,2484.8,2473.9,2458.2,2442.4,2426.8,2412.6,2400.2,2388.2,2377.1,2364.1,2354.8,2343.2,2332.7,2322.3,2310.9,2301.3,2290.4,2280.1,2270.2,2260.3,2249.6,2240.7,2229.6,2218.6,2209.9,2197.4,2185.6,2174.9,2166.2,2157,2147.4,2140.5,2131.6,2122.7,2117.6,2109.6,2100.9,2092.1,2084.9,2074.9,2067.9,2059.8,2051.5,2042.5,2035.8,2027.1,2019.7,2013.2,2005.9,1998.6,1992.9,1987.7,1981.3,1976.3,1971,1966.1,1959.4,1952.6,1945.2,1938.5,1929.9,1920.2,1912.6,1902.1,1893.1,1886.1,1880.3,1872.9,1867.7,1864.6,1857.7,1852.5,1847.7,1842.2,1836.7,1830.1,1823.7,1816.3,1808.3,1799.3,1790.5,1780.7,1770.8,1763.9,1756.9,1751.8,1746.3,1738.9,1731.6,1726.5,1722.2,1717.4,1714.1,1709.3,1705.1,1700.3,1693.6,1521.4,1514.9,1678.9,1674.1,1669.5,1663.9,1658.5,1652.7,1648.9,1642.5,1638.3,1631.3,1627.8,1622.7,1617.4,1613,1606.3,1600.5,1594.3,1588.7,1583,1577.4,1571.4,1565.4,1559.8,1556.6,1553.5,1549.9,1546.1,1543.3,1540,1537.3,1533.9,1529.7,1525.2,1520.7,1516.9,1512.7,1507.2,1503,1499.9,1496.1,1492.5,1489.6,1483.7,1478.5,1472.2,1466.2,1458.9,1451.9,1444.9,1439.9,1435.6,1431.2,1429.1,1426,1424.2,1421.1,1418.9,1416,1412.7,1409.5,1407,1403.6,1399.7,1395.2,1391.3,1387.5,1381.8,1375.1,1369.9,1365.1,1360.9,1356.8,1352.8,1348.9,1346.8,1343.9,1340.9,1339.1,1335.6,1333.6,1330.6,1328.5,1326.9,1324.2,1323,1322.1,1320.4,1318.1,1316,1313.1,1311.2,1307.8,1304.2,1299.4,1295.2,1289.7,1285.5,1279.5,1275.4,1270.9,1267.1,1263.8,1260.4,1257.3,1254.7,1252,1249,1245.5,1241.4,1238.3,1235.4,1232.5,1229,1226,1223,1218.9,1215.5,1213.4,1210.1,1207.4,1204.9,1201,1197.6,1194.1,1191.1,1188.2,1184.3,1180.8,1178.4,1176.2,1174.4,1172.5,1170.9,1169.9,1169.1,1167.7,1166.2,1164.9,1162.9,1161.6,1159.7,1157.4,1155.6,1153.3,1151,1148.8,1146,1143.6,1140.6,1137.1,1133.7,1130.4,1127,1123.6,1120.6,1118.4,1115.4,1113.6,1111.2,1109.6,1107.4,1104.4,1101.6,1099.6,1096.6,1094.2,1090.8,1087.8,1085.2,1082.5,1080.3,1078.6,1076.8,1074.6,1072.3,1070.2,1068,1065.7,1063.4,1062.3,1059.6,1057.6,1055.7,1054.7,1053.4,1052,1051,1049.4,1047.2,1045.8,1043.9,1041.8,1039.9,1037.9,1036.2,1033.9,1032.4,1030.5,1028.2,1026.6
4019.1,4022,4022.2,4032.9,4041.3,4049,4052,4057.3,4078.7,4089.6,4097.5,4105.3,4113.4,4112.9,4123.4,4139.9,4145.4,4153.6,4153.8,4157,4165.6,4168.8,4178.2,4187,4199.4,4202.6,4214.5,4238.3,4250,4267.7,4273.4,4282,4296.5,4313.5,4327.9,4330.6,4332.6,4338.3,4337.9,4350.2,4353.1,4353.5,4359.8,4362.8,4379,4388.7,4410.4,4423.2,4432.8,4442.1,4449.1,4449,4455.4,4468.4,4478.2,4491.3,4508,4517.5,4537.8,4554.5,4578.2,4601.5,4622.2,4633,4647.2,4658,4673.2,4680.6,4684.7,4699.8,4688.9,4684.9,4670.4,4656.4,4642.2,4630.8,4620.6,4592.8,4574.9,4540.8,4504,4470.9,4425.9,4375.6,4341.9,4296.3,4246.4,4206.5,4164.4,4125.3,4095.4,4073.6,4049,4023.1,4002,3986.5,3965.7,3955,3941.9,3926.7,3909,3891.6,3881.7,3864.5,3852.4,3825.6,3801.9,3762.2,3730.2,3698.9,3679.3,3653.2,3640.3,3625.7,3626,3635,3671.4,3740.2,3847.3,3973.9,4117.6,4281.5,4469,4677.9,4883.6,5091.3,5221.5,5317.4,5377,5424.6,5463.5,5499.1,5542.7,5562.9,5598.3,5618.4,5643.8,5679.4,5699.1,5707,5731,5751.4,5759.8,5769.3,5774.3,5773.2,5789.8,5784.1,5778.6,5773.4,5773.4,5789.4,5783.9,5773.1,2204,0,0,0,1103.7,1594.9,2632.2,2624.2,2615.5,2605.5,2595.9,2586.2,2579.6,2568,2558.3,2548.6,2539.3,2526,2515.7,2504.6,2491.2,2475,2464.2,2448.1,2432.8,2417.4,2402.9,2390.8,2378.9,2369.7,2358.6,2347.8,2337.9,2325.7,2314.3,2305.6,2297.1,2286.9,2276,2265.9,2256.9,2247.1,2237.5,2227,2218.4,2206.7,2193.3,2183.2,2174.7,2167,2159.3,2150.4,2142.8,2134.6,2126.4,2118.8,2109.4,2100.9,2089.9,2081.4,2072.8,2063.6,2055.6,2047.3,2040,2033.2,1821.7,1611.9,2008.6,2000.7,1996.1,1988.3,1983.3,1978.3,1972.4,1968,1961.3,1954.5,1948.3,1940.3,1933,1923.6,1914.7,1908.6,1899.2,1890.8,1884.9,1879.1,1871.7,1866.7,1861.7,1856.5,1850.9,1847.2,1842.2,1835.5,1829.1,1821.7,1813.1,1805.7,1797.3,1787.8,1780.7,1770.8,1762.9,1757.4,1750.4,1745.8,1739.3,1732.9,1727,1723.5,1719.4,1714.5,1710.1,1705.5,1700.3,1693.6,1689.1,1682.7,1677.6,1672.8,1667.2,1661.7,1656.7,1652.3,1646.2,1641.7,1635.6,1630.5,1624.9,1620.2,1613.8,1609.6,1603.5,1598,1590.9,1585.4,1580.6,1575.4,1568.6,1563.8,1559.4,1555.4,1551.9,1548.7,1545.3,1542.2,1539.6,1536.9,1533.1,1529.7,1525.1,1521,1517,1511.7,1506.1,1502.1,1498,1494.8,1489.5,1486.2,1480.2,1473.6,1468.5,1462.1,1455.5,1448.4,1443.3,1438.1,1434.1,1429.6,1427.6,1425.4,1422.4,1420.2,1417.6,1415.6,1413.4,1409.5,1406.3,1403.2,1398.7,1395.2,1390.3,1385.3,1379.4,1373.6,1367.8,1363.2,1359.2,1355.3,1351.8,1347.1,1345.1,1342.7,1340.3,1337.9,1336,1333.3,1330.9,1328.6,1326.6,1324.8,1323.4,1321.8,1320.7,1317.7,1316.5,1313.6,1311,1307.7,1303.9,1298.7,1294.8,1289.7,1284.3,1279.2,1274.9,1270.4,1266.9,1264,1261.3,1257.8,1254.7,1001.8,999.7,996.7,1241.8,1238.8,1235.7,1232.5,1228.9,1226.9,1223.2,1220.1,1217.2,1214.9,1212.4,1209.4,1206.2,1202.4,1199.6,1195.9,1192.7,1189.8,1186,1182,1179.4,1176.6,1174.8,1172.6,1171.5,1170.3,1168.5,1167.9,1167.1,1164.4,1162.6,1160.9,1159.3,1157,1154.7,1036.5,919.6,1147.8,1145.2,1142.7,1140.3,1137.1,1133.7,1130.6,1127.4,1123.6,1121,1117.8,1115.2,1113.2,1110.8,1108.8,1106.8,883.4,881.6,1099.4,1096.6,1093.4,1091,1088,1084.8,1082.3,1079.7,1077.8,1075.7,1073.9,1071.7,1069.6,1067,1065.4,1063.5,1061.6,1059.5,1057,1055.5,1053.9,1052.1,1051.1,1049.8,1047.7,1046.5,1044.8,1042.8,1040.9,1038.6,1036.5,1034.5,1032.8,1031,1028.7,1027.3,1026.5
4009.1,4009.1,4017.2,4027.9,4033.5,4036.4,4047.2,4052.2,4068.1,4078.5,4091.8,4094.4,4110.5,4110.3,4120.8,4131.7,4142.6,4151.1,4151,4156.7,4157.4,4166.3,4177.9,4195.8,4201.7,4211.4,4225.9,4244.3,4261.5,4282.3,4294.5,4303.1,4311.2,4329,4343,4348.6,4345.2,4353.8,4356.5,4356.2,4371.8,4374.9,4384.3,4390.9,4409.9,4413.1,4438.6,4455,4470.9,4487.4,4490.8,4497.5,4511,4517.4,4531,4547.9,4564.5,4577.7,4584.4,4601.6,4618.6,4638.9,4642.6,4645.9,4656.9,4660.8,4675.3,4682.7,4683.3,4683.6,4683.9,4683.7,4669.2,4655,4651.2,4640.2,4616.1,4601.9,4584,4553.8,4519.8,4476.8,4432,4381.8,4335.7,4290.5,4243.6,4200.9,4161.6,4131.1,4098.4,4079,4055.3,4033.9,4013.3,3994.8,3976,3965,3947.2,3937,3909.5,3891.5,3884.1,3864.4,3849.8,3823.1,3794.8,3755.3,3723.5,3703.6,3681.6,3658,3641,3630.9,3628.9,3653.1,3683.5,3759.3,3871.9,3986.6,4131.2,4289.9,4484.4,4686.6,4889.6,5081.6,5210.3,5296,5370.1,5418.1,5461.8,5502.2,5527.7,5568.6,5584.6,5615.4,5640.6,5676.9,5701.3,5718.8,5733.6,5753.1,5755.9,5765.1,5764,5757.7,5757.2,5767.6,5756.9,5756.9,5751.4,5751.7,5740.9,5735.6,1086.9,0,0,0,1086.7,2383.7,2629,2621.1,2615.7,2603.8,2593.8,2586.4,2575.7,2563.1,2555.5,2542.1,2531.5,2521.4,2510.2,2495.8,2479.7,2464.4,2450.5,2435.8,2419.2,2406,2392.8,2378.9,2367.9,2358.6,2348.7,2338,2329.2,2317.8,2307.3,2297.1,2291.2,2283.5,2271.8,2264.2,2253.5,2245.4,2234.2,2226.9,2217.6,2208.1,2197.2,2187,2177.7,2168.4,2162.4,2153.9,2146.5,2138.2,2129.2,2120.2,2111.5,2102.8,2090.6,2080.7,2071.3,2062.1,2053.5,2046,2037.3,2030.5,1821.2,2014.5,2006.6,1998.9,1991.1,1985.3,1979.6,1971.9,1967,1963.3,1956.5,1950.9,1942.1,1935.3,1926.6,1920.1,1911.5,1903.2,1895.6,1888.4,1880.2,1875.2,1868.3,1862.9,1857.1,1853.8,1848.1,1844.5,1839.9,1833.4,1826.3,1820.1,1811.9,1805.1,1796.2,1787.8,1779.1,1770.3,1763.9,1756.8,1752.3,1746.7,1740.2,1734.4,1729,1725.2,1720.3,1716.5,1711.6,1706.9,1701.2,1694.6,1689.2,1683.6,1677.2,1672.1,1666.6,1661.3,1655.4,1650.1,1644.9,1640,1633.4,1629.7,1623.9,1618.9,1613,1607.1,1602.2,1595.1,1588.4,1582.6,1578.2,1572.2,1567,1563,1558.6,1554.3,1551.5,1548.7,1544.8,1541.9,1538.9,1536.2,1533.2,1530.1,1525.9,1521.6,1516.5,1511.3,1505.7,1501.3,1496.9,1492.5,1487.5,1482.6,1477.1,1471.2,1465.1,1458.8,1452.8,1446.9,1441.8,1437.5,1433.1,1430.8,1427.7,1425.1,1423.5,1420.2,1417.7,1415,1412.2,1409.5,1407,1403.1,1398.7,1395.2,1389.9,1384.6,1378.7,1373.1,1366.6,1362.2,1357.4,1353.7,1349.6,1346.8,1344.2,1342.4,1340,1338,1335.1,1333,1330.9,1328.6,1326.9,1325.1,1322.8,1322.2,1320.7,1318.3,1316.5,1313.6,1310.7,1307.1,1303,1298.6,1294.4,1289.1,1285,1279.5,1274.5,1270.9,1267.3,1263.9,1261.3,1258.1,1255.2,1002.3,999.9,1120.7,1242.6,1238.8,1235.9,1233.3,1229.7,1227,1224.1,1221.4,1218.4,1215.8,1212.4,1210.3,1207.5,1203.4,1200.6,1197,1192.7,1189.8,1186.5,1182.6,1179,1177.1,1174.8,1172.6,1170.9,1170.1,1168.7,1167.7,1166.5,1164.4,1162.7,1160.8,1159.2,1157.2,1154.4,921.4,1149,1147.2,1144.7,1142.1,1139.6,1137.1,1133.7,1131,1128,1124.6,1121.2,1118.2,1115,1112.6,1110.8,1108.6,1106,883,881,1098.8,1096.4,1093.4,1090.8,1087.6,1084.4,1082.1,1079.5,1077.5,1075.7,1073.7,1072.3,1069.6,1067.5,1065.1,1063.3,1061.2,1058.3,1056.3,1054.8,1052.9,1051.4,1050,1048.9,1047.3,1045.3,1043.3,1041.7,1039.5,1037.6,1035.6,1033.5,1031.9,1030.3,1029.1,1027.5,1026.5
3990.6,3998.5,4003.8,4014.2,4022.8,4031.1,4033.5,4041.3,4057.3,4070.3,4083.5,4091.6,4097.1,4104.2,4109.7,4120.6,4128.7,4139.8,4142.7,4151.3,4157.3,4163.3,4175.3,4189.7,4207.4,4213.7,4220.6,4249.6,4267.5,4282.5,4300.9,4309.5,4323.5,4338.1,4355.7,4358.2,4367,4369.2,4365.9,4368.5,4381.2,4387.5,4396.7,4409.5,4425.2,4447.9,4467.4,4483.8,4503.7,4520.6,4536.8,4540.3,4546.9,4563.9,4587.9,4591.2,4608.6,4611.8,4622.2,4635.6,4656.7,4666.9,4680.8,4666.7,4670.3,4670.7,4677.9,4678.1,4682.2,4682.5,4682.5,4675.3,4664.2,4657.4,4653,4642.7,4635.7,4618.3,4597.6,4563.2,4529.8,4482.9,4435,4378.4,4332.5,4290.6,4237.9,4198.2,4164.7,4131.7,4107.2,4084.8,4069.3,4039.8,4023.7,3999.8,3989.1,3973.4,3957.5,3937,3914,3891.5,3876.5,3856.8,3832.6,3808.9,3782.9,3750.8,3716.7,3694.9,3682.4,3665.4,3646.5,3645.1,3644,3659.5,3709.3,3781.7,3897.5,4015.8,4156.2,4310.5,4503.4,4699.9,4903.6,5086.9,5195,5289.9,5348.7,5411,5450.9,5486.3,5521.5,5562.7,5584.3,5620.9,5657.4,5678.2,5698,5700.2,5729.3,5747.9,5756.6,5755,5748.1,5747.1,5746.6,5752,5735.8,5724.8,5719.3,5724.5,5719.3,5703.8,559.8,0,0,0,2184.6,2380.3,2627.9,2620.1,2610.3,2598.4,2591.9,2583.3,2569.4,2558,2546.2,2533.9,2522.6,2511.4,2498.9,2481.9,2467.7,2452.6,2439.8,2425.1,2407.8,2395.8,2381.9,2369.7,2355.2,2350,2339.8,2328.4,2320.4,2310.8,2302.2,2294.5,2285.1,2278.4,2270,2260.1,2251.9,2242,2232.4,2224.3,2216.6,2206.2,2196.2,2186.1,2179.1,2171.3,2164.4,2157.6,2150.8,2140.3,2132,2121.7,2112.7,2101.8,2090.7,2079.2,2070.6,2061.6,2050.8,2043.4,2035.2,2028.3,2019.2,2010.7,2004.2,1996.4,1989.4,1982.4,1976,1969.2,1964.2,1958.5,1950.9,1945.8,1938.9,1931,1924.9,1916.5,1907.4,1898,1891.4,1884.3,1876.8,1870.2,1862.7,1857.7,1853.1,1848.7,1844.9,1840,1836.1,1830.6,1823.7,1816.9,1808.6,1803.6,1796.2,1788.3,1778.6,1771.3,1765,1758.3,1752.2,1746.6,1741.7,1736.4,1731,1727.1,1722.7,1717.9,1712.2,1707.4,1701.2,1695.9,1689.1,1684.6,1677.6,1672.2,1666.6,1662.3,1654.4,1649.4,1644.3,1638.8,1632.5,1627.6,1622.2,1616.9,1611.8,1605.8,1600.1,1593.9,1587.6,1581.4,1576.2,1571.4,1565,1561.8,1557.4,1553.1,1550.4,1547.6,1544.4,1541.5,1539.1,1535.9,1532.9,1530.5,1527.1,1521.7,1516.2,1511,1505.7,1501.4,1496.1,1490.8,1486.1,1479.6,1474.4,1468.4,1462.5,1456.9,1451.1,1445.3,1441.1,1437.2,1434.1,1430.1,1428,1425.3,1422.9,1419.9,1416.7,1413.7,1411.2,1407.8,1406,1401.9,1398.4,1393.8,1389,1384,1378.7,1372.5,1366,1361.1,1357.1,1352.7,1349.3,1345.9,1343.9,1341.8,1339.8,1337.4,1335.1,1332.7,1330.6,1327.7,1325.7,1324.8,1322.8,1321.7,1320.4,1317.7,1315,1312.5,1308.9,1305.7,1301.4,1297.5,1293,1288.7,1283.7,1279.2,1274.9,1271,1267.8,1264.3,1261.5,1257.8,1255,1251.9,1248.9,1245.8,1242.3,1239,1236.4,1233.6,1229.8,1227.7,1224.3,1221.8,1218.8,1215.7,1212.9,1210.6,1207.5,1204.2,1200.4,1196.5,1192.4,1189.8,1186.3,1183.1,1180,1176.9,1175,1172.8,1171.6,1170.4,1169.3,1167.8,1166.4,1164.1,1162.7,1160.9,1159.3,1156.7,1154.4,1151.2,1148.4,1146.8,1144.3,1141.8,1139,1136.7,1133.9,1131,1128,1124.8,1121,1118,1115,1112.6,1110.4,1107.8,1105.6,1102.8,1100.6,1098.2,1096.2,1093.6,1090.6,1087.4,1084.4,1081.9,1079.3,1077.3,1075.9,1074.3,1071.7,1069.8,1068,1065.1,1063.1,1061.4,1058.9,1056.5,1054.4,1052.7,1051,1049.3,1048.5,1046.8,1044.7,1042.5,1040.3,1038.5,1037,1034.7,1032.7,1031.7,1030.1,1028.6,1028.2,1027
3980.1,3982.9,3988.1,4001.1,4006.4,4017.4,4030.6,4043.6,4053.8,4064.4,4072.4,4085.4,4088,4095.9,4095.6,4109.5,4117.5,4128.6,4134.2,4142.9,4145.9,4160.4,4174.8,4186.8,4198.3,4210.9,4222.7,4243.7,4270,4287.9,4300.2,4314.8,4335.2,4347.3,4355.6,4367.3,4370,4375.4,4378,4380.9,4390.2,4396.8,4415.2,4428.1,4437.6,4467,4490.3,4506.7,4530.2,4543.2,4567.1,4577.4,4594.4,4608.3,4625.4,4643,4650.1,4657,4663.7,4677.7,4681,4698.3,4695.1,4694.9,4684.2,4680.5,4688,4688.5,4688.6,4685.2,4688.5,4681.4,4670.6,4663.2,4655.8,4659.3,4645.2,4628,4603.7,4576.3,4535.8,4489.2,4441,4378.2,4338.3,4287.5,4235.5,4195.9,4159.3,4132.2,4107.5,4083.2,4062.1,4042.9,4021.6,4005.5,3989.2,3973.3,3957.7,3934.3,3904,3878.9,3861.6,3837.5,3822.9,3796.9,3766.7,3739.5,3714.8,3691.1,3681.1,3666.6,3656.6,3655.7,3656.9,3679.2,3724.7,3806.4,3916.2,4037.7,3768.1,3909.8,4525.8,4721.1,4906.3,5077.2,5202.5,5278.7,5347.7,5399.9,5449.7,5469.6,5505.9,5546.2,5568.8,5604.7,5647.3,5657.1,5676.6,5695.5,5708.5,5727.1,5725.9,5734.1,5732.5,5737.5,5731.1,5720.3,5714.8,5714.3,5704,5693.8,5688.5,5688.5,545,0,0,347.9,2161.5,2377,2624.5,2619,2609.2,2598.3,2588.5,2582.1,2568.4,2557.9,2542.2,2529.7,2517.6,2504.2,2489.1,2475.2,2458.9,2444.9,2429.3,2414,2399.6,2387.5,2372.5,2362.3,2348.1,2340.7,2332.6,2324,2316.9,2306.5,2298.9,2290.3,2282.5,2275.8,2266.7,2257.5,2247.6,2239.5,2232.3,2222.8,2215.6,2208.4,2198.3,2188.2,2180.5,2173.5,2167.3,2160.4,2151.5,2143.2,2133.5,2124.6,2113.6,2102.5,2092.1,2079.3,2067.2,2058.2,2050.2,2041.3,2033.9,2025.2,2017.3,2008.2,2000.5,1992,1985.6,1978.8,1971.8,1966.2,1960.6,1954.1,1947.6,1940.7,1934.6,1927.4,1921.8,1912.7,1902.6,1894.3,1887.3,1879.8,1872.5,1865.5,1858.7,1853,1847.8,1843.7,1840.4,1835.6,1831.7,1827.4,1821.6,1814,1808.7,1801.4,1794.7,1787.2,1779.1,1771.2,1765.1,1758.8,1753.2,1749.2,1743.3,1737.9,1732,1727.1,1723.7,1718.3,1713.3,1707.1,1700.8,1695.9,1689.5,1685.1,1678.5,1672.7,1666.1,1660.9,1653.5,1648.3,1642.6,1637.5,1632.3,1625.8,1621,1615.5,1609.2,1603.8,1598,1591.8,1585.6,1580.7,1575.4,1570.6,1565,1561,1556.2,1552.4,1550.4,1547.6,1544.4,1542.2,1538.8,1536.5,1534.1,1531,1374.6,1370.7,1516.4,1510.7,1506.1,1499.7,1495.1,1489.5,1483.9,1478.2,1472.1,1466.3,1461.4,1454.6,1449.3,1444.6,1440.2,1436.8,1433.4,1429.9,1428,1425.3,1422.9,1419.3,1416.4,1413.4,1410.1,1407.5,1405,1401.3,1397.3,1393.8,1389,1384,1377.5,1372.8,1366.7,1360.9,1356.4,1352.1,1349,1346.3,1342.1,1341.8,1339.8,1336.8,1334.8,1332.4,1330,1327.4,1326,1323.6,1322.5,1320.6,1318.4,1316.6,1313.8,1310.4,1306.6,1303.3,1299.6,1295.5,1291.2,1286.8,1281.9,1278.1,1273.4,1271,1268.4,1264.6,1261.7,1258.4,1255.4,1251.9,1249.2,1245.5,1242.4,1238.9,1236.3,1233.5,1230.9,1227.8,1224.8,1222.2,1219.4,1216.5,1213.9,1210.6,1207.4,1203.2,1199.7,1195.2,1191.6,1188.3,1185.2,1181.8,1178.8,1176.5,1174.3,1172.4,1171.6,1170,1169.5,1167.9,1166.2,1164.7,1162.6,1161.4,1159.2,1156.5,1154.5,1151.9,1149,1147.2,1144.2,1142,1139,1136.6,1133.9,1131.2,1127.8,1124.6,1120.8,1117.6,1114.6,1112.6,1109.6,1107.6,1105.8,1102.8,1100.6,1098.6,1096.4,1094.2,1091.2,1088.2,1084.8,1082.2,1079.5,1077.5,1076.3,1074.5,1072.3,1070.4,1067.4,1065.3,1063.3,1061.4,1058.9,1056.4,1054.9,1053.1,1050.5,1049.4,1047.9,1046,1044.1,1041.9,1039.3,1037.6,1035.7,1034.1,1032.2,1031.1,1029.7,1029.5,1028.8,1027.8
3964.5,3969.7,3977.6,3990.4,4000.8,4005.8,4024.2,4034.6,4045.1,4055.9,4069.1,4079.6,4082.2,4087.3,4098.1,4100.8,4106.3,4112.1,4114.9,4123.6,4134.7,4148.9,4160.6,4174.8,4186.9,4201.4,4227.8,4242.6,4263.6,4284.5,4305.5,4317.2,4331.9,4346.6,4358.1,4373,4369.6,4372.3,4381,4393.2,4396.2,4408.5,4424.6,4437.5,4450.3,4476.4,4502.7,4522.9,4552.9,4566.8,4590.6,4604.7,4615,4639.1,4656.6,4674.2,4677.8,4681.3,4684.7,4695.2,4698.8,4709.2,4709.6,4694.8,4687.9,4691.2,4688,4684.5,4684.5,4673.9,4680.9,4673.7,4669.9,4666.3,4651.9,4658.8,4645,4631.2,4617.5,4579.9,4538.9,4489.4,4434.5,4381.2,4329.3,4281.4,4232.2,4187.1,4156.8,4129.4,4099.5,4080.9,4065,4051.5,4029.7,4008.2,3986.9,3973.6,3949.8,3924.3,3893.9,3871.8,3849.6,3820.7,3801.4,3780.6,3755.2,3723.6,3697.4,3682.8,3672.7,3667.2,3660.1,3663.4,3672.3,3690.4,3739.3,3817.9,3932.2,4054.5,4190.8,4359,4532.4,4723.9,4920.9,5085.2,5196.7,5282.2,5341.7,5394.3,5437.9,5473,5500.1,5524.7,5561.5,5587.8,5608.5,5640,5659.6,5679.3,5699,5706.8,5704,5703.1,5712.4,5705.8,5710.1,5709.8,5693.5,5688.5,5683.7,5678.2,5673,5668,0,0,0,0,1613.7,2637.8,2625.7,2616.7,2607.8,2593.7,2588.4,2578.7,2566.4,2552.6,2537.8,2526.5,2513.4,2495.9,2481.7,2466,2449.1,2436.2,2421.7,2408.3,2391.1,2376.4,2364.3,2351.7,2341.1,2331,2325.7,2316.2,2307.5,2298.8,2291,2284.3,2276.7,2270.8,2260,2251.7,2243.6,2235.4,2227.5,2219.4,2213,2206,2198.1,2189.5,2181.9,2174.1,2169.5,2159.6,2152.9,2144.2,2135.7,2124.6,2112.8,2101.2,2089.1,2077.9,2066.5,2055.6,2046.2,2038.6,2030.6,2022,2014,2005,1996.6,1989,1981.9,1975.7,1968.2,1960.3,1954.6,1949.5,1943.9,1936.4,1930.5,1924,1916.8,1908,1900.2,1890.7,1883.2,1876.1,1870.2,1863.2,1857.2,1851,1846.6,1839.9,1836.1,1832.3,1827.8,1824.2,1818.4,1811.8,1805,1800.7,1793.6,1787.3,1778.6,1771,1763.6,1758.7,1753.6,1748.2,1743.2,1738.3,1733.4,1729,1723.1,1718.2,1712.8,1708,1701.2,1696.5,1689.6,1684.6,1678.5,1672.3,1666.1,1660.4,1654,1648.3,1642.3,1636.7,1631.1,1625.3,1619.4,1613.8,1607.5,1601.8,1595.6,1590.5,1585.1,1579.8,1575,1569.8,1565,1560.2,1556.2,1553.2,1550.8,1547.6,1544.1,1541.8,1538.4,1536.5,1534.5,1531.8,1527,1522.1,1517.1,1511.3,1505.8,1500.1,1494.4,1489.5,1482.9,1477.3,1471.5,1465.4,1459.7,1453.6,1448.7,1443.5,1440.5,1436.8,1433.6,1430.1,1427.6,1424.7,1422.2,1418.7,1416.4,1412.1,1408.4,1406.2,1403.2,1400.3,1396.1,1392.9,1387.9,1382.8,1377.9,1371.6,1366,1360.9,1356.1,1352.3,1349,1345.9,1343,1340.7,1338.9,1336.6,1333.9,1331.5,1329.1,1327.1,1324.8,1322.5,1320.4,1318.7,1316,1313.8,1310.7,1307.7,1303.8,1299.7,1296.1,1292.3,1288.7,1285,1279.6,1276.7,1273.5,1271,1267.6,1264.1,1261.5,1258.3,1255.4,1251.9,1248.8,1245.1,1242.2,1239.5,1236.8,1233.5,1231.3,1228.1,1225.4,1222.3,1219,1216.1,1212.8,1209.9,1206,1202.1,1198,1193.8,1189.7,1187,1183.9,1180.9,1178.1,1175.5,1173.5,1171.1,1170.3,1169.5,1168.6,1167.3,1165.3,1163.6,1162.2,1161,1158.8,1155.9,1153.9,1151.5,1148.6,1146.5,1144.4,1142.3,1139,1137,1133.7,1130.6,1127.2,1124,1120.8,1117,1113.8,1111.2,1109,1107.8,1105.8,1103,1100.8,1098.8,1096.8,1094,1091.6,1089.2,1086.2,1083.4,1080.8,1078.5,1076.4,1075.1,1072.4,1070.4,1068.1,1065.3,1063.7,1061.5,1059.2,1056.9,1054.8,1052.5,1050.6,1049.3,1047.5,1045.7,1043.5,1041.7,1039,1037.4,1035.3,1033.7,1031.9,1030.7,1029.9,1029.5,1028.4,1028.4
3953.9,3956.5,3964.2,3981.9,3989.9,4005.3,4015.7,4026.1,4041.9,4055.1,4062.9,4065.6,4078.9,4081.4,4078.9,4089.7,4095.1,4098.1,4103.7,4112.1,4126,4137.6,4149,4166.1,4183.6,4197.8,4215.8,4241.6,4259.2,4274.3,4301.3,4319.4,4333.9,4348.4,4357.3,4369.5,4369,4377.8,4390,4393,4402.3,4415,4427.6,4440.5,4456.8,4486.3,4512.6,4529.2,4562.8,4580.1,4597.3,4621.6,4638.9,4659.8,4670.2,4688.3,4702.8,4702.2,4705.9,4709.7,4709.4,4713.2,4724,4695,4695.1,4691.5,4684.2,4680.8,4681.1,4677.5,4673.7,4666.3,4666.3,4662.6,4655.5,4655.8,4645.3,4635.2,4617.7,4586.6,4535.7,4492.7,4434.5,4381.1,4322.8,4278.3,4229.3,4186.6,4153.8,4129,4107.7,4091.8,4072.4,4051.1,4030.3,4016.3,3991.9,3965.8,3939.9,3914.5,3881.9,3847.5,3827.9,3796.9,3776.1,3757.6,3737,3708.2,3686.4,3667.6,3666.7,3665.7,3663.1,3667.7,3675.9,3698.9,3750.2,3836.8,3954.3,4076.9,4208.7,4377.7,4552.4,4745.8,4928.5,5088,5191.7,5277,5354.9,5382.8,5431.4,5466.6,5486.9,5512.4,5538.4,5564.5,5591.1,5622.1,5632.8,5651.9,5665.9,5678.9,5692.9,5686.8,5690.6,5689.2,5689.2,5673.4,5662.9,5662.9,5662.9,5657.4,5646.6,5647.4,517.5,466.5,0,0,0,1854.7,2624.4,2615.6,2607.7,2593.6,2586.1,2578.8,2565.3,2550.3,2536.5,2523.3,2507.2,2491.8,2473.7,2458.8,2443.1,2429.4,2414,2399,2384.9,2370.9,2357.2,2344.6,2333,2324.9,2316.9,2311,2300.6,2292.2,2284.4,2277.6,2270,2262.6,2255,2245.4,2238.9,2231.5,2224.3,2215.4,2212.3,2203.6,2196.5,2187.9,2181.8,2175,2168.9,2160.4,2152,2145.6,2134.5,2124,2112.8,2099.8,2088.6,2075.9,2064.6,2052.9,2045.4,2036.1,2027.2,2020,2010.9,2001.8,1994,1985.8,1978.8,1971.9,1964.3,1959.1,1951.7,1945.3,1939,1932.5,1927.2,1920.4,1912.1,1905.7,1896,1886.6,1880,1871.9,1865.1,1859,1852.6,1847.3,1843.4,1837.7,1832.4,1828.6,1825.7,1820.5,1815.2,1809.2,1803.4,1798.3,1791.8,1785.2,1779.1,1771.2,1766,1759.5,1754.1,1749.2,1743.1,1738.8,1732.3,1729.6,1723.6,1718.6,1713.3,1708,1702.2,1696.8,1690.4,1685.6,1679.4,1673.6,1666.7,1660.2,1654.1,1647.8,1642.7,1637.5,1631.1,1624.4,1618.7,1613,1607.5,1601.8,1595.7,1590.1,1585.5,1579.8,1575.8,1570.2,1566.2,1560.6,1557,1553.1,1551.2,1547.2,1389.4,1386.7,1539.1,1536.6,1534.9,1531.4,1528.6,1523.2,1518,1512.8,1507.3,1501.3,1494.1,1488.6,1483.3,1477.4,1471.9,1465.5,1459.8,1455,1448,1444.6,1440.1,1437.1,1434.2,1430.4,1427.8,1425,1421.4,1418.7,1414.7,1411.5,1407.8,1405,1402.3,1398.7,1395.4,1391.5,1387.9,1382.8,1377.2,1371.9,1365.6,1361.3,1357.3,1352.9,1349.5,1345.9,1343.1,1340.5,1338.1,1336.3,1333.6,1330.6,1328.2,1325.7,1323.7,1321.4,1318.7,1316.3,1314.1,1311,1307.3,1304.2,1299.5,1295.6,1291.6,1288.9,1285.2,1281.2,1277.4,1275,1271.1,1268.8,1265.9,1263,1260.5,1257.1,1254.6,1251,1247.6,1244.9,1241.6,1239.3,1237.3,1233.9,1231.9,1228.7,1225.4,1222.5,1218.9,1215.5,1211.6,1207.9,1204.3,1199.9,1195.9,1191.7,1187.8,1185.4,1181.9,1179.7,1176.9,1174.7,1172.7,1170.9,1169.3,1169.1,1167.7,1166.9,1164.7,1163.2,1161.4,1159.7,1157.5,1154.9,1152.8,1150.2,1148,1146.1,1144,1141.6,1138.6,1136.3,1133.4,1130.6,1127.4,1123.8,1120.2,1116.4,1113.6,1110.4,1108.8,1107,1105.6,1103.2,1101.2,1099,1097.4,1095.2,1092.8,1090.2,1087.2,1084.4,1081.6,1079.3,1077.2,1075.4,1072.8,1070.4,1067.9,1065.1,1063.5,1061.4,1059.2,1056.8,1054.3,1052.6,1051,1049,1047,1045.9,1043.5,1041.7,1038.7,1037.2,1035.1,1033.2,1031.8,1030.7,1029.9,1029.8,1028.9,1028.5
3940.9,3951.1,3963.9,3971.4,3981.5,3994.4,4004.8,4020.3,4033.4,4049.3,4046.6,4062.6,4062.5,4073.4,4068.2,4076.2,4081.6,4087,4095.5,4098.2,4109.3,4123.3,4137.4,4162.6,4168.5,4188.6,4209,4234.7,4255.2,4273,4291.2,4303.3,4327.1,4338.8,4356.6,4369,4368.7,4377.6,4383.8,4399.2,4399.1,4424.4,4424.5,4443.6,4459.8,4483,4502.4,4522.6,4552.6,4573.2,4597.3,4614.5,4635.3,4652.7,4670.4,4691.6,4709.4,4709.2,4705.7,4706,4706,4713.2,4716.9,4695.6,4684.5,4674.1,4670.1,4663.3,4663.3,4656.1,4663.1,4652.5,4656.2,4656.2,4652.4,4649.3,4645.9,4628.6,4604.2,4573.4,4529.3,4479.8,4428.4,4374.8,4322.7,4281.4,4229.3,4183.6,4150.7,4123.4,4107,4086.2,4067.3,4048.6,4029.6,4005.5,3981.7,3957.8,3929.7,3899.5,3867.2,3840.5,3811.5,3783.1,3762.3,3746.3,3723.6,3697.2,3677.5,3663.3,3658.1,3657.7,3657,3663.9,3679.1,3702.5,3762.6,3849.9,3963.1,4088.9,4233,4394,4569.8,4753,4932.2,5092.5,5200.4,5285.3,5344.7,5387.1,5425.5,5460,5474.8,5500.8,5516.8,5546.7,5577.3,5588.3,5608.6,5628.6,5643,5667.8,5667,5676,5675.3,5664,5663.1,5657.9,5657.6,5642.1,5641.9,5641.9,5626.2,5618.3,0,0,0,0,817.6,2641.2,2623.1,2614.1,2607.6,2591.3,2584,2573.4,2562.6,2548.9,2534.3,2520.9,2505.8,2489.6,2470.3,2456.6,2439,2423.7,2410.2,2394.4,2380.1,2364.6,2352,2339.5,2327,2319.7,2310.9,2302.4,2294.9,2284.4,2277.8,2271,2265.2,2260.2,2251.1,2242.5,2234.7,2227.5,2221,2213,2208.3,2200.4,2192.5,2187.2,2180.3,2173.5,2167.4,2159.6,2149.3,2141.1,2131.5,2121.7,2109.4,2095.8,2084.2,2071.6,2061.4,2050.9,2042.6,2034.7,2027.2,2018.5,2008.9,2000.6,1992.7,1983.9,1976.2,1968.7,1962.2,1956.6,1949.6,1944,1937.5,1930.6,1923.6,1916.9,1909.2,1902.7,1894.9,1885.3,1878.3,1870.7,1865.2,1857.9,1851.1,1845.6,1840.6,1834.9,1830.3,1825.2,1821.5,1817.2,1812.5,1806.9,1801.9,1796.2,1790.2,1784.7,1778.4,1771.8,1765.2,1758.5,1754,1748.7,1743.6,1738.2,1733.8,1729.1,1723.1,1718.2,1713.7,1707.9,1703.2,1695.9,1690.9,1686,1680.2,1674,1667.7,1661.2,1654.1,1648.8,1643.2,1637.8,1631.9,1626.4,1618.7,1613.9,1608.3,1603,1596.5,1591,1585.9,1580.6,1575.4,1572.2,1566.2,1561,1556.6,1553.4,1550.4,1547.2,1234.3,1231.9,1538.6,1536.2,1535.6,1532.2,1528.7,1524,1518.5,1513.1,1507.7,1502,1494.8,1489,1483.3,1477.7,1471.2,1465.6,1459.5,1453.9,1449.1,1445,1441.1,1438.3,1435.1,1431.1,1428.1,1424.7,1421.7,1418.8,1414.6,1411.3,1406.6,1403.8,1400.9,1397.6,1393.6,1389.9,1386.4,1382.5,1376.8,1371.3,1366,1361.3,1356.7,1353.1,1349.2,1345.9,1343.5,1340.8,1338.4,1335.4,1333,1197.9,1327.9,1325,1322.5,1319.3,1316,1313.6,1311.1,1307.2,1303.8,1300.4,1295.8,1291.3,1288.1,1284.6,1281.4,1277.6,1274,1271.2,1268.7,1266.4,1264.1,1261.7,1258.9,1256.1,1253.4,1250.5,1247.6,1244.4,1241.7,1238.3,1236.8,1233.9,1231.1,1228.2,1226,1222.7,1218.6,1214.5,1210.7,1206.4,1202.3,1197.7,1194.5,1190.2,1187,1184.2,1181.4,1179.1,1176.2,1174.2,1172,1169.9,1168.9,1168.3,1167.2,1165.8,1164.1,1162.6,1160.4,1158.3,1156.1,1153.4,1150.6,1148.4,1146.2,1143.5,1141.5,1139.9,1136.9,1134,1131.6,1129.6,1126.6,1123.4,1120.6,1116.4,1113.2,1110.4,1108.6,1106.6,1105,1103.4,1101.2,1099.6,1098,1096,1093.8,1091,1088.4,1085.6,1082.8,1080.4,1078,1076.1,1073.4,1071,1068,1065.7,1063.6,1061.5,1059.3,1057.2,1054.8,1053,1051,1049.1,1047.6,1045.8,1044.1,1041.8,1039.2,1037.7,1035.3,1033.8,1032.7,1031.6,1030.6,1030,1029.5,1028.6
