0,0,0,0,0,0,0,0,0,5110.5,5132,5175,5241,5286,5378.5,5474,5624,5728.5,5837.5,5979,6038,6068.5,6099.5,6128.5,6128.5,6070.5,6070.5,6070.5,6042.5,6039.5,6009,5865.5,5676.5,5524,5355.5,5241,5175,5048,4946,4887,4868,4849,4849,4830,4868,4906.5,0,2463,4966.5,4966.5,4987,5049,5133.5,5155.5,5158,5225,5318.5,5343.5,5395.5,5443.5,5471,5498.5,5570,5592,5644,5690.5,5792.5,5899.5,6070.5,6193,6286.5,6417.5,6518.5,6588,6622.5,6658,6694.5,6694.5,6694.5,6694.5,6694.5,6694.5,6658,6622.5,6586.5,6552,6552,6516.5,6483,6483,6415.5,3174.5,3174.5,0,0,0,0,0,0,0,0,0,0,0,0,0,0,0,0,0,0,0,0,0,0,0,753.5,752,750,747,745,743,740.5,738,736,733.5,731.5,730,728.5,727,726,725,724,722,720,717.5,715,712.5,710.5,708.5,707,704,702.5,700.5,699,697,695,693,691.5,689,687.5,685.5,683,681.5,679,677,674.5,672.5,670.5,668.5,666,664,662.5,661,659,658,657,655,653.5,653,651,650,648,646.5,644.5,643.5,641,639.5,638,637,636,634.5,633.5,632,630.5,629,627.5,626,625,623,621,619.5,618,617,616,614.5,613,612,612,610,610,608,607,606,604,603.5,603,601.5,601,601,601,601,300.5,8050.5,8157,8211,8266.5,8266.5,8379,8553,8673,8861,8990.5,8990.5,9123.5,9191,9191,9123.5,9123.5,9123.5,8990.5,8990.5,8926.5,8926.5,8932,8872,8883,8826,8826,8716.5,8664,8664,8664,8664,8594.5,8594.5,8594.5,8594.5,8579.5,8579.5,8514,8568,8568,8616.5,8616.5,8675,8799,8799,8861,8861,8735,8797,8797,8797,8735,8735,8735,8735,8735,8735,8735,8735,8675,8675,8675,8675,8613,8494.5,8497.5,8382,8328,8328,8269.5,8212.5,8104.5,8212.5,8266.5,8266.5,8266.5,8322,8322,4161,4161,0,0,0,0,0,0,0,0,0,0,0,637.5,0,639,1278,1276.5,1279,1280,1281.5,1281.5,1283,1283,1283,1284.5,1283,1283,1283,1280,1280,1279,1278,1279,1279,1279,1279,1277.5,1277.5,1277.5,1277.5,1277.5,1277.5,1278,1279,1279,1278,1278,1279,1279,1278,1275,1273.5,1273.5,1269.5,1267.5,1264.5,1262,1256.5,1253,1249.5,1245.5,1240.5,1234,1229,1224,1220.5,1217,1215,1215,1212,1211,1211,1208.5,1206,1203,1200,1198,1196,1192,1192,1189,1186.5,1184.5,1182,1179.5,1178.5,1175,1173,1169.5,1165.5,1163,1161,1157.5,1155.5,1152,1149,1147,1145,1143,1143,1140,1140,1138,1140,1140,1140,1141.5,0,0,0,0,0,0,0,0,0,0,0,0,699,698.5,697,696.5,693.5,692,690,688,686,683,681,679,677.5,676,675,673,672,671,669.5,668,667.5,667,665.5,665,664,662.5,661,660,660,659,658,657,657,657.5,657,657,657,657,657,657,657,657,657,657.5,658,659,659,659.5,660,661,662,664,664.5,665.5,666.5,667.5,668.5,669.5,670,671,671.5,671.5,671.5,671.5,671.5,671,669.5,669.5,669,668.5,666.5,666,665.5,664,662.5,661,659,658,656.5,654.5,652.5,651,649.5,648,646,644,643,641,639,636.5,634,315,313.5,623.5,620.5,615.5,612.5,610.5,304,300.5,0,0,0,0,531.5,528,526.5,525,523.5,521,519,516,514,256,255,508.5,506.5,504.5,504,502,500.5,499,497.5,496,495,493.5,491.5,490.5,489.5,488,486,485,483.5,482,481,479.5,478,476.5,475.5,474,473,471.5,470.5,469.5,468.5,467.5,466,464.5,464,462.5,461.5,460.5,460,458.5,457.5,456.5,455,227,226.5,226,450.5,449.5,448.5,448,447,446.5,445.5,445,444.5,443.5,442.5,442,441,440,440,439.5,439,438.5,438,438,437.5,437.5,437.5,437.5,437,437,437.5,438,439,439,439,439,219.5,0,0,0,0,0,0,259.5,520,520.5,520.5,521.5,521.5,522.5,522.5,523.5,523.5,523.5,524,524,524.5,525,525,0,0,525.5,0,1770,1770,1772.5,1775,1777.5
0,0,0,0,0,0,0,0,0,5110.5,5132,5197,5241,5309,5402,5523,5624,5756,5865.5,5979,6038,6128.5,6160.5,6160.5,6193,6131.5,6131.5,6131.5,6131.5,6128.5,6068.5,5894.5,5730,5574,5402.5,5286,5175,5048,4926,4849,4830,4830,4811,4830,4868,0,0,2463,4946,4966.5,5007,5049,5133.5,5155.5,5158,5201.5,5293.5,5343.5,5369.5,5417,5465,5514.5,5514.5,5564,5587,5661.5,5792.5,5899.5,6011.5,6160.5,6286.5,6351,6485.5,6554.5,6588,6622.5,6659,6659,6694.5,6694.5,6694.5,6659,6622.5,6622.5,6588,6552,6552,6518.5,6518.5,6518.5,6450,3174.5,0,0,0,0,0,0,0,0,0,0,0,0,0,0,0,0,0,0,0,0,0,0,0,754,753,752,750.5,747.5,745.5,743.5,741,738.5,736.5,734,732,730.5,730,728.5,727,726,724.5,723.5,721,719,716,713.5,711.5,709,707,705,703,701.5,699.5,698,696,694,692,690.5,688,685.5,684,682,680,677,675,673,670.5,669,666.5,665,663,661,660,658.5,657,655.5,654.5,653,651.5,650,649,647.5,645.5,643.5,642,640.5,639.5,638,636,635.5,634,632.5,631.5,629.5,628,626.5,625,623.5,622,620.5,619,618,616.5,615.5,614.5,613,612,611,610,609,607,606,604.5,603.5,603,603,601.5,601,600.5,601,300.5,0,8157,8266.5,8266.5,8379,8436,8613,8861,8990.5,9123.5,9260.5,9330,9330,9402,9474,9402,9260.5,9260.5,9191,9123.5,9058,8994,8994,8932,8941.5,8941.5,8883,8756.5,8701,8701,8701,8633.5,8579.5,8633.5,8514,8514,8568,8504,8568,8504,8559.5,8616.5,8739,8799,8799,8861,8926.5,8926.5,8990.5,8861,8861,8861,8861,8861,8799,8861,8799,8799,8735,8735,8675,8739,8799,8613,8616.5,8497.5,8382,8328,8328,8269.5,8104.5,8157,8160,8212.5,8266.5,8266.5,4105.5,4161,4161,0,0,0,0,0,0,0,0,0,0,0,0,637.5,1276.5,1276.5,1275,1276.5,1278,1279,1279,1280.5,1280.5,1280.5,1281.5,1281.5,1280,1280,1280,1280,1278,1276.5,1276.5,1276.5,1279,1277.5,1277.5,1277.5,1277.5,1277.5,1277.5,1277.5,1277.5,1279,1279,1279,1278,1278,1279,1279,1278,1276.5,1273.5,1272.5,1269.5,1268.5,1266,1261,1258,1253,1249.5,1244.5,1238,1233,1228,1223,1218,1216,1215,1213.5,1212,1211,1211,1208.5,1206,1204,1201.5,1199,1198,1196,1193,1192,1189,1186.5,1185.5,1184.5,1180.5,1178.5,1176.5,1172,1169.5,1167.5,1165.5,1161,1157.5,1155.5,1150,1148,1145,1143,1143,1141.5,1140,1139,1140,1140,1140,1143,0,0,0,0,0,0,0,0,0,0,0,0,350.5,700.5,699.5,697,695,693.5,691.5,690,688,685,683,681.5,678.5,678,675.5,675,673,672.5,671,670,669,667.5,667,666,665,663.5,662.5,661,660.5,659.5,659,659,658,658.5,658.5,658.5,658.5,657.5,657.5,658,658,658,658.5,659,659,660,661,661,662.5,664,664,666,666.5,668,669,669.5,670,671,671.5,672.5,672.5,672,672,672,672,672,671.5,670.5,669.5,668.5,668,666.5,665.5,664.5,663.5,661.5,659.5,658.5,657,655,654,651.5,650,648,646.5,644.5,643,640.5,638.5,318,0,0,0,0,620,616.5,614,306.5,0,0,0,0,0,531.5,528.5,526.5,525.5,523.5,522,520,517,515,512.5,510.5,509,507,505.5,504.5,503,501.5,500,498.5,497,495.5,494.5,493,491.5,490,488.5,487,485.5,484.5,483,481,480,478,477,476,474,473,472,470.5,469.5,468.5,467.5,466,465,464,462.5,461.5,460.5,459.5,458.5,457,455.5,454.5,454,452.5,451.5,450.5,449.5,448.5,447.5,447,446,445,444,443.5,442.5,441.5,441,440.5,439.5,439,438,437.5,437,436.5,436,436,435.5,435.5,435.5,435,434.5,435,435,435.5,435.5,436,436,436.5,436.5,0,0,0,0,217,0,0,260.5,260.5,521,521.5,522,522.5,522.5,523,523.5,524,524,524.5,525,525,525.5,262.5,0,526.5,0,0,1770,1770,1775,1777.5
0,0,0,0,0,0,0,0,0,5132,5153.5,5219,5263,5309,5426,5523,5624,5756,5865.5,6038,6068.5,6128.5,6160.5,6193,6193,6164,6164,6164,6160.5,6160.5,6099.5,5951,5757.5,5574,5450,5309,5175,5048,4926,4849,4811,4811,4811,4811,2405.5,0,0,4926.5,4946,4986.5,5007,5048,5111.5,5154,5176,5201.5,5293.5,5340,5391,5412.5,5465,5487,5536.5,5587,5633.5,5685.5,5763.5,5899.5,5984,6131.5,6256,6351,6453,6485.5,6554.5,6588,6622.5,6659,6659,6659,6659,6588,6588,6588,6552,6518.5,6518.5,6518.5,6518.5,6485.5,0,0,0,0,0,0,0,0,0,0,0,0,0,0,0,0,0,0,0,0,0,0,0,0,754.5,754,753.5,752.5,750.5,748,746,744,742,739.5,737.5,736,733.5,732,731,729.5,728.5,727.5,725.5,724,722,719.5,717.5,714.5,712,709.5,707.5,705.5,703.5,702,700,698.5,696.5,694.5,693.5,691,689,686.5,684.5,682,679.5,678,675.5,673,671,669,666.5,665,663.5,661.5,660.5,658.5,657.5,656.5,655,653.5,652,651,650,648,646.5,645,643,641.5,640,638.5,637,636,635,633.5,632.5,630.5,629.5,628,626,624.5,623.5,621.5,620.5,618.5,617.5,616.5,615,613.5,613,612,610.5,609,608,606,604.5,604,603,602.5,602,601,601,600.5,601.5,0,8212.5,8379,8436,8553,8673,8925,9123.5,9260.5,9332.5,9402,9402,9476,9476,9548,9330,9260.5,9191,9260.5,9123.5,9123.5,9056,8990.5,8990.5,8990.5,8926.5,8864.5,8804.5,8746,8680.5,8680.5,8680.5,8680.5,8623.5,8623.5,8623.5,8623.5,8559.5,8623.5,8623.5,8680.5,8680.5,8804.5,8864.5,8864.5,8994,8994,8864.5,8990.5,8926.5,8926.5,8861,8926.5,8861,8861,8861,8861,8799,8799,8799,8799,8799,8799,8675,8616.5,8497.5,8382,8328,8217,8217,8160,8050.5,3999,3999,4105.5,4105.5,4105.5,0,0,0,0,0,0,0,0,0,0,0,0,0,635,1271,1273.5,1275,1276.5,1276.5,1276.5,1276.5,1279,1279,1279,1277.5,1277.5,1277.5,1279,1278,1278,1278,1276.5,1275,1275,1275,1277.5,1277.5,1277.5,1276,1276,1277.5,1277.5,1277.5,1277.5,1279,1279,1279,1279,1278,1279,1278,1278,1276.5,1273.5,1272.5,1269.5,1268.5,1266,1261,1258,1253,1249.5,1244.5,1238,1233,1228,1223,1218,1216,1215,1213.5,1212,1211,1211,1208.5,1207.5,1206,1204,1201.5,1200,1198,1196,1194.5,1192,1190,1189,1186.5,1184.5,1183.5,1179.5,1176.5,1174,1170.5,1167.5,1165.5,1161,1157.5,1152,1150,1147,1144,1143,1141.5,1140,1139,1140,1141.5,1141.5,1143,0,0,0,0,0,0,0,0,0,0,0,0,0,0,0,698,697,694.5,692.5,691,688.5,686.5,684.5,681.5,679.5,678.5,677,675.5,674,673,672.5,671,670,669.5,668,667,666,665,663,662,661.5,661,660,659,659,659,659,659,659,659,659,659,659,659,659.5,660,661,661,662.5,664,664.5,666,667,668,669,670.5,671.5,671.5,672.5,672.5,673,673.5,673,673.5,673.5,673,673,672.5,672,671.5,670.5,669.5,668.5,667.5,666.5,665.5,663.5,661.5,660.5,659,657.5,656.5,654,652.5,650.5,648.5,646.5,644.5,643,640.5,638,0,0,0,312.5,0,309.5,616,615,306.5,0,0,0,0,0,0,263,525,523.5,521.5,521,518.5,516,514,511.5,509.5,507.5,506.5,505,504,502.5,501.5,500,498.5,496.5,495,494,492.5,491,489.5,487.5,486,485,483,481.5,480,478.5,477,476,474,473,472,470.5,469.5,468.5,467.5,465.5,464.5,463.5,462.5,461.5,460.5,459,458,457,455.5,454.5,453.5,452.5,451.5,450.5,449.5,448.5,447,446.5,445,444.5,443.5,442.5,441.5,441,440,440,439,438,437.5,436.5,436,436,435.5,435,435,434.5,434.5,433.5,433.5,433.5,433.5,433.5,433.5,433.5,434.5,434,434,434.5,434.5,434,434,433,433,433,432.5,0,0,0,521.5,522,522.5,523.5,523.5,524,524,524,524.5,525,525.5,525.5,525.5,526.5,526.5,527,528,264,264,885,887.5
0,0,0,0,0,0,0,0,5132,5132,5132,5197,5241,5332,5402,5523,5676,5756,5865.5,6038,6128.5,6160.5,6190.5,6223,6193,6164,6164,6197,6193,6160.5,6128.5,5951,5783.5,5599,5450,5309,5175,5048,4926,4830,4811,4792.5,4792.5,0,2405.5,0,2463,4906.5,4946,4986.5,4986.5,5027.5,5111.5,5175.5,5176,5199,5312.5,5336.5,5408.5,5456.5,5482.5,5532,5559.5,5582.5,5657.5,5709.5,5788.5,5869.5,5984,6099.5,6223,6320,6385.5,6417.5,6485.5,6518.5,6588,6588,6588,6588,6588,6588,6588,6554.5,6518.5,6518.5,6518.5,6518.5,6485.5,3311,0,0,0,0,0,0,0,0,0,0,0,0,0,0,0,0,0,0,0,0,0,0,0,0,754.5,753.5,753,752.5,751,749,746.5,745.5,743,740.5,739,737,735.5,733.5,732.5,731.5,730,729,728,725.5,723,720,718,715,713,710,708,705,704,701.5,700,699,697,695.5,694,692,690,687.5,685,682.5,680,678.5,675.5,673.5,671.5,669,667.5,665.5,664,662,660.5,660,658,657,655.5,655,653.5,652,650,648.5,647.5,646,644,642,641,639,638,636.5,635.5,634.5,633,631.5,630,629,627.5,625.5,624,622.5,620.5,620,619,617,616,615,613,612,611.5,610,608.5,606.5,605.5,604,603.5,602.5,602,600.5,600.5,600.5,601,0,8379,8553,8613,8673,8735,9058,9193,9332.5,9332.5,9476,9476,9476,9548,9476,9402,9260.5,9193,9193,9193,9123.5,9123.5,9056,8990.5,8990.5,8990.5,8925,8861,8799,8799,8799,8675,8675,8616.5,8680.5,8616.5,8616.5,8616.5,8680.5,8680.5,8680.5,8746,8804.5,8932,8932,8994,9063.5,8932,8994,8994,8994,8994,8926.5,8926.5,8864.5,8861,8861,8861,8861,8799,8799,8861,8864.5,8675,8616.5,8497.5,8442,8328,8217,8108.5,7999,7999,3999,3999,3999,4105.5,0,0,0,0,0,0,0,0,0,0,0,0,0,632.5,1267,1268.5,1271,1273.5,1272,1273.5,1273.5,1273.5,1276.5,1275,1276,1275,1275,1275,1276.5,1276.5,1276.5,1276.5,1273.5,1273.5,1275,1275,1276,1276,1276,1276,1276,1277.5,1277.5,1277.5,1277.5,1279,1279,1279,1279,1278,1278,1278,1276.5,1276.5,1273.5,1272.5,1269.5,1267.5,1264.5,1261,1258,1253,1249.5,1243,1238,1233,1228,1224.5,1219.5,1217,1216,1213.5,1212,1211,1211,1208.5,1208.5,1206,1204,1203,1200,1198,1198,1196,1194.5,1192,1191,1189,1186.5,1185.5,1183.5,1179.5,1176.5,1174,1170.5,1167.5,1164,1160,1154,1151,1149,1145,1144,1141.5,1141.5,1140,1143,1143,1143,1143,572.5,0,0,0,0,0,0,0,0,0,0,0,0,351,350.5,349.5,698,696.5,694.5,692.5,690.5,688,685.5,683.5,681,679,678,676,675,674,673,672.5,671,670,669.5,668,667,665.5,664.5,664,663,662,661,661,660.5,661,661,661,661,660.5,660.5,660.5,660.5,661,661,661,662,664,664,666,666.5,668,669,669.5,671.5,672.5,673,673.5,673.5,673.5,674,674,674.5,674.5,674,674,674,673.5,672.5,672,671.5,670.5,669.5,668.5,667,666,664.5,663,661,659.5,658.5,657,654.5,652.5,651,648.5,646.5,645,642.5,640,637.5,635,631.5,628,312,620.5,617.5,306.5,306,304.5,0,0,0,0,0,0,0,524.5,522.5,521,520,517.5,515,513,511,509,507.5,505.5,504.5,503,502,500.5,499.5,498,496.5,494.5,493,491.5,490,488,486.5,485,483,482,481,479.5,478,476.5,475,473,472,471,469.5,468.5,467,465.5,464.5,463.5,462.5,461.5,460.5,459.5,457.5,456.5,455.5,454,453,452,451.5,450.5,449.5,448.5,447.5,446.5,445.5,444,443,442,441,440.5,439.5,439,438,437,436.5,436,435.5,435,434.5,434.5,433.5,433.5,433,433,432.5,432.5,432,432,432,432.5,432,432,432,432,432,432,432,432,431.5,431.5,432,0,0,0,0,0,261,522.5,523.5,523.5,524,262,524.5,524.5,525,525.5,525.5,525.5,526.5,526.5,527,527.5,528.5,528.5,264.5,0
0,0,0,0,0,0,0,0,5132,5175,5153.5,5197,5263,5355,5426,5523,5676,5756,5865.5,6038,6128.5,6190.5,6223,6223,6193,6164,6193,6197,6193,6190.5,6158.5,5981,5783.5,5599,5474,5332,5197,5068.5,4926,4849,4811,4811,4811,2387,4811,2424.5,4906.5,4926.5,4946,4986.5,5007,5048,5110.5,5175.5,5197.5,5220.5,5334.5,5380.5,5428.5,5502.5,5502.5,5578.5,5606,5630,5681.5,5706.5,5814.5,5869.5,5953.5,6070.5,6160.5,6256,6320,6385.5,6417.5,6450,6518.5,6518.5,6518.5,6518.5,6518.5,6518.5,6518.5,6518.5,6518.5,6518.5,6485.5,6485.5,6453,6453,0,0,0,0,0,0,0,0,0,0,0,0,0,0,0,0,0,0,0,0,0,0,0,755,754.5,753.5,753.5,752,751,749.5,747.5,746,744.5,742.5,740.5,738,736.5,735.5,734,733,731.5,730,729,727,724.5,721.5,718.5,716,713.5,710,708.5,706,704,702,700.5,699.5,698,695.5,694.5,692.5,690.5,688.5,685.5,683.5,681,678.5,676,674,672,669.5,668.5,666.5,665,663,662,660.5,660,658,657,655.5,654.5,653,651.5,650,648.5,646.5,645,643.5,642,640.5,638.5,637.5,636.5,635,634,632.5,630.5,630,628.5,627,625,624,622,620.5,619.5,617.5,616.5,615,614,613,612,610,609,607,605.5,604.5,603.5,602.5,602,601,600.5,600.5,601,0,0,0,8799,8799,8926.5,9127.5,9339,9406.5,9483,9552.5,9552.5,9552.5,9552.5,9552.5,9406.5,9265,9265,9199.5,9199.5,9127.5,9127.5,9058,9058,8994,8994,8926.5,8861,8797,8797,8735,8673,8673,8675,8675,8616.5,8616.5,8616.5,8680.5,8680.5,8680.5,8746,8872,8941.5,9001.5,9063.5,9063.5,9135.5,9063.5,9063.5,9063.5,8994,8926.5,8926.5,8926.5,8861,8861,8861,8861,8861,8861,8926.5,8864.5,8735,8675,4398.5,4336.5,4276.5,0,0,0,0,0,0,0,0,0,0,0,636,635,1278,1276.5,1273.5,1271.5,1270,1267,1266,0,632.5,1265,1267,1268.5,1271,1272,1272,1271,1271,1273.5,1273.5,1275,1275,1273.5,1273.5,1273.5,1273.5,1275,1273.5,1273.5,1273.5,1275,1275,1276,1276,1276,1277.5,1277.5,1277.5,1277.5,1279,1279,1279,1279,1279,1279,1278,1278,1276.5,1275,1275,1272.5,1269.5,1269.5,1267.5,1264.5,1261,1256.5,1251.5,1248,1243,1238,1233,1228,1224.5,1219.5,1218,1216,1214.5,1213.5,1211,1211,1208.5,1208.5,1206,1204,1203,1200,1200,1198,1198,1196,1194.5,1192,1191,1189,1187.5,1185.5,1182,1179.5,1176.5,1174,1169.5,1166.5,1161,1156.5,1153,1149,1146,1144,1144,1141.5,1141.5,1144,1143,1143,1144,1145,572.5,571.5,1143,0,0,0,0,0,0,0,0,0,0,0,701,700,698,695.5,693.5,691.5,688.5,686.5,684.5,681.5,680,678.5,677.5,675.5,675,674,673,672.5,671.5,670,669.5,668.5,667,666,665,664.5,664,663,662,662,662,662,661.5,661.5,661.5,661.5,662,662,662.5,663,663,664,665,666,667,669,669.5,671,672,673.5,674,674.5,675,675.5,675.5,676,676,675.5,676,675.5,674.5,674.5,674,674,672.5,672,671.5,670,669,668.5,666.5,665.5,664,662,661,659,657.5,655.5,653.5,651.5,649.5,647.5,644,642,639.5,636,633,629.5,625.5,622,619,616,306,306,0,0,0,0,0,0,0,263,524,522.5,520.5,519,517,514.5,512.5,511,509,507,505.5,504,503,501.5,500.5,499.5,497.5,495.5,493.5,492.5,491,489,487,485.5,484,482,481,480,478,477,475,474,472.5,471,470,468.5,467,466,464.5,463.5,462.5,461.5,460,459,458,456.5,455.5,454.5,453,452,451,450,449.5,448.5,447.5,446.5,445,443.5,443,442,441,440,439,438.5,437.5,437,436,435,434.5,434,433.5,433.5,433,432.5,432,432,432,431,431,431,430.5,430.5,430.5,430.5,430.5,430.5,430,431,431,431.5,431,430.5,430.5,431,215.5,0,0,0,0,0,522.5,523,523.5,523.5,524,525,525,525,525.5,525.5,525.5,526.5,526.5,527,527.5,528,529,529.5,264.5
0,0,0,0,0,0,2609.5,0,5153.5,5175,5153.5,5197,5241,5355,5402,5548,5676,5756,5865.5,6038,6128.5,6190.5,6223,6223,6164,6164,6164,6193,6160.5,6190.5,6158.5,5951,5756,5624,5498,5355,5241,5110.5,4946,4849,4849,4830,4849,4811,4830,4849,4926,4926,4946,4966,4986.5,5027.5,5132,5197,5241,5242,5379.5,5426.5,5475,5524,5574,5600,5626.5,5679,5704,5731.5,5811.5,5867,5953.5,6039.5,6131.5,6193,6256,6317.5,6351,6383,6450,6450,6450,6450,6450,6450,6485.5,6485.5,6485.5,6485.5,6453,6453,6453,6421,3311,0,0,0,0,0,0,0,0,0,0,0,0,0,0,0,0,0,0,0,0,0,0,378,754.5,753.5,753,752.5,751.5,750,748.5,746.5,745.5,744,742,740,738,737,735.5,734.5,733,731.5,729.5,727.5,725.5,722.5,720,716.5,713.5,711,708.5,705.5,704,702,701,699.5,697.5,696.5,695,693.5,691,689,687,684,682,679.5,677,674.5,672.5,670.5,669,667.5,665.5,665,663,662.5,660.5,660,658,658,656,655,653,651.5,650.5,648,646,645,643.5,642,640,638,637,636.5,635,633.5,632,630,629,627,626,624,622.5,621,620,618.5,617,615.5,615,613,612,610.5,609.5,607.5,606,605,603.5,602.5,602,601.5,600.5,600.5,600.5,0,0,0,0,4665,4737,4887.5,4966,4966,9643,9631,9631,9631,9631,9631,9483,9415.5,9273.5,9273.5,9209.5,9209.5,9135.5,9135.5,9073.5,9073.5,9001.5,9001.5,8864.5,8864.5,8799,8799,8735,8735,8673,8675,8675,8675,8616.5,8680.5,8680.5,8804.5,8872,8941.5,8941.5,9073.5,9135.5,9135.5,9135.5,9135.5,9135.5,9063.5,9063.5,8994,8994,8926.5,8861,8861,8861,8861,4462.5,4462.5,4528,4528,4398.5,0,0,0,0,0,0,0,0,0,0,0,0,633.5,633.5,1273.5,1273.5,1274,1272.5,1270,1268.5,1267,1264.5,1263,1262,1260.5,631,1262,1265,1266,1267,1267,1268.5,1268.5,1268.5,1271,1269.5,1271,1269.5,1269.5,1271,1272,1272,1272,1273.5,1273.5,1275,1275,1275,1276,1276,1276,1276,1277.5,1277.5,1277.5,1277.5,1277.5,1279,1279,1279,1278,1278,1276.5,1275,1275,1273.5,1272.5,1269.5,1268.5,1267.5,1264.5,1262,1256.5,1251.5,1248,1243,1238,1233,1229.5,1224.5,1221.5,1218,1217,1214.5,1212.5,1211,1210,1208.5,1207.5,1206,1204,1203,1203,1200,1199,1198,1197,1194.5,1192,1191,1189,1187.5,1185.5,1184.5,1180.5,1178.5,1175,1172,1167.5,1163,1159,1155,1151,1148,1146,1144,1144,1141.5,1144,1144,1144,1144,1145,0,0,0,0,0,0,0,0,0,0,0,0,0,0,0,700.5,698,696,695,692,690,688,685,683,681.5,679,678.5,677.5,676.5,675.5,674.5,673,672.5,671.5,670.5,669,668.5,667.5,666.5,666,665.5,664.5,664,664,663.5,663.5,663.5,663.5,663.5,663.5,663.5,664,664,664.5,664.5,666,666,668,669,670.5,672,673,674,675.5,676.5,677,677.5,678,678,678,677,677.5,677,677,676.5,338,675,674,674,673,672,671.5,670.5,669,668.5,666.5,665,664,662,661,659,657,654.5,652,649.5,647.5,645,641.5,638,635,631,627.5,624,620,616.5,612.5,609,606,0,0,0,0,0,535,530,526,524,522.5,520.5,518,516.5,514,512,510,508.5,506.5,505,504,502.5,501,500,498.5,497,495,493.5,491.5,490,488,486,485,483,481,480,478,477,476,474,473,471.5,470,469,468,466,465,464,462.5,461.5,460.5,459,458,456.5,455.5,454.5,453,452,451,450,449,448.5,447,446,444.5,444,442.5,441.5,441,440,439,438,437,436,435,435,434,433,432.5,432,432,431.5,431.5,430.5,430,429.5,429.5,429,429,429,429,428.5,428.5,429,429,429,429,429.5,429.5,429.5,429.5,429.5,430,430.5,431,431,431,431,431,0,0,262,523.5,524,525,525,525.5,525.5,526,526,526.5,527,527,527.5,528.5,529,530,530
0,0,0,0,0,0,2609.5,0,2587.5,5153.5,5153.5,5197,5263,5355,5450,5573,5676,5782.5,5865.5,6009,6128.5,6190.5,6190.5,6223,6131.5,6102.5,6131.5,6164,6131.5,6190.5,6097.5,5922,5756,5650,5498,5378.5,5241,5153.5,5007,4887.5,4868,4849,4849,4849,4830,4887,4966,4966,4966,5007,5007,5068.5,5132,5197,5241,5264,5378.5,5474,5523,5573,5624,5650,5676.5,5676.5,5730,5783.5,5811.5,5867,5923.5,5981,6099.5,6160.5,6223,6256,6284.5,6349.5,6349.5,6415.5,6383,6415.5,6415.5,6415.5,6450,6450,6417.5,6453,6417.5,6417.5,6453,6421,6421,0,0,0,0,0,0,0,0,0,0,0,0,0,0,0,0,0,0,0,0,0,0,0,754,753,753,752.5,752,750.5,749,747.5,746,745,743,741.5,739.5,738,737,736,734.5,732.5,731,729.5,726,723,720.5,717.5,714.5,711.5,708.5,706,704.5,702.5,701,700,698,697,695.5,693.5,692.5,690,687.5,685,682.5,680,677.5,675.5,673.5,671.5,669.5,668.5,667,666,664.5,663.5,662.5,662,660.5,660,658.5,656.5,654.5,653.5,652,650,648.5,647,645,643.5,642,640,638,637,635.5,634,632,630.5,629.5,627.5,626.5,625,624,622,620.5,619,617.5,616.5,615,614,613,612,610,608.5,606.5,605.5,604,603.5,602,601.5,601,600.5,601,602,0,0,9209.5,9209.5,9350,9510,9575.5,9660,9660,9727.5,9643,9712.5,9643,9643,9494,9494,9364.5,9286,9286,9224,9147.5,9147.5,9147.5,9073.5,9013.5,9013.5,8941.5,8872,8804.5,8804.5,8739,8675,8613,8673,8673,8675,8675,8739,8804.5,8872,8941.5,9001.5,9073.5,9073.5,9209.5,9286,9209.5,9209.5,9209.5,9135.5,9063.5,9063.5,8994,8926.5,8799,8926.5,8861,8799,8799,4528,4462.5,0,0,0,0,0,0,0,0,0,0,0,0,0,632.5,1270,1271.5,1271.5,1271.5,1271.5,1268.5,1267,1265.5,1263.5,1262,1261,1259.5,1259.5,1258,1259,1262,1262,1266,1266,1264.5,1266,1266,1269.5,1268.5,1268.5,1268.5,1268.5,1269.5,1271,1271,1272,1272,1273.5,1275,1275,1275,1276,1276,1276,1276,1277.5,1277.5,1279,1279,1279,1279,1279,1279,1277.5,1276.5,1276.5,1275,1275,1273.5,1271,1268.5,1268.5,1266,1264.5,1260.5,1258,1253,1248,1243,1239.5,1234.5,1230.5,1226.5,1221.5,1219.5,1217,1214.5,1213.5,1212.5,1208.5,1207.5,1207.5,1206,1204,1203,1200,1200,1200,1198,1197,1194.5,1193.5,1191,1191,1190,1187.5,1185.5,1183.5,1178.5,1176.5,1173,1168.5,1165,1161,1158,1153,1150,1147,1146,1144,1142.5,1144,1144,1144,1144,1145,0,0,0,0,569,569,0,0,0,0,0,0,0,0,0,0,0,0,0,347.5,690.5,689,686.5,684.5,682.5,681.5,679.5,678.5,678,677,676,675,673.5,672.5,671.5,670.5,669,669,668,667,666,666,665.5,664.5,665,665,665,665,665,665,665,665.5,665.5,666,666,667,668,669.5,671,672,674,675,677,677.5,678.5,679,679,679,679,679,678.5,678.5,678.5,678,677.5,676.5,676.5,675.5,674.5,674,673,672,671.5,670,669,668,666,664.5,663,661,659.5,657,655,653,650.5,648.5,645,641.5,637.5,634,629.5,625.5,622,619,615.5,611.5,608,301.5,0,296.5,0,0,0,267,530,525.5,524,522,520,517.5,516,514,511.5,509.5,508.5,506.5,505,503,502,501,499.5,498.5,496.5,494.5,492.5,491,489.5,487,485,483.5,481.5,480,479,477,476,474,473,472,470.5,469,468,466.5,465,464,463,461.5,460.5,459.5,458,457,456,455,454,453,451,450,449,448,447,445.5,444.5,443.5,442.5,441.5,440.5,440,439,438,437,436,435,434,433,432,432,431,431,430.5,429.5,429.5,429,428.5,428,427.5,427,427,427,427,426.5,426.5,427,427,427,427.5,428,428,428.5,428,428.5,429,429.5,429.5,430,430,430,430,430,430,0,0,524,525,525,525.5,525.5,526,526.5,527,527,527.5,527.5,528,529,529.5,530
0,0,0,0,0,0,5132,0,2587.5,5153.5,5175,5197,5263,5355,5450,5573,5676,5782.5,5865.5,6009,6099.5,6190.5,6190.5,6160.5,6070.5,6070.5,6131.5,6102.5,6070.5,6128.5,6068.5,5865.5,5730,5624,5498,5402,5286,5175.5,5027.5,4926,4906.5,4887,4887,4868,4868,4926.5,4986.5,4986.5,5007,5027.5,5048,5068.5,5153.5,5219,5286,5286,5426,5498,5548,5598,5650,5676,5676,5702.5,5728.5,5810,5838,5867,5923.5,5981,6039.5,6099.5,6160.5,6190.5,6284.5,6284.5,6349.5,6349.5,6349.5,6349.5,6349.5,6383,6383,6383,6351,6351,6385.5,6385.5,6385.5,6354.5,6354.5,0,0,0,0,0,0,0,0,0,0,0,0,0,0,0,0,0,0,0,0,0,0,0,753,753,753,752,751.5,750.5,749.5,748,746.5,746,744.5,742.5,741.5,740,738,737.5,736,734,732,730,728,724.5,721.5,718.5,714.5,712.5,709,707,704.5,702.5,701,700.5,698.5,697.5,696.5,694.5,693,690.5,688,686,683,681,679,676.5,674,672.5,671.5,670,668.5,667.5,666.5,665.5,664.5,663.5,662.5,661,659.5,658.5,657,654.5,653,651,649.5,648.5,647,644.5,642.5,641.5,640,638,636.5,635.5,634,631.5,630.5,629,627,625.5,624,622,621,619.5,618.5,617.5,616,615,613.5,612.5,610.5,609.5,607.5,606.5,605,603.5,603,602,601.5,601.5,601.5,602,301,0,9224,4887.5,9364.5,9446,9530.5,9530.5,9594.5,9594.5,9575.5,9575.5,9660,9510,9428.5,9364.5,9364.5,9302.5,9242.5,9242.5,9242.5,9164,9164,9029,9029,8955,8883,8883,8813.5,8746,8746,8739,8675,8673,8673,8735,8675,8864.5,8872,8932,9073.5,9073.5,9209.5,9286,9286,9286,9286,9209.5,9209.5,9209.5,9063.5,9063.5,8994,8864.5,8926.5,4528,4462.5,4462.5,4528,0,0,0,0,0,0,0,0,0,0,0,629.5,629.5,629.5,1264.5,1267,1267,1267,1267,1267,1265.5,1265.5,1264.5,1262,1261,1258,1258,1255.5,1255.5,1254,1257,1259,1260.5,1263.5,1260.5,1262,1263.5,1263.5,1267.5,1267.5,1267.5,1267.5,1267.5,1269.5,1271,1271,1272,1271,1273.5,1275,1275,1275,1276,1276,1276,1277.5,1279,1279,1279,1279,1279,1279,1279,1279,1277.5,1276.5,1276.5,1275,1275,1272,1272,1270,1268.5,1266,1263.5,1260.5,1258,1253,1250.5,1245.5,1240.5,1235.5,1231.5,1226.5,1221.5,1219.5,1218.5,1215.5,1213.5,1211,1208.5,1207.5,1206,1205,1203,1201.5,1200,1199,1199,1198,1197,1194.5,1193.5,1192,1190,1189,1189,1185.5,1182,1179.5,1176,1173,1170,1166,1162,1158,1155,1151,1148,1146,1145,1144,1145,1145,1144,1144,1145,1145,1143,1141.5,1140,1138,1137,1135,0,0,0,0,0,0,0,0,0,0,0,0,0,0,0,0,0,0,342.5,681.5,680.5,679.5,678.5,678,676,675,674,672.5,672,670.5,669.5,669,668,667,666,666,665.5,665.5,665.5,666,666,666,666,666.5,667,667.5,667.5,668.5,669,670,672,673,674.5,676,677,679,680,680.5,681,681,681,681,681,680,680,680,679,678.5,678,677.5,676.5,676.5,675,674,673,672,671,670,669,667,666,664,662.5,660.5,658,656.5,653.5,651,649,645,640.5,636.5,633,628,625,620.5,617.5,614.5,610.5,606,602,598.5,588.5,289.5,0,274.5,269.5,530.5,526,524,522.5,520.5,517.5,516.5,514,511.5,510,508.5,506.5,504.5,503,501.5,500,499,497.5,495.5,493.5,491.5,490.5,488.5,486,485,483,480.5,479,478,476,475,473,472,470.5,469.5,468,466.5,465,464,463,462,460.5,459.5,458.5,457.5,456.5,455.5,454,453,452,450.5,449,448,447,445.5,444.5,443,442.5,441.5,440.5,439.5,439,438,436.5,436,435,434,433,432,431.5,430.5,430,429,429,429,428.5,427.5,427,426,426,426,425,425.5,425,425,424.5,425,425.5,425.5,425.5,425.5,426,426,426,426,426,426.5,427,427,427,427,426.5,426,213.5,0,0,0,262.5,525.5,525.5,526,526,263.5,263.5,263.5,263.5,527.5,528.5,529,529.5,530
0,0,0,0,0,0,5110.5,0,5153.5,5153.5,5153.5,5197,5263,5309,5450,5573,5676,5782.5,5893,5979,6097.5,6128.5,6190.5,6128.5,6070.5,6070.5,6070.5,6070.5,6070.5,6099.5,6009,5865.5,5702.5,5599,5474,5402,5286,5175,5068.5,4966,4946,4946,4946,4906.5,4926,4966,5027.5,5007,5027.5,5068.5,5089,5110.5,5219,5264,5309,5309,5450,5523,5573,5624,5650,5676,5702,5728.5,5755,5810,5838,5865.5,5922,5951,6009,6068.5,6128.5,6190.5,6189,6252,6252,6284.5,6316.5,6316.5,6349.5,6349.5,6349.5,6317.5,6317.5,6320,6320,6320,6324,6324,6324,0,0,0,0,0,0,0,0,0,0,0,0,0,0,0,0,0,0,0,0,0,0,0,753.5,753,753,752.5,751.5,751,750,749,747.5,746,746,744.5,743,741.5,740.5,738.5,737,735.5,733.5,731,728.5,725,722.5,719,715.5,713,710,707.5,705,703.5,701.5,700.5,699.5,697.5,697,695.5,693.5,692,689.5,687,684.5,682.5,680,677.5,676,674,672.5,671.5,670.5,669.5,668,667.5,666.5,665.5,664.5,663,661,660,658.5,656.5,654,652,650.5,649.5,648,646,644,642,640,639,637.5,636,634,632.5,631,629,628,626,624.5,623.5,622,620.5,619,618,616.5,615.5,614.5,613,612,610,608.5,606.5,605.5,604,603.5,602,601.5,601.5,601.5,602.5,603,301.5,9324,9302.5,9302.5,9408.5,9324,9468.5,9384,9446,9446,9446,9446,9446,9446,9384,9324,9324,9242.5,9184,9242.5,9184,9105.5,9105.5,9029,8898,8898,8826,8756.5,8689,8746,8680.5,8675,8735,8735,8735,8799,8864.5,8932,9001.5,9073.5,9209.5,9286,9364.5,9302.5,9302.5,9302.5,9147.5,9147.5,9073.5,9001.5,4595.5,4595.5,4528,4462.5,4462.5,4462.5,0,0,0,0,0,0,0,0,0,0,628.5,628.5,628.5,628.5,1261,1261,1261,1262,1263,1263,1263,1264.5,1263.5,1262,1261,1259.5,1258,1255.5,1255.5,1254.5,1253,1251.5,1253,1255.5,1256.5,1257,1258,1259.5,1260.5,1262,1264.5,1266,1266,1266,1266,1267.5,1268.5,1271,1272,1272,1273.5,1275,1275,1275,1276,1276,1277.5,1277.5,1279,1279,1279,1279,1279,1279,1279,1279,1279,1276.5,1276.5,1275,1273.5,1273.5,1271,1268.5,1267,1266,1265,1262,1259,1254,1249,1245.5,1240.5,1235.5,1231.5,1228,1223,1220.5,1218.5,1217,1214.5,1211,1208.5,1207.5,1206,1204,1203,1201.5,1200,1199,1198,1198,1197,1196,1193,1192,1190,1188,1186.5,1185.5,1183,1181,1176,1174,1171,1166,1163,1160,1155,1152,1148,1148,1146,1145,1145,1146,1145,1144,1145,1145,1143,1141.5,1139,1138,1136,1135,1133,0,0,0,0,0,0,0,0,0,0,0,0,0,0,0,0,0,0,683,681.5,681,680,678.5,677.5,676.5,674.5,673.5,672,671.5,670.5,669,669,668,667.5,667,666.5,667,667,667,667,667.5,667.5,668,668,669,669.5,670.5,671.5,672,674,675.5,677,678.5,680,681,682,683,683,683,683.5,683,682,682,681.5,681.5,680.5,679.5,679,677.5,677.5,677,676,674.5,674,673,672,671.5,669.5,668.5,666.5,664.5,663.5,661,659,657,654,651.5,648.5,644,639.5,636,631,626,623,619,615,612.5,608.5,604,0,297.5,294,570,274,268.5,267,530,526,524,522,520,518,516,514,512,510,508,506.5,504.5,503,501.5,499.5,498,497,495,493,491,489.5,488,486,483.5,481.5,480,478.5,477,476,474,472.5,471.5,469.5,468.5,467,465,464,463,462,461,459.5,458.5,457.5,456.5,455.5,455,454,452.5,451,450,448.5,447,446,444,443,442,441,440,439.5,439,438,436.5,436,435,434,433,432,431,430.5,429.5,429,428,428,427,427,426,425.5,425,424,424,424,424,423.5,423.5,423.5,423.5,423.5,423.5,423.5,423.5,423.5,423.5,423.5,424,424,424,424,424,424,424,424,423.5,423,422.5,211,0,0,0,526,526,526.5,263.5,0,263.5,263.5,263.5,528,529,529.5,530
0,0,0,0,0,0,5110.5,0,2587.5,5132,5153.5,5175,5219,5309,5450,5573,5650,5756,5837.5,5979,6068.5,6128.5,6128.5,6099.5,6011.5,5981,6039.5,6042.5,6039.5,6039.5,6038,5810,5676.5,5599,5523,5402,5309,5241,5110.5,5007,5007,5007,4966,4966,4966,5027.5,5089,5068.5,5068.5,5110.5,5132,5175,5241,5287,2631.5,5355.5,5475,5548,5599,5650,5676,5702,5728.5,5755,5755,5837.5,5865.5,5865.5,5922,5979,6038,6097.5,6158.5,6158.5,6158.5,6189,6252,6252,6252,6284,6284,6284.5,6316.5,6284.5,6253.5,6286.5,6256,6256,6256,6226,6226,0,0,0,0,0,0,0,0,0,0,0,0,0,0,0,0,0,0,0,0,0,0,0,753.5,753,752.5,752,752,751,750.5,749.5,748.5,747.5,746,745.5,744,743,741.5,740,737.5,736.5,734,731.5,729.5,726,723.5,719.5,716.5,714,710.5,708,705,704,701.5,701,700,698.5,697.5,696,694.5,693,691,688,686,683.5,681,679.5,677,675.5,674,673,672.5,671,670.5,669.5,668.5,667.5,666,665,663.5,661,659.5,658,655.5,653,651,650,648,647,645,643.5,642,640,638.5,637,635.5,633.5,632,630,629,627,625.5,624.5,622.5,621,620,618.5,618,616,615.5,614.5,613,611,609.5,607.5,606,604.5,603.5,603,602.5,601.5,602.5,603,603,604,0,9324,9324,9324,9324,9324,9384,9302.5,9302.5,9302.5,9242.5,9302.5,9302.5,9242.5,9184,9184,9184,9184,9184,9184,9105.5,9048.5,8972,8898,8826,8826,8689,8689,8689,8680.5,8675,8675,8735,8797,8861,8994,9063.5,9209.5,9209.5,9286,9364.5,9302.5,9384,9384,9242.5,9105.5,9087.5,4737,4595.5,4595.5,4462.5,4398.5,0,0,0,0,0,0,0,0,0,0,0,0,0,626,626,1254.5,1256.5,1256.5,1256.5,1258,1258,1258,1258,1257,1258.5,1257,1257,1254,1254,1252,1250.5,1249.5,1249.5,1249.5,1250.5,1252,1253,1254.5,1256.5,1256.5,1259.5,1259.5,1260.5,1262,1264.5,1264.5,1264.5,1264.5,1267.5,1268.5,1270,1272,1272,1273.5,1275,1275,1275,1276.5,1276.5,1277.5,1277.5,1279,1279,1279,1279,1279,1279,1280.5,1279,1279,1276.5,1276.5,1275,1273.5,1273.5,1271,1268.5,1266,1266,1263.5,1262,1259,1254,1252,1247,1242,1238,1234.5,1229.5,1224.5,1221.5,1220.5,1217,1214.5,1212.5,1209.5,1206,1206,1204,1203,1200,1199,1199,1198,1198,1197,1194.5,1193,1192,1190,1188,1185.5,1183,1182,1180,1176,1174,1170,1167.5,1163,1159,1156.5,1152,1149,1148,1146,1145,1146,1145,1145,1145,1145,1145,1143,1141.5,1140,1138,1136,1135,1133,1131,1129,565,0,0,0,0,0,0,0,0,0,0,0,0,0,0,0,683,682,681.5,681,679.5,678.5,677.5,676.5,674,673.5,672,671.5,670.5,670,669,669,668.5,668,668,668,668,668,668,669,669,670,671,671.5,672.5,673.5,675,677,678.5,680,681,683,683,684,685,685,685.5,685,685,684,684,683.5,682.5,682,680.5,680,679.5,678.5,677.5,677,675.5,674.5,674,673,672,670.5,669,667,665.5,664,661.5,659,657,654,651,648,643,319.5,317,314.5,624.5,620.5,616,612,609.5,606,601,598,296.5,584,567.5,273,0,266.5,529.5,525,524,521.5,519.5,517.5,516,514,512,510,508.5,507,505,503,501.5,499.5,497.5,496,494,492,490,488,487,485,483,481,479.5,478,477,475,473,472,470.5,469,467.5,465.5,464,463,462,461,459.5,458.5,457.5,456.5,455.5,455,454,453,451.5,450,449,447.5,446,444.5,443,441.5,440.5,439.5,439,438.5,437.5,436.5,436,435,434,432.5,432,430.5,429.5,429,428.5,427.5,427,426,426,425,425,424,423,423,423,422.5,422.5,422,421.5,421.5,421.5,421.5,421.5,421.5,421.5,421.5,421.5,421.5,421.5,422,422,422,422,422,421.5,421.5,421.5,421,420.5,419.5,209,0,0,526.5,526.5,263.5,263.5,526.5,527.5,527.5,528,528.5,529,529.5,530
0,0,0,0,0,0,5132,0,2566,5132,5132,5175,5219,5309,5426,5573,5650,5756,5837.5,5979,6038,6097.5,6097.5,6068.5,5981,5953.5,6011.5,5984,5953.5,5984,5951,5783.5,5676.5,5599,5523,5450,5378.5,5309,5175,5068.5,5089,5090,5089,5027.5,5048,5110.5,5153.5,5132,5110.5,5132,5175,5197,5241,5309,5332,5332,5475,5548,5599,5650,5702.5,5728.5,5728.5,5782.5,5782.5,5837.5,5837.5,5893,5921,5950,6008,6038,6097.5,6127.5,6127.5,6189,6220,6220,6252,6252,6252,6252,6252,6221,6190.5,6223,6256,6193,6164,6164,6164,2989.5,0,0,0,0,0,0,0,0,0,0,0,0,0,0,0,0,0,0,0,0,0,0,375.5,753.5,753,753,752.5,752,751,750.5,749.5,748.5,747.5,746,745,744,742,740.5,738.5,737,734.5,732,730,727.5,724.5,720.5,718,714.5,711.5,709,706.5,705,702.5,701.5,700.5,699.5,698.5,697,695.5,694.5,691.5,689.5,688,685.5,683,681,679,677.5,675.5,674,673.5,672.5,672,671,670.5,669,667.5,666.5,664.5,663,661,658.5,656,654,652,651,650,648,646.5,644.5,642.5,640.5,639,637.5,636.5,635,633,631,630,628,626.5,625.5,624,622.5,621,620,619,618,616,615,613.5,612,610,609,607,605.5,604,603,603,603,603,603,604,604,604,5047.5,9324,9324,9324,9324,9324,9242.5,9242.5,9242.5,9184,9184,9184,9184,9127,9208.5,9208.5,9208.5,9127,9048.5,9048.5,8972,8972,8898,8770.5,8701,8756.5,8689,8623.5,8623.5,8680.5,8739,8799,8925,8990.5,9058,9199.5,9273.5,9350,9428.5,9446,9446,9468.5,9384,9164,4887.5,4737,4665,4595.5,0,0,0,0,0,0,0,0,0,0,619.5,621,622,622,622,623.5,1248,1250.5,1252,1254.5,1254.5,1253,1253,1254.5,1253,1253,1252,1253,1250.5,1249,1249,1248,1248,1246.5,1245.5,1247,1247,1248,1250.5,1251.5,1254.5,1255.5,1256.5,1256.5,1259.5,1259.5,1262,1263.5,1263.5,1263.5,1264.5,1266,1268.5,1270,1272,1272,1273.5,1275,1275,1276.5,1277.5,1277.5,1277.5,1279,1279,1280,1281.5,1281.5,1279,1280.5,1280.5,1280.5,1280.5,1279,1276.5,1275,1275,1272.5,1271,1268.5,1266,1266,1263.5,1262,1259,1255.5,1252,1247,1244,1240.5,1235.5,1231.5,1226.5,1224.5,1220.5,1218.5,1214.5,1212.5,1209.5,1206,1206,1204,1203,1200,1199,1199,1198,1198,1198,1194.5,1193,1191,1191,1189,1185.5,1183,1181,1178.5,1176,1173,1170,1167.5,1163,1159,1156.5,1152,1149,1148,1146,1145,1145,1146,1145,1145,1145,1145,1143,1141.5,1140,1138,1136,1135,1133,1131,1130,1129,1126,1123,0,0,0,0,0,0,0,0,0,0,0,0,0,0,684,682.5,682,681,680,678.5,677,675.5,674,673.5,672.5,672,671,670,669.5,669.5,669,669,669,669.5,670,670,670.5,671,672,673.5,674.5,675,676.5,678,680,681.5,683,684,685,686,687,687,687,687,686.5,686.5,686,685.5,685,684,683,682,681,680.5,679.5,678.5,677.5,676.5,675,674.5,674,672.5,671.5,669,667.5,666,664,661,659,657,654,650,647,642,637,316.5,314,623,619,614.5,611,608,300.5,298.5,297,295.5,292,286,0,0,268,264.5,525,523,521.5,519.5,517.5,516,514,512.5,510.5,509,507,505,503,501,499.5,497.5,495.5,493,491,489,487.5,485.5,484.5,482.5,481,479.5,477.5,476,474,473,471,469.5,468.5,466.5,465,463.5,462.5,461,460,459,457.5,456.5,455.5,455,454,453,452,451,449,448,446.5,444.5,443,441.5,440,439.5,438.5,437.5,436.5,436,435.5,434,433,432,431.5,430.5,429.5,428.5,428,427.5,426.5,426,425.5,425,424,423.5,423,422,421.5,421.5,420.5,420.5,420,419.5,419.5,419.5,419,419,419,419,419,419,419,419,419,418.5,209.5,418.5,418.5,418.5,418.5,209.5,418.5,418,417,208.5,0,0,0,0,0,0,0,526.5,527.5,527.5,528.5,529,529.5,530
0,0,0,0,0,0,5110.5,0,2566,5132,5132,5175,5219,5309,5426,5573,5650,5728.5,5837.5,5922,5979,6067,6038,6009,5894.5,5894.5,5981,5953.5,5953.5,5981,5922,5756,5676.5,5599,5523,5474,5402,5355,5241,5153.5,5175,5175.5,5175,5153.5,5132,5219,5263,5219,5197,5197,5197,5219,5263,5309,5309,5355.5,5451.5,5548,5625,5676.5,5676.5,5702.5,5756,5756,5782.5,5810,5865,5865,5921,5950,6008,6038,6097.5,6097,6097,6158,6158,6220,6220,6220,6220,6189,6220,6158.5,6158.5,6160.5,6160.5,6164,6131.5,6131.5,6131.5,6102.5,0,0,0,0,0,0,0,0,0,0,0,0,0,0,0,0,0,0,0,0,0,0,0,753.5,753,753,752.5,751.5,751.5,750.5,750,749,747.5,746.5,746,744,742.5,741.5,738.5,737,735,732.5,730.5,728,725,722,718.5,715.5,713,709.5,708,705,704,702,701,700,699.5,698.5,696.5,695.5,693.5,691.5,689,687,685,682.5,680.5,678.5,677.5,676.5,675,674,673.5,673,672,670.5,669.5,668,666,664,662,660,657.5,655,654,652,650.5,649.5,647,645,643.5,641.5,640,639,637,635.5,634,632.5,631,629,627.5,626,625,623,621.5,621,620,618.5,618,616,615,613,611.5,609,607.5,606.5,605,604,603.5,603,603,604,604,604,604,4218,9184,9184,9184,9242.5,9242.5,9242.5,9242.5,9184,9184,9324,9242.5,9324,9324,9265.5,9184,9184,9105.5,9105.5,9029,8972,8842.5,8770.5,8701,8701,8633.5,8633.5,8623.5,8623.5,8680.5,8739,8799,8990.5,8990.5,9123.5,9199.5,9415.5,9415.5,9428.5,9510,9446,9530.5,9384,9302.5,4887.5,4811,0,0,0,0,0,0,0,0,0,0,0,0,617,617,619.5,621,622,1243,1244.5,1245.5,1249,1249.5,1250.5,1250.5,1249.5,1250.5,1249.5,1249,1248,1247,1245.5,1243,1243,1243,1244.5,1243,1243,1244,1245.5,1248,1249.5,1250.5,1251.5,1253,1254.5,1256.5,1256.5,1258,1260.5,1260.5,1263.5,1263.5,1266,1266,1268.5,1270,1271,1272,1273.5,1273.5,1276.5,1276.5,1277.5,1277.5,1277.5,1279,1281.5,1281.5,1281.5,1281.5,1281.5,1280.5,1280.5,1280.5,1280.5,1279,1277.5,1275,1275,1272.5,1272.5,1268.5,1266,1266,1265,1262,1259,1257,1252,1249,0,1243,1238,1233,1229.5,1224.5,1221.5,1218.5,1214.5,1212.5,1209.5,1206,1205,1203,1201.5,1200,1200,1198,1198,1198,1197,1194.5,1193,1191,1190,1188,1185.5,1182,1179.5,1177.5,1175,1172,1170,1167.5,1163,1160,1156.5,1152,1149,1147,1145,1145,1145,1145,1145,1145,1145,1145,1144,1143,1141.5,1138,1137,1135,1133,1131,1130,1128,1127,1125,1121,0,0,0,0,0,0,0,0,0,0,0,0,0,0,342.5,684,683.5,682,680,678.5,677,676,674,673.5,672.5,672,671.5,670.5,670,670,670,670,671,671,671.5,672,673,674,676,677,679,680,682.5,683.5,685.5,687,687,687.5,688.5,689,689,689.5,688.5,688.5,688,688,687,686.5,685.5,684,682.5,682,681,680.5,679.5,677.5,677,676,675.5,674,673.5,671.5,669.5,667.5,666,664,661.5,659,656.5,654,650,646,320.5,318.5,316,313.5,622,617.5,613,610,606.5,0,298,296.5,295,290,564.5,0,0,0,264,524,523,521,519.5,518,516,514.5,512.5,510.5,509,507,505,503,500.5,498,496.5,494.5,492.5,490,488,486.5,485,483.5,481.5,480,478.5,477,475.5,474,472,470.5,469,467.5,466.5,464.5,463,462,461,459.5,458.5,457.5,455.5,455,454.5,453.5,452,451,449.5,448.5,446.5,444.5,443.5,441.5,440,438.5,437.5,436.5,436,435,434.5,433.5,432.5,432,430.5,430,429,428.5,427.5,426.5,426,425.5,424.5,424.5,423.5,422.5,422,421.5,420.5,420,419.5,418.5,418.5,418.5,418,417.5,417,417,417,417,417,417,416.5,416.5,416.5,416.5,416,416,415.5,415.5,415,207.5,415.5,415.5,415,414,207,0,206.5,205.5,0,0,0,0,0,264,527.5,528.5,529,529.5,530
0,0,0,0,0,0,5110.5,0,5089,5110.5,5132,5175,5219,5309,5378.5,5548,5650,5728.5,5810,5922,5979,6038,6038,5979,5865.5,5894.5,5951,5923.5,5923.5,5953.5,5893,5728.5,5650,5599,5548,5499,5474,5450,5332,5263,5309,5286,5263,5241,5241,5309,5332,5286,5241,5241,5241,5241,5264,5309,5309,5332,5426.5,5499,5599,5650,5702.5,5730,5730,5730,5782.5,5837.5,5837.5,5865,5893,5921,5979,6037,6067,6097,6097,6127.5,6127.5,6189,6189,6189,6189,6189,6189,6158.5,6097.5,6128.5,6099.5,6099.5,6099.5,6099.5,6070.5,2960.5,0,0,0,0,0,0,0,0,0,0,0,0,0,0,0,0,0,0,0,0,0,0,0,753.5,753.5,753.5,753,753,752,751.5,750.5,749.5,748.5,747,746,745,743,741,739,737,735,732.5,730.5,728.5,725.5,723,719.5,717,714,711.5,709,706.5,705,703,702,701,699.5,699,698,696.5,695,692.5,690.5,688.5,686,684.5,682,680.5,678.5,678,676.5,675.5,674.5,674,673.5,673,671,670,667.5,665.5,663,660.5,658.5,656.5,654.5,653,651.5,650,648.5,646.5,644.5,643,641,639,638.5,636.5,635.5,633.5,632,630.5,628.5,627.5,626,624.5,623,621,621,620,618,617,615.5,613.5,612,610,609,607,606,604.5,604,604,604,604,604,604.5,605,0,9324,9324,9324,9324,9324,9242.5,9242.5,9242.5,9265.5,9184,9242.5,9242.5,9242.5,9184,9105.5,9105.5,9105.5,9029,8972,8898,8770.5,8770.5,8647,8647,8633.5,8568,8568,8623.5,8680.5,8804.5,8864.5,8990.5,9123.5,9193,9265,9415.5,9494,9575.5,9575.5,5132,5132,5132,4966,4887.5,0,0,0,0,0,0,0,0,0,0,612,613.5,613.5,614.5,1224.5,1229.5,1233,1236.5,1239.5,1242,1243,1244,1246.5,1246.5,1246.5,1246.5,1246.5,1245.5,1243,1243,1241.5,1240.5,1239.5,1238,1239.5,1239.5,1240.5,1240.5,1243,1243,1245.5,1248,1250.5,1250.5,1253,1253,1255.5,1256.5,1258,1260.5,1262,1262,1263.5,1265,1267,1270,1270,1271,1272,1273.5,1275,1276.5,1276.5,1277.5,1277.5,1279,1279,1281.5,1281.5,1281.5,1281.5,1281.5,1281.5,1281.5,1280.5,1280.5,1279,1277.5,1275,1275,1275,1272.5,1268.5,1267,1265,1265,1263.5,1260.5,1257,1253,1250.5,623.5,1243,1239.5,1234.5,1229.5,1225.5,1223,1218.5,1215.5,1212.5,1209.5,1206,1205,1203,1201.5,1199,1198,1198,1197,1197,1196,1193,1192,595.5,1190,1186.5,1184.5,1182,1179.5,1177.5,1175,1173,1170,1166.5,1163,1160,1155,1152,1149,1147,1145,1144,1144,1144,1145,1144,1145,1144,1144,1143,1141.5,1139,1137,1135,1133,1131,1130,1128,1126,1126,1121,1119,0,0,0,0,0,0,0,0,0,0,0,0,0,0,685.5,684.5,683.5,681.5,680,678,677,675.5,674.5,673.5,672.5,671.5,671.5,670.5,670.5,670,670.5,671,671.5,672,673.5,674.5,676.5,679,680,682.5,684.5,686.5,687.5,689.5,690,690,690.5,690.5,691,691,690.5,690,690,689.5,689.5,689,688,687,686,684,683.5,682.5,681.5,680,678.5,677.5,677,676.5,675,674,672,669.5,668,666,664.5,661.5,658.5,656.5,653.5,649.5,646,640,636,630.5,625.5,620.5,616.5,612.5,609.5,606.5,0,298,296.5,294.5,0,0,0,0,0,527,523.5,521.5,520.5,519,517.5,516,514.5,512,510.5,509,507,505,502.5,500,498,495.5,493.5,491.5,490,488,486,484.5,482.5,481,479.5,478,476.5,474.5,473,471,470,468.5,467.5,465.5,464,463,461,460.5,459,458,456.5,455.5,454.5,453.5,452.5,451,450,448.5,447,445.5,444,442,440.5,439,437.5,436.5,435.5,434.5,434,433,432,431,430,429.5,429,427.5,427.5,426.5,425.5,425,424.5,423.5,423.5,422.5,421.5,420.5,420,419,418.5,417.5,417.5,417,416.5,416.5,416,416,415.5,415.5,415,415,415,415,414,414,413.5,413,413,412,412,412,412,412,412,412,411,410.5,409.5,408.5,407,0,0,0,0,0,527,527.5,528.5,529,529.5,529.5
0,0,0,0,0,0,5132,0,5110.5,5110.5,5132,5175,5219,5309,5378.5,5548,5624,5702.5,5810,5893,5950,6009,5979,5950,5837.5,5865.5,5865.5,5865.5,5865.5,5894.5,5893,5728.5,5676.5,5625,5599,5574,5548,5499,5402,5332.5,5378.5,5378.5,5332,5332,5332,5378.5,5402.5,5355,5309,5264,5219,5219,5264,5287,5309,5332.5,5403.5,5499,5599,5625,5676.5,5676.5,5702.5,5730,5783.5,5810,5837.5,5837.5,5893,5921,5979,6008,6037,6037,6067,6067,6127.5,6127.5,6158,6158,6158,6158,6158,6127.5,6067,6097.5,6068.5,6099.5,6099.5,6068.5,6068.5,2989.5,3048.5,0,0,0,0,0,0,0,0,0,0,0,0,0,0,0,0,0,0,0,0,0,0,374.5,753.5,753.5,753.5,753,753,751.5,751,750.5,749,747.5,746,745.5,743.5,741,739,737,735.5,732.5,730.5,728.5,725.5,723,720.5,718.5,715,712.5,710,708,705.5,704,702.5,701,700,699.5,699,697,695,693.5,691.5,690,687,686,683.5,682,680.5,679,678.5,677.5,676.5,675.5,674.5,673.5,672.5,671,669,667,665,662.5,659,657.5,656,654,652,651,649,647.5,645.5,643.5,642,640.5,639,637.5,636.5,634.5,633.5,631.5,630,628.5,627,625,624,623,622,621,619,618,616,614.5,613,610.5,609,607.5,606.5,605.5,605,604.5,604.5,604.5,605,605,605.5,606,9468.5,9384,9384,9468.5,9408.5,9324,9324,9324,9324,9324,9242.5,9242.5,9242.5,9105.5,9105.5,9105.5,9029,8955,8898,8898,8770.5,8647,8579.5,8579.5,8514,8568,8568,8623.5,8746,8864.5,8926.5,8990.5,9123.5,9332.5,9483,9483,5047.5,5132,5132,5218.5,0,0,0,0,0,0,0,0,0,0,0,0,609.5,611,611,612,1215.5,1218.5,1222,1226.5,1230.5,1234.5,1235.5,1236.5,1240.5,1240.5,1243,1241.5,1241.5,1243,1241.5,1240.5,1239.5,1239.5,1238,1235.5,1235.5,1235.5,1235.5,1235.5,1238,1238,1240.5,1240.5,1244.5,1246.5,1248,1250.5,1250.5,1253,1255.5,1257,1258,1259,1262,1262,1263.5,1265,1267,1270,1270,1272,1272,1273.5,1273.5,1276.5,1277.5,1277.5,1277.5,1279,1280.5,1281.5,1281.5,1281.5,1283,1283,1283,1283,1283,1282,1280.5,1279,1277.5,1276,1275,1272.5,1271,1268.5,1266,1266,1265,1262,1258,1254,1250.5,1249.5,1244.5,1241.5,1236.5,1230.5,1228,1223,1219.5,1215.5,1212.5,1208.5,1206,1204,1203,1200,1198,1198,1197,1197,1197,1194.5,1193,1191,1190,1189,1186.5,1184.5,1182,1177.5,1176,1175,1173,1171,1167.5,1163,1160,1155,1152,1149,1146,1144,1144,1144,1143,1144,1144,1145,1144,1144,1143,1141.5,1140,1137,1135,1133,1131,1129,1128,1127,1125,0,0,0,0,0,0,0,0,0,0,0,0,0,0,0,345,344.5,687.5,686,683.5,682.5,680,679,677,675.5,674.5,673.5,672,672,671.5,671.5,670.5,671.5,671.5,672,672.5,674,677,679,682,684,687,689,690.5,692.5,693,693.5,694.5,694,693.5,693.5,693,692.5,692.5,691.5,691,690.5,690,689.5,688,687,686,684.5,683.5,682.5,681,680,678.5,677,676.5,675.5,674,672,669.5,668.5,666,664.5,661.5,659,656.5,653,648.5,644.5,639,634,629,624.5,620,616.5,612.5,609,606,603.5,298,595,294.5,0,0,0,0,528.5,525,521.5,521,520,518.5,517,516,513.5,512,510,508.5,506.5,504.5,502,500,497.5,495.5,493,491,489,487.5,485.5,484,482.5,481,479.5,477.5,476.5,474.5,472.5,471,469.5,468,466.5,465,463.5,462,461,460,458.5,457.5,456,455,453.5,452.5,451,450,449,447.5,446,444,442.5,441,439.5,438,436.5,435.5,434.5,433.5,432.5,432,431,430,429,428.5,427.5,426.5,426,425.5,424.5,424.5,423.5,423.5,422.5,421.5,420.5,419.5,419,418,417,416.5,416.5,415.5,415.5,415,414.5,414,414,414,413,413,413,412,412,411.5,411,410,410,409.5,409,408.5,409,409,409,408,0,0,0,0,405.5,404.5,202,0,0,0,0,263.5,264,0,0,0
0,0,0,0,0,0,5154,0,0,5132,5153.5,5153.5,5241,5309,5355.5,5523,5599,5702.5,5810,5865.5,5922,5979,5951,5950,5837.5,5865.5,5865.5,5837.5,5837.5,5894.5,5893,5756,5676.5,5650,5599,5574,5574,5524,5402,5379.5,5426,5378.5,5378.5,5378.5,5378.5,5426,5426,5402,5332.5,5264,5264,5242,5242,5287,5264,5309,5379.5,5450,5548,5625,5650,5651.5,5704,5704,5730,5756,5810,5810,5865.5,5893,5950,5950,6008,6008,6008,6067,6067,6127.5,6127.5,6158,6158,6158,6127.5,6067,6067,6038,6068.5,6097.5,6068.5,6097.5,6097.5,6097.5,0,0,0,0,0,0,0,0,0,0,0,0,0,0,0,0,0,0,0,0,0,0,0,0,753.5,754.5,754,753.5,753,752.5,752,750.5,750,749,747,746,744,742,739.5,737,735.5,732.5,731,729,726.5,724.5,722,719,716.5,714,711,709,706.5,704.5,703.5,702,700.5,699.5,699,698,696.5,694.5,693.5,691,689.5,687.5,685.5,683.5,682,680.5,679.5,678.5,677.5,676.5,676,674.5,674,672,670,668,666,663,661,659,656.5,655,652.5,651,649,648,646,644,643,641,639.5,638.5,637,636,634,632.5,631,629.5,628,626,625,623.5,623,621,620,618,617,615,613.5,612,609.5,608.5,607,606.5,605.5,605,605.5,605.5,605.5,606,606,606.5,4398.5,9384,9384,9384,9324,9242.5,9242.5,9242.5,9184,9105.5,9164,9164,9105.5,9029,8955,8955,8898,8826,8756.5,8701,8633.5,8579.5,8514,8514,8450,8514,8568,8568,8680.5,8739,8926.5,9058,9191,9332.5,9483,4887.5,5047.5,5218.5,0,0,0,0,0,0,0,0,0,0,0,0,608.5,608.5,607.5,609.5,1209.5,1212.5,1213.5,1215.5,1219.5,1224.5,1227,1231.5,1233,1233,1237,1237,1238,1238,1238,1238,1235.5,1235.5,1235.5,1234.5,1233,1233,1232,1232,1233,1234,1237,1238,1239,1240.5,1243,1245.5,1248,1248,1250.5,1253,1254,1257,1258,1259,1260.5,1263.5,1263.5,1266,1267,1270,1271,1271,1271,1273.5,1273.5,1276.5,1277.5,1279,1279,1281.5,1281.5,1281.5,1283,1284.5,1284.5,1284.5,1283,1283,1283,1283,1282,1279,1277.5,1277.5,1275,1275,1269.5,1268.5,1266,1266,1265,1263.5,1259,1257,1253,1250.5,1246.5,1243,1238,1233,1228,1225.5,1220.5,1217,1212.5,1208.5,1206,1205,1203,1200,1197,1198,1199,1197,1197,1196,1193,1191,1190,1188,1185.5,1182,1179.5,1177.5,1175,1173,1171,1168.5,1167.5,1164,1160,1156.5,1153,1149,1147,1146,1144,1144,1144,1144,1144,1145,1145,1144,1144,1141.5,1140,1137,1135,1133,1130,1130,1128,1126,1124,0,0,0,0,0,0,0,0,0,0,0,0,0,0,694,692,690,689,688,686,683.5,682,680.5,678.5,677,675.5,674.5,673,672,672,672,671.5,671,671.5,672,673,674.5,678,681,685,687.5,690,693,695,697,697.5,698,698.5,697.5,697,696.5,695.5,694.5,693.5,693,692.5,692.5,691.5,690.5,689.5,688.5,687,686.5,685.5,683.5,682.5,680.5,679.5,678,677,676,674,672,670,668,666,664,661.5,658,655,651.5,647.5,642.5,638,633,628.5,624,619.5,616,612.5,609.5,304.5,604,600.5,297,593.5,0,0,0,0,525,522.5,521,520,520,518,517,515.5,514,512,510,508,505.5,503.5,501.5,499.5,496.5,494.5,492.5,490.5,488.5,486.5,485.5,484,482,480.5,479,477.5,475.5,474,472,470,469,467.5,466.5,464.5,462.5,461,460,459,458,456.5,455.5,453.5,452.5,451.5,450,449,448,446,444.5,443.5,441.5,440.5,439,437,436,435,433.5,432.5,431.5,430.5,429.5,429,428,427,426,425.5,425,424.5,423.5,423.5,422.5,422,422,421,420,419,418,417,416.5,415.5,415,414.5,414,413.5,413,413,412,412,412,411.5,411,410,410,409,408.5,408.5,407.5,406.5,406.5,405.5,405.5,405.5,405.5,202,0,0,0,0,403.5,403,402.5,402.5,402,201.5,0,0,0,0,0,0
0,0,0,0,0,2701,5197.5,0,0,5132,5153.5,5175.5,5241,5309,5332,5499,5599,5702.5,5810,5865.5,5922,5951,5951,5950,5837.5,5865.5,5865.5,5837.5,5837.5,5894.5,5893,5782.5,5702.5,5650,5624,5599,5574,5524,5450,5379.5,5426,5426,5426,5402,5426,5450,5474,5402,5355.5,5264,5241,5219,5219,5242,5264,5264,5334.5,5426.5,5500,5550,5600,5651.5,5679,5679,5731.5,5757.5,5757.5,5783.5,5838,5865.5,5894.5,5922,5979,6008,6008,6008,6067,6067,6097,6127.5,6158,6097,6097,6067,6067,6067,6038,6097.5,6097.5,6097.5,6097.5,6127.5,0,0,0,0,0,0,0,0,0,0,0,0,0,0,0,0,0,0,0,0,0,0,0,0,754,754.5,754,754,753.5,753.5,752.5,751.5,751,749.5,748,746.5,745,742.5,740,738,735.5,733,731.5,729.5,727.5,725,723.5,720.5,718,715,713,709.5,708,706,704,702.5,701.5,700.5,699.5,699,697.5,696,694,693.5,691.5,689.5,687,686,683.5,682.5,681,679.5,678.5,677.5,677,676,674.5,673.5,672,669,667,664.5,661.5,659,657,655,653,651,649.5,648,646.5,645.5,643.5,642,641,639,638,637,635,634,632,630.5,629,627,626,625,623.5,622,621,619,617.5,616,614.5,612.5,610.5,609.5,608,607,606.5,606.5,606,606,606.5,606.5,606.5,606.5,0,4398.5,4398.5,9384,9384,9242.5,9105.5,9105.5,9029,9029,9029,9029,8955,8955,8883,8883,8813.5,8689,8689,8568,8504,8450,8450,8450,8450,8504,8504,8504,8623.5,8804.5,8926.5,8990.5,9260.5,9402,4811,4966,0,0,0,0,0,0,0,0,0,0,0,0,606,606,606,607.5,1205.5,1206.5,1207.5,1210,1211,1213,1217,1220.5,1224,1226.5,1228,1229,1230.5,1232,1234,1234,1232,1232,1232,1232,1232,1230.5,1230.5,1229,1230.5,1230.5,1230.5,1233,1235.5,1237,1238,1240.5,1243,1245.5,1247,1249,1250.5,1253,1255.5,1255.5,1258,1259.5,1260.5,1262,1264.5,1266,1267.5,1268.5,1271,1271,1271,1273.5,1273.5,1276.5,1277.5,1279,1280.5,1281.5,1281.5,1284.5,1284.5,1284.5,1284.5,1284.5,1284.5,1284.5,1283,1283,1283,1280.5,1277.5,1277.5,1277.5,1275,1272.5,1269.5,1267,1267,1266,1265,1260.5,1257,1255.5,1253,1248,1244.5,1239.5,1235.5,1230.5,1225.5,1222,1218.5,1212.5,1209.5,1206,1205,1203,1200,1198,1198,1199,1197,1197,1196,1193,1192,1190,1186.5,1184.5,1182,1179.5,1177.5,1175,1173,1171,1170,1167.5,1164,1161,1158,1153,1151,1148,1146,1145,1145,1145,1146,1145,1147,1146,1145,1144,1141.5,1140,1138,1136,1134,1131,1130,1128,1126,1124,0,0,0,0,0,0,0,0,0,0,0,0,0,0,696,694,692,691,689.5,688,686.5,683.5,682.5,680,679.5,677,676,674,674,673,672,672,672,672,672.5,674,675.5,679.5,683.5,688,691.5,694.5,697.5,700,701.5,702,703,702.5,701.5,700.5,699,697.5,697,696,695,693.5,693,693,692,690.5,690,689,687,687,685.5,683.5,681.5,680.5,679.5,677.5,676.5,674,672,670.5,668.5,665.5,663.5,660.5,658,655,651,647,642,637,633,628.5,624,619.5,617,613,609.5,607,303.5,0,300,0,0,0,0,0,262.5,521,520,519,519,517.5,517,515,513.5,511.5,509.5,507.5,505.5,503.5,501,498.5,496.5,494.5,492.5,490,488.5,486.5,484.5,483.5,481.5,480.5,478.5,477.5,475.5,473.5,472,470,468.5,467.5,465.5,464,462.5,461,460,458.5,457,455.5,454.5,453.5,451.5,450,449,447.5,446,445,443.5,442,440.5,439.5,437.5,436.5,435,434,432.5,431.5,430.5,429,428,427,426,426,425,424,424,423,422.5,422,421.5,421,420,419,419,418,417,416,415.5,414.5,414,413.5,412.5,412.5,411.5,411.5,411,410.5,410,410,409,408.5,408.5,407.5,406.5,406,405,405,404.5,404,403.5,403.5,403.5,403,0,0,0,0,402,401.5,401.5,401.5,401.5,201,201,0,0,0,0,0
0,0,0,0,0,0,2631.5,0,2587.5,5175.5,5197,5197,5241,5309,5332,5499,5599,5702.5,5810,5894.5,5951,5981,5951,5979,5893,5865.5,5865,5865,5837.5,5922,5893,5782.5,5702.5,5676,5624,5599,5574,5548,5450,5402.5,5450,5450,5450,5450,5450,5474,5474,5402,5355.5,5286,5197,5197,5219,5219,5219,5242,5287,5379.5,5476.5,5526,5576,5626.5,5626.5,5654,5704,5757.5,5757.5,5783.5,5810,5865.5,5893,5950,5950,5979,5979,6008,6038,6067,6097,6127.5,6127.5,6097,6097,6097,6067,6067,6067,6127.5,6127.5,6158,6158,6158,3174.5,0,0,0,0,0,0,0,0,0,0,0,0,0,0,0,0,0,0,0,0,0,0,0,375.5,754.5,754,754.5,754.5,753.5,753,753,751.5,750,748.5,747,745.5,743.5,740.5,739,736,734,732.5,730,728.5,726,724,722.5,719.5,717.5,714.5,712,709.5,707.5,705,703.5,702.5,701.5,700,699,698.5,697,696,694,693.5,691,689,687.5,686,684,682,681.5,679.5,678.5,677.5,677,675,674,672,670,667.5,665,662.5,659.5,657.5,655.5,653.5,651.5,650,649,647.5,646,644.5,643,641.5,641,639,637.5,636.5,634.5,633.5,632,630,628,627,625.5,624.5,623,621.5,620,618,616,615,613,612,610,608.5,608,607,606.5,606.5,606.5,606.5,606.5,606.5,607,303.5,0,4398.5,9302.5,9302.5,9242.5,9164,9029,8972,8972,8898,8883,8826,8813.5,8756.5,8689,8689,8623.5,8568,8568,8504,8450,8335.5,8388,8388,8442,8504,8504,8623.5,8739,8864.5,9058,9123.5,4665,4811,4966,0,0,0,0,0,0,0,0,0,0,0,605,605,605,605,1201.5,1201.5,1203,1204,1206,1207.5,1209,1212,1215.5,1218.5,1221.5,1224.5,1225.5,1226.5,1228,1229,1229,1229,1229,1229,1229,1229,1229,1228,1228,1229,1228,1228,1230.5,1233,1235.5,1237,1239,1242,1244,1247,1248,1250.5,1253,1254.5,1255.5,1256.5,1259.5,1260.5,1262,1264.5,1266,1266,1268.5,1269.5,1271,1271,1273.5,1275,1276,1277.5,1280.5,1281.5,1281.5,1284.5,1284.5,1285.5,1285.5,1285.5,1285.5,1285.5,1284.5,1285.5,1283,1283,1281.5,1279,1277.5,1277.5,1275,1273.5,1271,1268.5,1267,1266,1265,1262,1258,1256.5,1254.5,1249.5,1245.5,1240.5,1237,1232,1227,1223,1218.5,1214.5,1209.5,1207,1205,1203,1201.5,1200,1199,1199,1198,1197,1196,1193,1192,1190,1188,1184.5,1182,1179.5,1177.5,1175,1173,1172,1171,1170,1166,1162,1159,1155,1152,1150,1148,1146,1145,1146,1145,1145,1147,1147,1145,1144,1141.5,1140,1138,1136,1134,1131,1130,1128,1126,1124,1122,1119,1118,1115,1112,0,0,0,0,0,0,0,0,0,0,0,694,692.5,691.5,689.5,688,685.5,683.5,682,680,679.5,677,676,674,674,672.5,672,672,672,672.5,674,676.5,681,687,691,696,699,702.5,704,706,706,706.5,706,705,704,702,700.5,699,698,696.5,696,694.5,693.5,693,692,691,690,689,688,687,684.5,683,681.5,680,678.5,677,674.5,672.5,670.5,668.5,665.5,663,660,657.5,654.5,325,646.5,642,0,632.5,628.5,624.5,620.5,617,613.5,610,607.5,303,0,0,0,0,0,0,0,0,260,519,519,518,517,516,515,256.5,511,509,507.5,505.5,503,500.5,498.5,495.5,493.5,491.5,489.5,487.5,485.5,484.5,482.5,481.5,479.5,478.5,477,475.5,473.5,472,470,468.5,467,465.5,463.5,462,460.5,459,458,456,455,453.5,452.5,450.5,449.5,448.5,447,445,443.5,442.5,441,440,438,436.5,435.5,434,433,431,430,429,428,427,426,425,424,424,423,422,422,421,420,420,419,209.5,418,417,417,416,415,414,413.5,412.5,412.5,411.5,411,410.5,410,409.5,409,408.5,408,407.5,407,406,405,405,404,403.5,402.5,402.5,401.5,401.5,401.5,401.5,400.5,401,401,401,401,401,401,400.5,401,401,400,400,400,0,0,0,0
0,0,0,0,0,0,2701,0,2631.5,5219,5219,5241,5309,5332,5355,5499,5599,5730,5810,5865.5,5923.5,5981,5951,5979,5893,5893,5865,5865,5837.5,5922,5922,5810,5728.5,5676,5624,5599,5574,5548,5450,5426.5,5474,5474,5474,5450,5474,5450,5426,5426,5379.5,5264,5219,5219,5219,5197.5,5219,5287,5287,5332.5,5451.5,5500,5550,5576,5626.5,5626.5,5679,5731.5,5757.5,5757.5,5810,5865.5,5865.5,5922,5950,5979,5979,6008,6038,6067,6097,6127.5,6158,6158,6127.5,6097,6097,6097,6127.5,6158.5,6158,6189,6189,6252,3207.5,0,0,0,0,0,0,0,0,0,0,0,0,0,0,0,0,0,0,0,0,0,0,0,376,755,376.5,376.5,755,754,753.5,753.5,752.5,751,749.5,748,746.5,744,742,739.5,737.5,735,733,732,730,727.5,726,724,721.5,719.5,717,713.5,711,708,706,704,703,701.5,700.5,699.5,699,698,696.5,695.5,694,693,691,689,687,685.5,684,681.5,681,679.5,678,677.5,676.5,674.5,673,671,667.5,665.5,663,660.5,658.5,656,654,652.5,651,649.5,648,647.5,646,644.5,643,642,641,639,637,636,634.5,633.5,631.5,630,628,626,625.5,623.5,622.5,620.5,619,617.5,615.5,614.5,613,611.5,609.5,609.5,608,608,608,607.5,607.5,607.5,607.5,607.5,304,0,4336.5,4336.5,4276.5,4218,4218,8972,8898,8826,8826,8826,8756.5,8689,8689,8623.5,8568,8504,8504,8504,8388,8388,8388,8388,8388,8442,8442,8504,8559.5,8739,4398.5,4462.5,4595.5,4737,4811,0,0,0,0,0,0,0,0,0,0,601.5,602.5,602.5,602.5,603.5,1200,1200,1200,1200,1200.5,1202.5,1202.5,1205,1207.5,1211,1213.5,1216,1218,1220.5,1221.5,1223,1225.5,1227,1227,1225.5,1225.5,1225.5,1225.5,1227,1227,1227,1227,1227,1228,1230.5,1231.5,1234.5,1235.5,1238,1240.5,1243,1245.5,1247,1249,1250.5,1254.5,1255.5,1256.5,1256.5,1259.5,1262,1264.5,1264.5,1267.5,1268.5,1268.5,1269.5,1271,1272.5,1275,1276,1277.5,1280.5,1281.5,1283,1285.5,1285.5,1285.5,1287,1287,1285.5,1285.5,1284.5,1285.5,1283,1283,1281.5,1279,1279,1277.5,1276.5,1273.5,1271,1270,1267,1266,1265,1262,1258,1255.5,1254.5,1250.5,1245.5,1243,1238,1232,1228,1224,1218.5,1214.5,1211,1208.5,1206,1203,1201.5,1200,1199,1199,1198,1198,1196,1193,1192,1191,1189,1185.5,1182,1179.5,1177.5,1176,1175,1174,1172,1171,1167.5,1164,1160,1158,1154,1152,1150,1148,1146,1145,1145,1146,1147,1147,1145,1144,1141.5,1140,1138,1136,1133,1131,1130,1129,1127,1124,1122,1120,1118,1116,557,0,0,0,0,0,0,0,0,0,0,350,695.5,694,692.5,691,689.5,687,684.5,683,681,680,678,677,675,674,672.5,672,672,672,0,0,0,0,0,348,700,703.5,706,708,709.5,710,710,709,708,706,705,703,702,700,698.5,697.5,696.5,695,694,693,692,691,690,689.5,687.5,686,684,682.5,680.5,679.5,677.5,675,672.5,670.5,668.5,665.5,663,660,657,654,0,646,320.5,637.5,633,628.5,625,620.5,617,613.5,610.5,608,303.5,0,0,0,0,0,0,0,261,520,519,518.5,518,517,516,514.5,513,511,509,507,505,503,500.5,498,495.5,493.5,491.5,489.5,487.5,485.5,484,482.5,480.5,479.5,478.5,476.5,475.5,473.5,472,470,468.5,466.5,464.5,463,461.5,460,458.5,457,456,454.5,453,451.5,450,449,447.5,446,444.5,442.5,441.5,440,439,438,436,434.5,433,432,430,428.5,427.5,426.5,426,425,424,423.5,422,422,421,420.5,420,419,419,418,417.5,417,416,208,415,414,413,412.5,411.5,411.5,410.5,409.5,409.5,408.5,408,407,407,406,405.5,405,404,403.5,402.5,402,401.5,401,400.5,400,399.5,399.5,399.5,398.5,398.5,398.5,398.5,399,399,399,399.5,399.5,400,400,399,398.5,199.5,0,0,0
0,0,0,0,0,0,5548,0,2677.5,5309,5286,5263,5332,5332,5378.5,5523,5624,5756,5810,5893,5951,5979,6009,6009,5950,5921,5865,5865,5837.5,5922,5893,5756,5702,5676,5624,5598,5573,5548,5450,5402,5474,5498,5498,5498,5498,5474,5450,5402,5355.5,5241,5219,5197,5175.5,5219,5219,5242,5287,5332.5,5428.5,5500,5526,5550,5576,5626.5,5651.5,5679,5704,5730,5810,5810,5865.5,5893,5950,5979,5979,6008,6037,6067,6097,6158,6158,6158,6158,6097,6127.5,6158,6189,6220,6252,6252,6252,6316.5,6415.5,3275.5,0,3311,0,0,0,0,0,0,0,0,0,0,0,0,0,0,0,0,0,0,0,0,0,0,0,378,755,755,754,754,753.5,752,751,749,748,745.5,743,741,739,736.5,734.5,732.5,731.5,730,728,725.5,723.5,721,718.5,716,713.5,710,708,705.5,704,702.5,701,700.5,699,699,698,696.5,695.5,694,693,691,688.5,687,685.5,683.5,682,681,679.5,679,677.5,675.5,674,672,669,666.5,663.5,661.5,659,657,654.5,652.5,651.5,650,649,648,647,645.5,644.5,643,641,640.5,638.5,637.5,635.5,634.5,632.5,630.5,629,628,626,624.5,623.5,621.5,620.5,618.5,616.5,615.5,613.5,613,611.5,610,609.5,609.5,608.5,608.5,608.5,608,608,607.5,608.5,0,4336.5,4218,4161,4161,4105.5,4051.5,4051.5,8647,8579.5,8579.5,8579.5,8633.5,8568,8568,8450,8388,8388,8388,8328,8275.5,8275.5,8328,8388,8388,8442,4105.5,4161,4276.5,4398.5,4462.5,4595.5,4665,0,0,0,0,0,0,0,0,0,0,596.5,599,600,601.5,601.5,1198,1197,1197,1197,1198,1198,1198,1198,1200.5,1202.5,1206.5,1208.5,1211,1213.5,1217,1218,1219.5,1222,1223,1223,1223,1223,1224.5,1224.5,1225.5,1225.5,1225.5,1227,1227,1228,1230.5,1233,1233,1235.5,1238,1240.5,1243,1244,1247,1248,1250.5,1253,1254.5,1256.5,1256.5,1259.5,1262,1263,1264.5,1264.5,1267.5,1268.5,1269.5,1269.5,1272.5,1274,1276,1277.5,1280.5,1283,1284,1285.5,1285.5,1287,1287,1287,1287,1285.5,1284.5,1284.5,1283,1283,1283,1281.5,1279,1279,1276.5,1275,1273.5,1270,1267,1266,1266,1263.5,1258,1255.5,1254.5,1250.5,1245.5,1242,1239,1234,1229,1224,1220.5,1214.5,1212.5,1208.5,1206,1205,1203,1200,1200,1199,1198,1198,1196,1193,1192,1191,1189,0,0,0,1178.5,1178.5,1176,1175,1174,1173,1170,1165,1164,1160,1156.5,1153,1152,1150,1148,1147,1146,1146,1146,1147,1145,1142.5,1141.5,1140,1138,1136,1133,1131,1129,1129,1127,1123,1121,1119,1117,1115,557,0,0,0,0,0,0,0,0,0,0,350.5,697,695,694,692,690,687.5,686,683.5,682.5,680.5,679,677,675.5,674,673.5,672,672,0,0,0,0,0,0,0,0,714.5,717.5,718.5,718,715.5,714,712,710,708,706.5,705,703,702,700.5,699,697.5,696.5,695.5,694.5,693,693,691,690,689,687,685.5,683.5,681.5,680,678,675.5,673.5,670.5,668.5,665.5,662.5,660,656.5,653.5,650.5,647,642.5,638,634.5,630,625.5,622,618.5,615,612.5,610.5,0,0,0,0,0,0,0,0,0,520,519,518.5,518,517,516,514,256,511,509,506.5,504.5,502.5,500,497.5,495,493,491,489.5,487.5,485.5,483.5,482,480.5,479,477.5,476.5,474.5,473,471.5,469.5,468,466.5,464.5,462.5,460.5,459.5,458,456,455,454,452.5,451,449,448,446.5,445,443.5,441.5,440.5,439,438,437,435.5,434,432.5,431,429.5,428.5,426.5,425.5,424.5,424,423,422,422,421,420,419,419,418,417,417,416,416,207.5,207,413.5,413,412,411.5,411.5,410.5,409.5,409,408.5,407.5,407,406,405.5,404.5,404,403.5,402,401.5,400.5,399.5,399.5,399,399,399,398,397.5,397.5,397,396.5,397,397,397.5,397.5,397.5,398,398.5,398.5,398.5,398.5,397.5,397,397,0,0
0,0,0,0,0,0,5650,0,2725,5378.5,5355,5309,5355,5378.5,5402,5523,5676,5782.5,5865.5,5950,5979,6038,6038,6038,5950,5921,5865,5865,5837.5,5979,5922,5756,5676,5650,5650,5624,5598,5573,5426,5426,5498,5498,5498,5498,5498,5450,5426,5402,5355.5,5286,5219,5197,5197,5197,5241,5264,5287,5332.5,5403.5,5500,5500,5550,5576,5600,5626.5,5651.5,5704,5730,5810,5810,5865.5,5893,5950,6008,5979,6037,6037,6097,6097,6158,6158,6158,6158,6158,6158,6189,6252,6252,6284.5,6349.5,6349.5,6349.5,3241,0,3311,3311,0,0,0,0,0,0,0,0,0,0,0,0,0,0,0,0,0,0,0,0,0,0,0,379,755,754.5,754.5,754,754,753.5,752.5,750.5,749.5,747.5,745,742.5,740.5,738.5,736,735,733,731.5,730,728,725.5,723.5,720.5,718,714.5,711.5,709,706.5,705,703.5,701.5,701.5,700,699,699,698,697,696,693.5,692.5,690.5,689,687.5,685.5,683.5,682.5,681,679.5,678.5,677,674.5,672.5,670,667.5,665,662.5,660,657.5,655.5,653.5,652,651,649.5,648.5,648,646.5,646,644,643,641.5,640,638,636.5,635.5,633.5,632,630,628.5,627.5,625.5,624,622.5,620.5,619.5,618.5,616.5,615.5,614.5,613,612,611,610,609.5,609.5,609.5,609,609,609,609,0,0,4161,4161,4105.5,4105.5,4051.5,3999,8461.5,8461.5,8461.5,8397.5,8397.5,8450,8335.5,8388,8335.5,8275.5,8275.5,8328,8275.5,8328,8328,8328,8328,4051.5,4051.5,4105.5,4218,4336.5,4462.5,0,0,0,0,0,0,0,0,0,0,592,593.5,594.5,595.5,596.5,1192.5,1193.5,1193.5,1193.5,1193.5,1194.5,1194.5,1194.5,1194.5,1194.5,1196.5,1199.5,1201.5,1205,1207.5,1209.5,1212.5,1213.5,1216,1218,1219.5,1220.5,1220.5,1221.5,1221.5,1223,1223,1224,1225.5,1225.5,1227,1227,1229,1232,1234,1235.5,1238,1239.5,1241.5,1243,1245.5,1248,1250.5,1251.5,1254.5,1255.5,1256.5,1259.5,1262,1263,1264.5,1264.5,1267.5,1269.5,1269.5,1271,1272.5,1274,1276,1277.5,1279,1282,1284,1285.5,1287,1288.5,1288.5,1288.5,1287,1285.5,1284.5,1284.5,1283,1283,1283,1281.5,1279,1279,1278,1276.5,1273.5,1271,1268.5,1267,1265,1262,1258,1255.5,1251.5,1250.5,1245.5,1242,1237,1234,1229,1225.5,1220.5,1217,1212.5,1208.5,1206,1205,1203,1201.5,1200,1199,1198,1198,1196,1196,1193,1193,595.5,0,0,0,1181,1180,1178.5,1177,1175,1174,1172,1169,1166,1162,1159,1156.5,1152,1150,1148,1147,1146,1146,1146,1146,1143.5,1141.5,1140.5,1139,1137,1136,1133,1131,1129,1127,1127,1124,1120,1118,1117,1116,1114,0,0,0,0,0,0,0,0,0,0,0,350,696,695,693,691,689.5,687,685,683,681.5,680,678,676.5,674.5,673,672,0,0,0,0,0,0,0,0,0,0,735,732,727,725,720.5,717.5,714,710.5,707.5,706.5,704.5,703.5,702,700.5,700,698,697,696,694.5,693.5,693,691,689.5,687.5,686.5,684.5,682.5,680,678,676,673.5,671,668.5,665.5,663,660,657,653.5,650.5,647,643,639,635,631,626.5,623,620,616.5,615,613,0,0,0,0,0,0,0,0,0,520,519,519,518,517,516,514,512.5,510.5,508.5,506.5,504.5,502,499.5,497.5,495,493,491,489.5,487.5,485.5,483.5,482,480.5,478.5,477.5,476,474.5,473,471,469.5,467.5,465.5,463.5,461.5,460,458.5,457,455.5,454,453,452,450.5,449,447.5,446.5,444.5,442.5,441,439.5,438.5,437.5,436.5,434.5,433.5,431.5,430,429,427.5,426.5,425.5,424.5,423.5,422.5,421.5,420.5,419.5,419,418,417,416.5,416,415.5,415,414,414,413,412,411.5,411,410.5,409.5,408.5,408.5,407.5,407,406,405.5,404.5,403.5,403,402.5,401.5,400.5,399.5,199.5,199,397.5,397,396.5,396.5,396.5,395.5,395.5,395,394.5,394.5,395.5,395.5,395.5,395.5,396.5,396.5,396.5,397,396.5,396,395.5,395,395,393.5
0,0,0,0,0,0,5782.5,0,5523,5426,5426,5402,5426,5426,5402,5573,5702,5837.5,5922,5979,6008,6068.5,6067,6067,6008,5979,5893,5893,5837.5,5979,5922,5783.5,5702.5,5676,5650,5624,5624,5573,5450,5450,5523,5523,5523,5523,5498,5426,5450,5426,5355,5286,5241,5219,5219,5219,5264,5264,5286,5355.5,5403.5,5475,5524,5550,5550,5600,5625,5676.5,5702.5,5756,5782.5,5837.5,5865.5,5893,5950,5979,5979,6037,6067,6127.5,6127.5,6158,6158,6189,6189,6189,6220,6220,6284,6316.5,6349.5,6349.5,6383,6415.5,3241,3275.5,0,3275.5,0,0,0,0,0,0,0,0,0,0,0,0,0,0,0,0,0,0,0,0,0,0,0,0,756.5,756.5,756,755.5,755,754,753,752.5,751,749.5,747,744.5,742.5,740.5,739,736.5,735.5,733,731.5,730.5,727.5,724.5,722.5,719.5,717,714,711,709,706,705,703,702,701,700,699.5,699,698.5,697.5,695.5,694.5,692.5,691,689,687,685.5,684,682,681,679.5,678.5,676,673.5,671,668.5,666,663,660,658,656.5,654,653,651.5,650.5,649.5,648.5,647.5,647,645.5,643.5,642.5,641.5,640,638,636.5,635,633,631.5,630,628,626.5,625.5,624,622,620.5,619.5,618.5,617,615.5,614.5,613,612,612,610.5,610,610,610,609.5,609.5,609.5,0,4276.5,4161,4105.5,4051.5,4051.5,3999,3999,3999,8284,8284,8284,8335.5,8275.5,8275.5,8275.5,8275.5,8275.5,8217,8217,8217,8217,4051.5,4051.5,4051.5,4051.5,4105.5,4105.5,4161,4276.5,0,0,0,0,0,0,0,0,588.5,590,590,590,591,592,1184.5,1186.5,1188,1189,1189,1189,1190,1190,1191,1191,1191,1192.5,1193.5,1195.5,1198,1200.5,1202.5,1206,1208.5,1209.5,1212.5,1214.5,1216,1216,1217,1219.5,1219.5,1220.5,1223,1223,1224,1225.5,1227,1228,1230.5,1230.5,1233,1234,1235.5,1238,1240.5,1243,1244,1247,1248,1250.5,1254.5,1254.5,1256.5,1259.5,1261,1263,1264.5,1264.5,1267.5,1269.5,1269.5,1271,1274,1275,1276,1279,1282,1284,1284,1287,1288.5,1288.5,1289.5,1288.5,1288.5,1288.5,1285.5,1284.5,1283,1283,1281.5,1281.5,1279,1279,1278,1276.5,1275,1272,1270,1266,1265,1262,1258,1254.5,1251.5,1248,1245.5,1240.5,1237,1234,1229,1225.5,1220.5,1217,1213.5,1211,1207,1205,1203,1203,1200,1200,1199,1198,1197,1196,1196,1194.5,1192,594.5,593.5,592,1183,1182,1182,1180,1178.5,1176,1174,1172,1170,1166,1161,1159,1154,1152,1149,1148,1146,1146,1144.5,1143.5,1142.5,1140.5,1139,1138,1136,1134,1133,1131,1129,1129,1127,1124,1122,1119,1118,1116,1115,0,0,0,0,0,0,0,0,0,0,0,0,349,695.5,694,692.5,690,688,687,684.5,683,0,0,0,0,0,0,859.5,0,0,0,0,0,0,0,0,0,751.5,747,741,736,730,724.5,719.5,715.5,711.5,709,707.5,705,703.5,702.5,701.5,700,698,697,696.5,695,693.5,692.5,690.5,689.5,687,685.5,683,681,679,676.5,674,671.5,668.5,665.5,663.5,660,657,653.5,650,647,644,640,636,632.5,314,0,621.5,618.5,616.5,0,0,0,0,0,0,0,0,0,522.5,520,519,518.5,518,517,516.5,514.5,512.5,510.5,508.5,506.5,504.5,501.5,499.5,497,495,493,491,489.5,486.5,485,483.5,481.5,480,478.5,477,475.5,474,472.5,470.5,468.5,467,464.5,463.5,461.5,459.5,458,456,455,454,453,451,450,449,447.5,445.5,444,442,440.5,439.5,438,436.5,435.5,434,432.5,431,429.5,428,426.5,425.5,424.5,423.5,422.5,421.5,420.5,419.5,418.5,417.5,417,416,415.5,414.5,414,413.5,413,412,412,411,410.5,409.5,408.5,408.5,407.5,406.5,406.5,405.5,404.5,404,403,402,401,400.5,399,398.5,397.5,396.5,395.5,395,395,394.5,394.5,394,393.5,393.5,393.5,393,393,393.5,393.5,393,393.5,393.5,393.5,394,394,394,394,393,393,392.5,391.5
0,0,0,0,3079,6038,5837.5,0,5598,5523,5498,5426,5426,5450,5450,5598,5728.5,5865,5950,6008,6067,6127.5,6097,6097,6008,5979,5893,5865.5,5865.5,5979,5922,5783.5,5730,5702.5,5702.5,5650,5650,5599,5450,5474,5523,5548,5548,5523,5474,5402,5402,5378.5,5355,5286,5263,5219,5241,5241,5309,5286,5309,5379.5,5426.5,5475,5548,5524,5574,5599,5625,5676,5702.5,5755,5782.5,5837.5,5893,5921,5979,6008,6008,6037,6067,6127.5,6158.5,6189,6189,6189,6220,6220,6220,6284,6316.5,6316.5,6382,6415.5,6415.5,6415.5,6415.5,3241,3275.5,3241,0,0,0,0,0,0,0,0,0,0,0,0,0,0,0,0,0,0,0,0,0,0,0,0,757,757,756.5,757,756,755.5,754.5,753.5,752.5,751,749,746.5,744.5,742.5,740.5,739,737,735.5,733.5,731.5,730,727.5,724,722,719,715.5,713,709.5,708,706,704.5,703.5,702,701.5,701,700.5,700,698.5,697.5,695.5,694.5,692.5,691.5,690,687.5,685.5,684,682,681,678.5,676.5,674,672,669.5,666.5,664,661.5,659,657,654.5,653.5,652,651,650.5,649.5,648.5,648,646,645.5,644,642,640.5,639,638,635.5,634,632,630.5,629,628,626.5,625,623.5,622,620.5,619.5,618.5,617,615.5,614.5,613.5,612.5,612,611,611,610,610,610,610,305,0,4105.5,4105.5,3999,3999,3999,3999,3947.5,3947.5,8346,8284,8284,8275.5,8275.5,8275.5,8275.5,8217,8217,8217,8217,3999,3999,4051.5,4051.5,4105.5,4105.5,4105.5,0,0,0,0,0,0,0,0,0,0,586.5,586.5,587.5,588.5,590,1177.5,1179.5,1182,1183,1184.5,1184.5,1184.5,1186.5,1186.5,1188,1186.5,1188,1189,1191,1192,1195.5,1198,1199,1203,1205,1206,1208.5,1211,1212.5,1213.5,1213.5,1217,1217,1219.5,1220.5,1222,1223,1225.5,1227,1228,1229,1230.5,1232,1234,1235.5,1238,1240.5,1242,622,623.5,1248,1250.5,1253,1254.5,1256.5,1259.5,1259.5,1263,1264.5,1264.5,1267.5,1269.5,1269.5,1271,1274,1275,1277.5,1279,1283,1284,1287,1288.5,1291,1291,1289.5,1289.5,1289.5,1288.5,1285.5,1284.5,1283,1283,1281.5,1280,1279,1279,1278,1276.5,1275,1272,1270,1267,1265,1262,1258,1253,1250.5,1246.5,1244.5,1240.5,1237,1233,1229,1225.5,1221.5,1217,1213.5,1211,1208.5,1206,1204,1203,1200,1200,1200,1198,1198,1196,1196,1194.5,1194.5,1192,1190,1188,1185.5,1185.5,1184,1183,1181,1179.5,1176,1175,1172,1169,1164,1161,579,1153,1149,1148,1146,1145,1144.5,1143.5,1141.5,1140.5,1139,1137,1136,1134,1133,1131,1129,1129,1127,1125,1122,1120,1118,1117,1116,1112,1102,0,0,0,0,0,0,0,0,0,0,0,0,0,0,0,0,0,0,0,0,0,0,868.5,865.5,863,860.5,859,856,855,853.5,850,843.5,0,0,395,0,766.5,757.5,749,742,736.5,730,724,720,716,712.5,709.5,707.5,705.5,703.5,702,700,698.5,698,696.5,695,693.5,691.5,690,688,686.5,684,681.5,679,677,674,672,669,666,663,660,657,653,649.5,647,643,640,636.5,316.5,0,0,0,621,619,616.5,0,0,0,0,0,0,0,262.5,523,520,519,519,518,517,516,514.5,512,510.5,508.5,506.5,504.5,501.5,499.5,497,495,493,491,489,486.5,485,483.5,481.5,480,478.5,476.5,475.5,473.5,472,470,468.5,466.5,464.5,462.5,460.5,458.5,457.5,455.5,454,453,452,450.5,449,448,447,445.5,443.5,442,440,439,437.5,436,434.5,433,431.5,430,428.5,427,426,425,424.5,423,421.5,420.5,419.5,418.5,417.5,416.5,415.5,414.5,414,413,412,412,411,411,410.5,410,409.5,408.5,408,407,406,405.5,404.5,403.5,402.5,401.5,200,199.5,399.5,398,397.5,396.5,395.5,394.5,393.5,393.5,392.5,392.5,392.5,392,391.5,391.5,195.5,391,390.5,390.5,390.5,390.5,0,0,0,391.5,391.5,391,391,391,390.5,390.5,389.5
0,0,0,0,3110,6067,5865,2851,5650,5573,5548,5474,5474,5474,5474,5624,5782.5,5893,5979,6008,6097,6127.5,6127.5,6127.5,6008,5979,5865.5,5865.5,5865.5,6009,5922,5811.5,5757.5,5730,5702.5,5676.5,5650,5650,5450,5474,5523,5523,5499,5499,5450,5355.5,5378.5,5378.5,5332,5286,5286,5286,5264,5286,5332,5355.5,5332,5378.5,5450,5499,5523,5548,5548,5598,5624,5676,5728.5,5728.5,5782.5,5837.5,5865,5921,5950,6008,6038,6067,6067,6127.5,6158.5,6189,6189,6221,6252,6252,6316.5,6316.5,6382,6382,6415.5,6448.5,6448.5,6415.5,6415.5,6415.5,3241,3241,0,0,0,0,0,0,0,0,0,0,0,0,0,0,0,0,0,0,0,0,384.5,0,0,759,759,758.5,758.5,758.5,758,757.5,756.5,755.5,754,753.5,751,749,746.5,744.5,742.5,741,738.5,737.5,736,733.5,731,729.5,726.5,724,720.5,718,714.5,712.5,709.5,708.5,706.5,705,703.5,703,702,701.5,701,700.5,699,697.5,696.5,695,693.5,691,689,688,685.5,684,682,680,678,675,672.5,670.5,667.5,665,662.5,660,658,656,654,653,652,651.5,650.5,649.5,649,648,646.5,645.5,643.5,642,640,638,636.5,635,633,631.5,630,628.5,627.5,626,625,623.5,622,621,619.5,618.5,617,615.5,614.5,613.5,612.5,612,612,612,611,610,610,610,0,0,3999,3999,3947.5,3947.5,3947.5,3947.5,3897.5,3897.5,3947.5,8224,8224,8275.5,8275.5,8275.5,3999,3999,3999,3999,3999,3999,4051.5,0,0,0,0,0,0,0,0,0,0,0,581,582,583,583,1167.5,1168.5,1171,1172,1173,1174,1175,1177,1178.5,1180,1180,1181,1183,1183,1183,1185.5,1186.5,1188,1190,1193.5,1194.5,1197,1199,1201.5,1204,1206,1207,1208.5,1209.5,1211,1213.5,1214.5,1217,1218,1220.5,1223,1224,1227,1228,1229,1232,1233,1235.5,1235.5,1238,1239,1242,1244,1245.5,1248,1250.5,1253,1255.5,1256.5,1259.5,1262,1263,1264.5,1267.5,1267.5,1269.5,1268.5,1271,1272.5,1275,1277.5,1280.5,1283,1287,1288.5,1292,1293.5,1293.5,1292.5,1291,1289.5,1289.5,1285.5,1284.5,1281.5,1281.5,1281.5,1280,1279,1279,1278,1276.5,1275,1272,1270,1267,1265,1259,1257,1253,1250.5,1246.5,1241.5,1239.5,1235.5,1233,1228,1225.5,1221.5,1218,1213.5,1211,1208.5,1206,1205,1203,1200,1200,1200,1198,1198,1197,1197,1197,1194.5,1193.5,1192,1190,1188,1188,1185.5,1185.5,1183,1182,1178.5,1177.5,1174,1171,1166.5,1163,1157.5,1153,1150,1148,1144.5,1143.5,1143.5,1141.5,1139.5,1138,1137,1137,1136,1134,1133,1131,1130,1129,1128,1126,1123,1121,1119,1117,1116,1105,0,0,0,0,0,0,0,0,0,0,0,0,0,446,893,891,444.5,0,443,883,0,0,872.5,870,866,864.5,861.5,859.5,858,855,853,850.5,847,835,816.5,804,793.5,390.5,0,381.5,0,374,740.5,733.5,727,722.5,718,715,712,708.5,706.5,704,702.5,701,699.5,698,696.5,695,692.5,690.5,689,687,684,682,679.5,676.5,674,671.5,669,666,663.5,659.5,656.5,653,649,647,643.5,640,637,317,0,0,0,622,620,309,0,0,0,0,0,0,0,526,261,260,520,519.5,518,517,516,514.5,512,510,508.5,506,504,501.5,499,496.5,494.5,493,490.5,488.5,486.5,484.5,482.5,481.5,479.5,478.5,476.5,474.5,473.5,471.5,469.5,467.5,465.5,463.5,461.5,460,458.5,456.5,455,454,452.5,451,450,449,448,446.5,222.5,443.5,441.5,440,438,437,435.5,434,432,430,429,427.5,426.5,425,424,423.5,422.5,421,419.5,418.5,417.5,416.5,415.5,414,413.5,412.5,412,411,411,410,409.5,409,408.5,408.5,407.5,406.5,406,404.5,404,402.5,200.5,400.5,199.5,199,199,198.5,396,395.5,394.5,393.5,392.5,392,391.5,390.5,390.5,390.5,390,390,195,194.5,389,389,388.5,388.5,388,0,0,0,0,389,389,389,389,388.5,194.5,387.5
0,0,0,0,3142,6127.5,5921,5782.5,5728.5,5624,5573,5523,5548,5474,5523,5624,5810,5893,5950,6038,6127.5,6158.5,6128.5,6158.5,6038,5950,5865.5,5865.5,5865.5,6009,5951,5811.5,5811.5,5783.5,5730,5702.5,5676.5,5650,5474,5474,5523,5499,5475,5451.5,5426.5,5332.5,5332.5,5355.5,5332,5287,5287,5264,5287,5332.5,5379.5,5379.5,5403.5,5450,5498,5548,5573,5548,5599,5625,5650,5676.5,5756,5756,5810,5865.5,5865.5,5922,5979,6009,6009,6038,6097.5,6128.5,6158.5,6190.5,6221,6221,6284.5,6316.5,6349,6349,6415,6415,6448.5,6448.5,6448.5,6448.5,6448.5,6415.5,0,0,0,0,0,0,0,0,0,0,0,0,0,0,0,0,0,0,0,0,0,0,0,377,761,761,761,760.5,760,760,759,758.5,758,757,756,754.5,752.5,750.5,748.5,746.5,745,742.5,741,739,737,735.5,733,731,728,725,722.5,719.5,716.5,714,711.5,709.5,708.5,706.5,705,704.5,703.5,703,702,701.5,701,699.5,697.5,696.5,695.5,693.5,691.5,689,687,685,683,681,678.5,676,673.5,671,668.5,666,663,661,659,657.5,655.5,654,653,652,651.5,650.5,650,649,648,646.5,645,643,641.5,639.5,638,636,634,633,631,629.5,628.5,627.5,626,625,623.5,622,620.5,619.5,618.5,617,615.5,614.5,613.5,613,612,612,611.5,611,611,612,611.5,0,0,3947.5,3947.5,0,3897.5,3947.5,3897.5,3897.5,3897.5,3947.5,8224,8275.5,3999,3999,3999,4051.5,0,0,0,0,0,0,0,0,0,0,0,0,0,573.5,575.5,1159.5,1160,1161,1162,1161,1162,1164,1165,1166,1167.5,1169,1170,1171,1173,1174,1176,1176,1177,1180,1181,1183,1185.5,1185.5,1188,1190,1192,1194.5,1197,1198,1201.5,1204,1205,1206,1208.5,1209.5,1211,1213.5,1214.5,1216,1218,1222,1224,1227,1228,1229,1232,1234,1235.5,1237,1238,1239,1242,1244,1247,1249,1250.5,1254.5,1256.5,1258,1261,1262,1264.5,1266,1267.5,1267.5,1268.5,1271,1271,1272.5,1275,1279,1282,1283,1287,1290,1292,1293.5,1295,1293.5,1292.5,1289.5,1289.5,1287,1284.5,1281.5,1281.5,1281.5,1280,1279,1279,1278,1276.5,1275,1272,1270,1266,1263.5,1259,1255.5,1252,1248,1245.5,1240.5,1236.5,1234.5,1231.5,1228,1224.5,1220.5,1218,1213.5,1211,1208.5,1206,1205,1203,1201.5,1200,1200,1199,1198,1198,1197,1197,1195.5,1194.5,1192,1192,1190,1190,1188,1186.5,1185.5,1183,1181,1178.5,1175,1171,1167.5,1163,1157.5,1154.5,1150,1147,1144.5,1142.5,1141.5,1140.5,1138,1137,1136,1135,1134,1134,1133,1131,1130,1129,1127,1125,1123,1120,1119,1117,555,548,0,0,0,0,0,0,0,0,0,0,0,451,449,896.5,894,892,890.5,888.5,887.5,884.5,880,876.5,874,870.5,868,865.5,863,860.5,859,856,854,851.5,847.5,838.5,829,816.5,806.5,796.5,786,778,0,0,0,372,368.5,0,725,720.5,716.5,713,710,707,705,703.5,702,700,698,695.5,693.5,691.5,690,687,685,682.5,680,677,673.5,671.5,669,666,663,659.5,656.5,653,649,646.5,643.5,641,637.5,318,316,0,0,623.5,621.5,310.5,0,0,0,0,0,0,0,0,0,0,520.5,519.5,518.5,517.5,516.5,514.5,513,510.5,508.5,506.5,504,501.5,499,496.5,494.5,492,490,488,485.5,484,482.5,480.5,479.5,477.5,476.5,474.5,472.5,471,469,467.5,465,463.5,461.5,459.5,458,456,454.5,453,452,451,449.5,449,447.5,446,445,443.5,441.5,439.5,437.5,436.5,434.5,433,431,429.5,428,426.5,425.5,424.5,423.5,422.5,421.5,420,418.5,417.5,416.5,415.5,414,413,412,411,411,410,409,409,408,408,407.5,406.5,406,405,404,403,402,401,400,399,199,0,198,395,394,393.5,392.5,392,391.5,390.5,390,389.5,389,389,388.5,388,194,387,386.5,386,386,386,386,386,0,0,386.5,386.5,386.5,386.5,386.5,386.5,386.5,385.5
0,0,0,0,3142,3048.5,5979,5810,5756,5676,5676,5573,5548,5523,5548,5676,5810,5922,6008,6097.5,6127.5,6190.5,6128.5,6128.5,6068.5,5979,5865.5,5865.5,5865.5,6009,5951,5867,5811.5,5783.5,5757.5,5730,5676,5650,5498,5474,5499,5451.5,5451.5,5428.5,5380.5,5310.5,5310.5,5355.5,5355,5309,5309,5309,5332.5,5356.5,5403.5,5428.5,5451.5,5499,5548,5574,5600,5626.5,5679,5679,5704,5731.5,5759.5,5785.5,5811.5,5867,5923.5,5923.5,5951,6009,6009,6068.5,6068.5,6128.5,6158.5,6190.5,6221,6284.5,6316.5,6316.5,6382,6415,6448.5,6448.5,6482,6482,6482,6448.5,6448.5,6382,0,0,0,0,0,0,0,0,0,0,0,0,0,0,0,0,0,0,0,0,0,0,386.5,764,763,763,762.5,762,762.5,761,761,760,759.5,758.5,757.5,756,755,752.5,750.5,748.5,746.5,745.5,743,741,738.5,737,734.5,732,729.5,726.5,724,721,718.5,716,714,711.5,709,708.5,706.5,705.5,705,704.5,703.5,703,701.5,700.5,699.5,698,696.5,695,692.5,691,688.5,686.5,684.5,682,679.5,677,674.5,672.5,670,667,665,662.5,660,658,656.5,655,654,653,652,652,650.5,650,648.5,647.5,646,644.5,642.5,640.5,638.5,637,635,633.5,632.5,631,629.5,628.5,627.5,626,625,623.5,622.5,620.5,619.5,618.5,616.5,615.5,614.5,613.5,613,612,612,612,612,612,612,0,0,0,3897.5,0,0,0,0,0,0,0,0,0,0,0,0,0,0,0,0,0,0,0,0,0,0,0,0,0,1148,1150,1152.5,1155.5,1156.5,1156.5,1158,1156.5,1158,1159,1159,1159,1161,1161,1163,1165.5,1165.5,1168.5,1170,1172,1174,1175,1178.5,1181,1183,1184.5,1187,1189,1191,1191,1194.5,1197,1199,1203,1203,1205,1206,1208.5,1211,1211,1213.5,1216,1217,1220.5,1222,1224,1227,1229,1232,1234,1237,1238,1239,1240.5,1243,1245.5,1248,1250.5,1253,1255.5,1258,1259.5,1261,1262,1264.5,1267.5,1267.5,1267.5,1269.5,1271,1271,1274,1276,1279,1282,1284,1287,1291,1293.5,1296.5,1297.5,1295,1293.5,1292.5,1289.5,1287,1284.5,1281.5,1281.5,1280,1280,1279,1279,1278,1276.5,1275,1272,1268.5,1266,1262,1259,1254,1250.5,1247,1243,1240.5,1237,1233,1230.5,1226.5,1223,1220.5,1217,1213.5,1211,1208.5,1206,1204,1201.5,1201.5,1200,1200,1199,1199,1197,1197,1197,1197,1195.5,1194.5,1192,1192,1191,1190,1189,1188,1185.5,1183,1178.5,1176,1172,1167.5,1163,1157.5,1153,1150,1146,1142.5,1139.5,1139.5,1138,1136,1135,1134,1134,1134,1133,1133,1131,1130,1129,1127,1125,1123,1120,1119,556,0,1078,0,0,0,0,0,0,0,0,0,0,0,904.5,900.5,898,896,893,891,890,888,885,881,877.5,875,871,868,866,863,860.5,859,858,854,851.5,847,840.5,833.5,824.5,816.5,807.5,799,395.5,781,386,381.5,377,0,369,732,727.5,722.5,718,715,711.5,709,707.5,705,702.5,700.5,698,695.5,692.5,690.5,688,686,683,680,677,673.5,670.5,668.5,666,662.5,659.5,656.5,652.5,649.5,646.5,643,641,638,635,631,627.5,626,624.5,623,621.5,309.5,309,0,0,0,0,0,0,0,0,520.5,520.5,519,517.5,516.5,515,513,510.5,508.5,506.5,504.5,501.5,498.5,496.5,494,492,490,488,485.5,483.5,481.5,480.5,479,477.5,475.5,473.5,472.5,470.5,468.5,466.5,464.5,462.5,460.5,459,457,456,454,453,451.5,450.5,449,448.5,447,446,445,443.5,441.5,439.5,437.5,435.5,433.5,431.5,430,428.5,427,425.5,425,424,423,422,421,419.5,418,416.5,415.5,414.5,413,412,411,411,410,409,409,408,407,406,406,405,404,403.5,402,401,400,399,398,397,396,197.5,394,393,392,391.5,391,390.5,390,389.5,389,388,388,387,387,386.5,386,385.5,385,384.5,384,383.5,383.5,383.5,383,383.5,383.5,383.5,383.5,383.5,383.5,383.5,383.5,383.5
0,0,0,0,0,0,5979,5865,5782.5,5728.5,5676,5624,5599,5548,5598,5728.5,5865.5,5979,6038,6128.5,6158.5,6160.5,6190.5,6128.5,6009,5950,5865.5,5865.5,5894.5,6039.5,5981,5896,5867,5811.5,5783.5,5728.5,5702,5650,5474,5450,5451.5,5428.5,5405.5,5383.5,5358.5,5288.5,5287,5287,5332,5309,5309,5332.5,5356.5,5380.5,5453.5,5453.5,5502.5,5500,5574,5600,5626.5,5654,5654,5706.5,5706.5,5759.5,5759.5,5814.5,5814.5,5840.5,5896,5923.5,5981,5981,6009,6039.5,6068.5,6099.5,6128.5,6190.5,6221,6284.5,6284.5,6349.5,6415.5,6448.5,6448.5,6482,6482,6482,6482,6482,6482,6415,0,0,0,0,0,0,0,0,0,0,0,0,0,0,0,0,0,0,0,0,0,0,386.5,765,764.5,763.5,763.5,763,764,763,762.5,761.5,761,760,759,757.5,756.5,755,752.5,750.5,748.5,746.5,745.5,742.5,740,737.5,735.5,733,731,727.5,724.5,722.5,719.5,718,715,714,711,709,708.5,707.5,706,705.5,705,704,703.5,702.5,701.5,699.5,698.5,697,695,693,691,688.5,686,683.5,681,678,675.5,673.5,671,668,665.5,663.5,661.5,659.5,658,656,654.5,654,653,652,652,650.5,649.5,648.5,647,645,643.5,641.5,639,637.5,635.5,634,632.5,631.5,631,629,628.5,627.5,626,625,623.5,622,620.5,619.5,617.5,616.5,615.5,614.5,613,613,612.5,612,612,612,612,0,0,0,0,0,0,0,0,0,0,0,0,0,0,0,0,0,0,0,0,0,0,0,0,0,0,0,0,576.5,1141.5,1145.5,1146.5,1150,1151,1151,1151,1152,1152,1152,1152,1153,1153,1154.5,1155.5,1157.5,1159.5,1163,1164,1167.5,1171,1173,1174,1178.5,1181,1183,1184,1187,1189,1190,1192,1195.5,1197,1199,1203,1203,1204,1206,1208.5,1211,1212.5,1213.5,1216,1219,1222,1224,1227,1229,1232,1233,1237,1239,1242,1243,1244.5,1246.5,1249.5,1251.5,1254.5,1256.5,1259.5,1262,1263,1264.5,1267.5,1267.5,1269.5,1269.5,1272.5,1272.5,1272.5,1274,1277.5,1279,1282,1285.5,1288.5,1291,1293.5,1297.5,1297.5,1297.5,1295,1293.5,1291,1288,1285.5,1281.5,1281.5,1280,1280,1279,1279,1278,1276.5,1273.5,1271,1268.5,1266,1262,1257,1254,1249,1245.5,1242,1239,1235.5,1232,1229,1225.5,1222,1219,1217,1213.5,1210,1207,1206,1205,1203,1203,1200,1200,1199,1199,1198,1197,1197,1197,1194.5,1194.5,1193,1192,1192,1191,1190,1189,1185.5,1183,1179.5,1176,1172,1167.5,1162,1157.5,1153,1148,1143.5,1140.5,1138.5,1137,1135,1134,1132,1133,1132,1132,1132,1133,1131,1129,1129,1126,1124,1121,1116,553,0,0,0,0,0,0,0,466.5,928,926,461.5,0,0,455.5,905.5,902.5,900.5,897.5,895,892.5,891,888.5,885.5,882,878,875,871.5,869.5,866.5,864,861.5,859.5,858,854,851.5,847,842.5,837.5,831,824,817.5,809.5,801.5,793.5,784.5,776,764.5,755,745.5,738,732.5,727,722,718,715,712.5,709.5,708,705,702,699.5,696.5,693.5,691.5,689,686,683,680,677,673.5,670.5,667.5,664.5,662,659,656,0,324.5,646,643.5,640.5,638,635,631.5,628,626.5,624.5,623,621.5,0,0,0,0,0,0,0,0,0,260.5,521.5,520.5,519.5,518.5,517.5,515,513,511,508.5,506.5,504.5,501.5,498.5,496.5,494,492,490,487.5,485.5,483.5,481.5,479.5,478.5,477,475,473.5,471.5,469.5,468,466,464,462,460,458,456.5,455,453.5,452,451,450,449,447.5,447,446,445,443,441,439,436.5,434.5,432.5,431.5,429.5,428,426.5,425,424,423,422,421,420,418.5,417.5,416.5,414.5,413.5,412,411,410.5,409.5,409,408,408,406.5,406,405,405,404,402,201,200.5,199.5,199,397,396,395,394,393,392,391.5,390.5,390,390,389,389,388,387.5,387,386.5,386,385.5,385.5,384.5,384,383.5,383,383,382,382,382,381.5,381.5,381.5,381,380.5,380.5,380.5,380.5,381,381
0,0,0,0,0,0,5950,2905,5782.5,5728.5,5702.5,5650,5650,5599,5676,5782.5,5894.5,6009,6038,6128.5,6190.5,6190.5,6158.5,6128.5,6038,5950,5865.5,5865.5,5894.5,6039.5,5981,5923.5,5923.5,5811.5,5783.5,5728.5,5676,5624,5450,5403.5,5405.5,5358.5,5358.5,5334.5,5312.5,5243.5,5265,5264,5309,5287,5310.5,5310.5,5334.5,5405.5,5453.5,5479.5,5502.5,5526,5576,5602.5,5626.5,5654,5654,5681.5,5681.5,5734.5,5759.5,5788.5,5814.5,5840.5,5869.5,5896,5953.5,5981,5981,6039.5,6039.5,6099.5,6128.5,6190.5,6221,6253.5,6317.5,6349.5,6415.5,6448.5,6448.5,6448.5,6482,6483,6482,6482,6415,6415,6349,0,0,0,0,0,0,0,0,0,0,0,0,0,0,0,0,0,0,0,0,0,0,386,766,765,765.5,764.5,764.5,764.5,764,763,762.5,761.5,760.5,759,758,756,754.5,752.5,750,747.5,746,744,741,738,736.5,733.5,731,729,726,724,721,719,717.5,715.5,714,712,710,709,708.5,707,706.5,705.5,704.5,703.5,703,701.5,699.5,698.5,696,694.5,692.5,690,687.5,685,682.5,680,677,674.5,672,669.5,667.5,665,662.5,660.5,658.5,657,655.5,654.5,653.5,653,652.5,651.5,650.5,649,648,646.5,644.5,642.5,640,638,636,635,634,632,631,630.5,629.5,628.5,627.5,626,624.5,623,621.5,620.5,618.5,617,615.5,615,614.5,613,613,612.5,612,612,612,306,0,0,0,0,0,0,0,0,0,0,0,0,0,0,0,0,0,0,0,0,0,0,0,567,1120,1126.5,1130.5,1133.5,1136.5,1140.5,1142.5,1144.5,1146,573.5,1146,1147,1146,1146,1145,1146,1148,1147,1149,1151,1154.5,1156.5,1160,1162,1165,1169,1172,1175,1178.5,1181,1182,1184,1187,1189,1190,1194.5,1195.5,1199,1200,1203,1204,1206,1208.5,1208.5,1211,1213.5,1213.5,1217,1219,1223,1225.5,1228,1232,1234,1237,1240.5,1243,1245.5,1248,1249.5,1251.5,1254,1258,1259.5,1262,1264.5,1266,1267.5,1268.5,1271,1272.5,1272.5,1273.5,1273.5,1275,1276.5,1277.5,1281.5,1283,1285.5,1288.5,1292.5,1296.5,1297.5,1300.5,1297.5,1295,1295,1292.5,1289.5,1285.5,1283,1281.5,1280,1280,1279,1278,1278,1275,1273.5,1271,1268.5,1265,1260.5,1257,1252,1249,1244,1242,1239,1235.5,1232,1229,1227,1222,1218,1216,1213.5,1210,1207,1206,1205,1203,1203,1200,1200,1200,1198,1198,1197,1198,1198,1198,1197,1195.5,1195.5,1193.5,1193.5,1191,1189,1186.5,1183,1179.5,1175,1172,1165,1162,1157.5,1153,1148,1143.5,1140.5,1137.5,1135,1133,1132,1130,1131,1131,1132,1132,1131,1130,1129,1127,1125,1123,1118,1111,1100,0,0,0,0,0,0,939.5,929,927,926,922,919,915,911,907,903.5,901,897.5,895,893.5,891.5,890,886.5,883,880,877,873,870.5,868,865.5,862,860,858.5,855,852,847.5,843.5,838.5,834.5,829.5,823,817.5,810.5,804,798,786,776,764,377,745.5,737.5,731,725.5,722,719,715.5,713.5,711,707.5,704.5,701,697.5,695,692,689,686.5,683,680,676.5,673,669.5,666.5,664,661,659,655.5,652,648.5,646.5,643.5,640.5,637.5,635,631.5,628.5,626.5,625.5,624,310.5,0,0,0,0,0,0,0,0,0,261,521.5,521.5,520.5,519.5,518,516,513.5,511.5,509.5,506.5,504.5,501.5,499,496.5,494.5,492,490,487.5,485,483,481.5,479.5,478.5,476.5,474.5,472.5,471.5,469.5,468,465.5,463.5,461.5,459.5,458,456,454.5,453.5,451.5,450.5,449.5,448.5,447.5,446.5,445.5,444,442.5,440.5,438.5,436.5,434.5,432.5,430.5,428.5,427,425.5,424.5,423.5,423,421.5,420.5,419.5,418,416.5,415.5,413.5,412.5,411,410,409,408.5,408,407,406,405,404.5,404,403,402,401,200,199.5,199,198,395.5,394.5,393.5,393,392,391,390,390,389,388.5,388,387,387,386,386,385.5,385,384.5,384,383.5,383,382.5,382,382,381,381,380,380,379.5,379,379,378.5,378.5,378,378,378,378
0,0,0,0,0,0,5950,2905,5782.5,5756,5728.5,5676,5650,5650,5702,5810,5922,6038,6097.5,6158.5,6190.5,6190.5,6160.5,6128.5,6009,5950,5865.5,5865.5,5894.5,6009,5981,5923.5,5923.5,5811.5,5756,5676,5650,5573,5402.5,5332.5,5334.5,5288.5,5267,5267,5222,5220.5,5220.5,5241,5241,5264,5287,5310.5,5334.5,5405.5,5453.5,5479.5,5479.5,5526,5576,5602.5,5654,5654,5654,5657.5,5681.5,5734.5,5759.5,5759.5,5814.5,5840.5,5869.5,5896,5926,5953.5,5981,6011.5,6039.5,6099.5,6128.5,6190.5,6190.5,6253.5,6317.5,6349.5,6415.5,6450,6483,6483,6448.5,6448.5,6482,6482,6448.5,6415,6349,0,0,0,0,0,0,0,0,0,0,0,0,0,0,0,0,0,0,0,0,0,0,385.5,767,766.5,766.5,766.5,766,766,765,764,763.5,762.5,761.5,760.5,759.5,757.5,755.5,753.5,751.5,749,747,744.5,742,739,736.5,733.5,731,729.5,727,724.5,722.5,720.5,719,717,715,713.5,712.5,711,709.5,709,708,707,706.5,705,703.5,702.5,701,699,697.5,695.5,693.5,691.5,688.5,686,683.5,680.5,678.5,676,673,670.5,667.5,665.5,663.5,661.5,659.5,657.5,655.5,655,654,653.5,653,652.5,651,650,648.5,646.5,644.5,643,641,639,637,635.5,634.5,633.5,632,631.5,630.5,629,628.5,626.5,625.5,624,623,621,619.5,618.5,616.5,615.5,615,614,613,613,613,613,612.5,612.5,0,0,0,0,0,0,0,0,0,0,0,0,0,0,0,0,0,0,0,0,0,543,1102,1108,1113,1120,1123,1128,1130,1134.5,1137.5,1139.5,1139.5,1139.5,1140.5,1140.5,1139,1138,1138,1139.5,1140.5,1141.5,1143.5,1147,1149,1152,1156.5,1157.5,1162,1165,1169,1173,1175,1178.5,1181,1183,1184,1188,1190,1192,1194.5,1197,1198,1200,1203,1205,1206,1208.5,1208.5,1211,1213.5,1216,1219,1223,1225.5,1228,1230.5,1234,1239,1243,1246.5,1249.5,1251.5,1251.5,1255.5,1258,1261,1262,1263,1266,1268.5,1269.5,1272.5,1273.5,1273.5,1273.5,1273.5,1276.5,1276.5,1276.5,1279,1281.5,1283,1287,1289.5,1293.5,1296,1300.5,1300.5,1299,1297.5,1295,1293.5,1289.5,1287,1284.5,1283,1281.5,1280,1280,1278,1278,1275,1272,1271,1268.5,1265,1260.5,1255.5,1252,1249,1244,1242,1239,1235.5,1232,1229,1227,1223,1218,1216,1213.5,1210,1207,1206,1204,1203,1201.5,1200,1199,1198,1198,1198,1198,1198,1198,1198,1198,1196.5,1196.5,1196.5,1195.5,1193.5,1191,1188,1184.5,588.5,1175,1172,1166,1162,1156.5,1152,1147,1143.5,1139.5,1136,1134,1132,1130,1129,1129,1130,1130,1130,1129,1128,1127,1125,1122,1117,1112,1104,1089,1069,0,0,0,0,940.5,934.5,928,926.5,924,922,918.5,914.5,911.5,907.5,903.5,901,898.5,895,893.5,892.5,890,886.5,884.5,881,878,875.5,872,869.5,866,864,861,859.5,857,852.5,848,844.5,839.5,834.5,830,825.5,819.5,812.5,807,801.5,793,781.5,771,759.5,751.5,744,737,731.5,726.5,723.5,720,716.5,713.5,710,706.5,703,699,696,692.5,690,686.5,683,680,676.5,672.5,669.5,666.5,664,661,658.5,655,651.5,648.5,646.5,643.5,641,638,635.5,632,629.5,627.5,626.5,624.5,623,0,0,0,0,0,0,0,0,0,0,522.5,522,521.5,520.5,518.5,516.5,514.5,511.5,509.5,506.5,504.5,501.5,499,496.5,494.5,492,490,487.5,485.5,483.5,481.5,480,478.5,476.5,474.5,473,471,469,467,465,463,460.5,459,457,456,454.5,453,451.5,450.5,449.5,448.5,446.5,445.5,445,444,442,440,438,435.5,433.5,431.5,429.5,428,426.5,425,424,423,422,421,420,418.5,417,415.5,414.5,412.5,411.5,410,409,408,407.5,406,406,405,404,403,402,401.5,400.5,399.5,398.5,397.5,396.5,395.5,394,393.5,392.5,392,391,390,390,389,388,387.5,387,386.5,386,385,385,384.5,384,383.5,383.5,382.5,382.5,382,381.5,381,380,380,379.5,379,378.5,378,377.5,377,376.5,376,376,375,376
0,0,0,0,0,0,5950,2905,5837.5,5756,5756,5702,5702.5,5676,5755,5837.5,5922,6038,6097.5,6158.5,6221,6190.5,6158.5,6099.5,6009,5950,5921,5893,5865.5,5979,5979,5894.5,5894.5,5782.5,5756,5624,5573,5499,5309,5264,5265,5243.5,5220.5,5220.5,5155.5,5133.5,5154,5219,5241,5242,5265,5265,5334.5,5383.5,5453.5,5479.5,5479.5,5502.5,5528.5,5602.5,5578.5,5602.5,5630,5657.5,5681.5,5709.5,5734.5,5759.5,5814.5,5814.5,5843.5,5869.5,5896,5953.5,5953.5,5981,6039.5,6099.5,6160.5,6160.5,6223,6286.5,6317.5,6383,6417.5,6450,6483,6483,6483,6483,6448.5,6448.5,6448.5,6415,6349,0,0,0,0,0,0,0,0,0,0,0,0,0,0,0,0,0,0,0,0,0,0,385,768,767.5,767,767.5,767.5,767,766,765.5,764.5,763.5,762.5,761.5,760,758,756,754.5,752.5,750,748,744.5,742,739,736,734,731.5,730,727.5,725.5,723.5,722,720.5,719,717.5,715.5,714.5,713.5,712,710.5,709.5,707.5,707,706.5,704.5,703.5,702.5,700.5,699,697,694.5,692,689.5,687.5,684.5,682,679.5,676.5,674,671.5,669,667,664.5,662,660,658,656,655.5,654.5,654,653,653,651,650.5,649,647.5,645.5,643.5,641,639,637.5,636,634.5,634,633,632,631.5,630.5,629,628,626.5,625,623.5,622,620,619,618,616,615,614.5,613,613,613,613,613,612.5,0,0,0,0,0,0,0,0,0,0,0,0,0,541,1075.5,1075.5,1076.5,1077.5,540,541,1089,1093,1098,1103,1109,1115,1118,1121,1124,1127,1130,1132,1133,1133,1132,1133,1133,1132,1134,1134,1135,1136,1139.5,1141.5,1144.5,1149,1151,1154.5,1157.5,580,1165,1170,1173,1175,1177,1181,1183,1185.5,1188,1191,1192,1194.5,1196,1198,1201.5,1204,1205,1206,1208.5,1211,1211,1216,1218,1222,1224,1228,1233,1237,619.5,0,623.5,624.5,1254.5,1255.5,1258,1261,1262,1264.5,1266,1268.5,1271,1272.5,1273.5,1276.5,1275,1276.5,1276.5,1276.5,1276.5,1276.5,1279,1283,1284.5,1287,1289.5,1295,1297.5,1302,1300.5,1300.5,1297.5,1295,1292.5,1291,1287,1283,1283,1280,1280,1280,1278,1278,1275,1272,1271,1268.5,1265,1260.5,1255.5,1252,1248,1245.5,1243,1239,1237,1233,1229,1225.5,1223,1218,1216,1212,1210,1207,1205,1204,1203,1201.5,1200,1199,1198,1198,1198,1199.5,1199.5,1199.5,1201.5,1201.5,1200.5,1199.5,1199.5,1196.5,1194.5,1192.5,1189,1184.5,1181,1175,1172,1166,1163,1159,1153,1147,1143.5,1139.5,1136,1132,1130,1128,1127,1127,1128,1128,1128,1127,1126,1124,1122,1118,1110,1101,1088,1069,0,0,496.5,0,471.5,935,932,926.5,925,924,920,918,915,911.5,908,905,902.5,899.5,897,895,892.5,890.5,888,885.5,882,879,876,873,871,867,864.5,862,860,857,853.5,849.5,845.5,840.5,837,831,826,819.5,812.5,806.5,801,793,783.5,774.5,764,755.5,748,742,736,731.5,728,724,720,716.5,712.5,708.5,704.5,700,696.5,693,690.5,687.5,683.5,680,677,673,669.5,666.5,664,661,658.5,655,651.5,649,646.5,644,641,638.5,635.5,632.5,630,628,627,625.5,313,0,0,0,0,0,0,0,0,0,524.5,523.5,522.5,522.5,521,519,516.5,514.5,512,509.5,507,504.5,501.5,499.5,497,495,493,490.5,488,486,483.5,481.5,480,478.5,477,475,473,471.5,469,467,465,462,460,458,457,455,454,452.5,451,450,448.5,447.5,446.5,445.5,444,443,441,439.5,437,434.5,432.5,430.5,428.5,427,425,424,423,422,421,420,419,417.5,416.5,414.5,413.5,412,411,409,408,407.5,406,405,404.5,404,402.5,402,401,400,399,398,397,396,395,394,393,392,391.5,391,390,389.5,389,388,387,387,386,385.5,385,384,384,383.5,383,383,382.5,382,381.5,381,380.5,380,379.5,379,378.5,378,377.5,376.5,376.5,375.5,375,374.5,374,373.5,374
0,0,0,0,0,0,5979,2932.5,5865.5,5810,5756,5728.5,5702.5,5702.5,5782.5,5837.5,5950,6038,6097.5,6158.5,6221,6221,6190.5,6097.5,6038,6008,5950,5950,5950,6008,6008,5893,5893,5782.5,5702,5598,5523,5475,5309,5220.5,5199,5133.5,5133.5,5133.5,5113,5111.5,5154,5153.5,5197,5219,5220.5,5243.5,5288.5,5358.5,5430.5,5430.5,5456.5,5479.5,5502.5,5552,5602.5,5578.5,5606,5657.5,5681.5,5681.5,5734.5,5759.5,5785.5,5814.5,5814.5,5869.5,5869.5,5896,5923.5,5981,6039.5,6099.5,6160.5,6223,6253.5,6317.5,6351,6417.5,6417.5,6485.5,6518.5,6518.5,6483,6483,6483,6483,6448.5,6482,3207.5,0,0,0,0,0,0,0,0,0,0,0,0,0,0,0,0,0,0,0,0,0,0,0,769,769.5,768.5,768.5,768.5,768,767,766.5,765,764,763,762,761,759.5,757,755,752.5,750.5,748,745,741.5,739,736,734.5,731.5,730.5,728,726,724.5,723,721.5,720.5,718.5,717.5,715.5,714.5,713.5,712.5,710.5,709.5,707.5,707,705.5,703.5,703,701.5,699.5,698,695,693,690.5,688,685.5,683,680,677.5,675,672.5,670,667.5,665,662.5,660.5,658.5,656.5,655.5,655,653.5,653,653,651.5,650.5,649,648,645.5,644,641.5,639.5,638.5,636.5,635.5,634.5,634,632.5,632,631,630.5,629,627,626,624.5,623,621,620,618,616,615.5,615,614,613.5,613.5,613.5,613,613,306.5,0,0,0,0,0,0,0,0,0,0,536.5,1076.5,1076.5,1076.5,1076.5,1076.5,1076.5,1079,1082,1087,1091,1095,1099,1104,1109,1111,1115,1118,1120,1123,1124,1125,1125,1126,1126,1127,1127,1128,1129,1130,1132,1135,1137.5,1140.5,1143.5,1147,1150,1154.5,1157.5,1162,1165,1170,1173,1175,1177,1182,1183,1186.5,1190,1192,1193,1196,1198,1201.5,1201.5,1205,1207.5,1207.5,1209.5,1211,1216,1218,1220.5,1224,1227,1230.5,1237,1240.5,0,0,1254,1258,1259.5,1259.5,1263,1264.5,1267,1268.5,1270,1271,1274,1275,1276.5,1278,1278,1278,1276.5,1276.5,1276.5,1279,1281.5,1284.5,1287,1291,1295,1299,1302,1302,1300.5,1297.5,1296,1294,1291,1288,1284.5,1283,1281.5,1280,1280,1280,1278,1275,1273.5,1271,1268.5,1265,1260.5,1255.5,1252,1248,1245.5,1243,1240.5,1237,1233,1230.5,1225.5,1220.5,1218,1216,1212,1210,1207,1205,1204,1201.5,1200,1200,1199,1198,1198,1199,1199.5,1199.5,1200.5,1202.5,1202.5,1202.5,1201.5,1200.5,1199.5,1196.5,1193.5,1189,1184.5,1181,1176,1172,1166,1163,1159,1154,1149,1145,1139,1135,1132,1129,1127,1123,1123,1123,1124,1124,1124,1123,1121,1119,1113,1101,1089,1073,1051,513,500.5,488,953,938,932,928,925.5,924,922,920,918,915,912,909,906,903,900,897,895.5,893.5,891.5,889,886,882,880,876.5,874,871,868,865.5,864,860.5,857.5,854.5,850.5,846.5,842.5,837,831.5,826.5,820,813.5,807,800.5,793.5,784.5,776,767,0,0,745.5,740,736,731.5,727.5,723.5,719,715,710,706,701,697.5,693.5,690.5,687.5,684,680.5,677,673.5,670.5,667.5,664,661,659,655.5,652,649.5,647,644.5,642,639.5,637,634,631.5,629.5,628,626.5,625.5,624,0,0,0,0,0,0,0,524.5,262.5,524,523,522.5,521.5,520,517.5,515.5,513,510.5,508,505.5,502.5,500.5,497.5,495,493,491,488.5,486.5,484.5,482.5,480.5,478.5,477,475,473,471,469,467,464.5,462,460,458,456,455,454,452.5,451,449.5,448.5,447.5,446.5,444.5,443.5,442,440,219,218,433.5,431,429.5,427,426,425,424,423,421.5,420.5,420,418,417,415.5,414.5,412.5,411,410,408.5,407,406,405,404,403,402,401,401,400,399,398,397,396,395,394,393,392,391,390,390,389,388,387.5,387,386,386,385,384.5,384,383.5,383,383,382.5,382,381.5,381.5,380.5,380,379.5,378.5,378,378,377.5,377,376.5,375.5,375,374.5,373.5,373,373,372.5,372.5
