1872,1700,1728,1652,1568,1224,1360,1212,1020,980,760,624,532,472,468,400,348,288,221.356,185.356,169.358,141.36,125.36,89.36,81.36,65.36,57.36,53.362,45.364,44,37.36,17.36,17.356,12,12,20,20,32,64,76,84,112,140,172,196,232,260,380,445.318,500,552,464,472,512,720,984,1196,1472,1536,1480,1516,1612,1760,1876,1916,1948,1916,1904,1944,1948,1944,1960,1952,1960,1932,1920,1888,1764,1624,1640,1624,1544,1552,1644,1784,1864,1776,1620,1544,1360,1224,1124,1156,1036,952,972,1072,1168,1112,1052,1024,960,876,644,516,432,324,136,60,60,96,48,16,0,2.596,7.752,25.954,31.146,33.82,40.3,36.402,33.812,15.57,22.086,39.028,48.03,59.792,75.738,154.306,218.716,205.988,254.29,398.216,513.32,511.988,475.46,590.526,643.79,643.084,668.324,681.164,684.24,678.256,685.07,686.418,685.124,677.612,650.402,561.096,468.108,403.222,286.806,406.196,355.726,423.872,312.366,317.184,318.818,254.192,209.85,147.456,91.304,55.522,43.12,32,37.398,32,28,28,16,20,32,20,24,16,16,20,16,16,21.558,13.558,13.552,17.548,17.54,21.55,17.544,17.536,14.74,10.74,10.732,20,20,56,32,16,68,136,144,444,452,444,428,356,184,240,92,108,80,12,8,8,5.37,5.366,5.366,5.366,5.362,0,0,0,0,0,0,0,0,0,0,0,0,0,1.39,4.178,21.598,25.944,50.578,104.932,123.934,207.092,459.31,551.556,574.592,617.778,629.76,626.03,646.426,654.886,662.348,664.55,667.036,666.578,670.152,670.872,671.202,671.73,672.012,672.006,671.77,660.276,659.716,653.386,652.454,651.406,647.518,666.422,667.908,669.402,670.832,673.574,669.92,675.65,677.27,676.42,675.72,671.088,670.408,657.974,653.61,653.23,617.384,600.902,568.452,462.618,360.21,335.11,288.016,273.304,210.572,221.404,410.692,298.574,378.204,489.41,475.074,447.236,569.13,411.998,357.872,432.028,604.978,652.894,671.96,677.814,667.708,657.45,664.85,666.028,667.162,664.358,661.882,658.352,653.406,638.224,652.302,650.304,640.374,553.702,543.632,588.344,617.252,625.424,628.384,626.778,624.438,622.516,623.268,623.098,624.396,623.252,621.818,620.562,619.248,617.844,616.866,616.008,615.436,615.046,614.632,614.294,614.056,614.036,613.904,613.688,613.442,613.098,612.814,612.546,612.308,612.024,611.636,611.256,611.004,610.63,610.424,610.134,609.824,609.478,609.114,608.694,608.322,607.73,607.322,606.864,606.444,606.014,605.792,605.704,605.624,605.61,605.688,605.712,605.618,605.59,605.704,605.718,605.556,605.416,604.97,604.612,604.49,604.568,604.592,604.466,604.262,603.972,603.696,603.618,603.5,603.28,602.946,602.538,602.308,601.97,601.752,601.572,601.306,600.884,599.296,595.326,598.618,599.526,599.344,599.18,597.842,598.894,598.79,598.76,598.828,598.798,598.806,598.87,599.062,598.89,598.552,598.168,597.798,597.396,596.886,596.228,595.476,594.726,594.164,593.696,593.418,593.244,593.204,593.842,594.274,595.872,599.564,599.46,23.082,166.386,487.232,465.198,519.69,514.774,552.958,551.264,542.042,556.068,544.862,466.1,462.526,458.732,466.088,400.956,335.17,320.316,324.844,303.408,346.074,391.166,421.802,453.89,470.344,499.992,553.212,575.364,575.534,605.506,622.348,635.332,637.962,640.634,641.828,641.442,640.898,639.158,636.372,636.334,633.802,632.736,635.508,642.316,644.264,645.354,645.336,645.31,646.72,648.146,649.432,650.592,648.95,650.926,655.298,655.5,654.306,651.756,654.336,652.982,653.004,646.156,653.868,652.11,644.906,640.22,634.052,634.652,618.246,601.702,576.052,546.564,494.832,448.532,373.772,313.604,250.992,194.536,141.066,90.242,59.048,34.166,23.856,12.056,9.51,8.128,8.254,9.502,24.226,41.71,59.28,91.662,128.014,186.46,247.476,304.364,358.482,354.636,371.952,365.564,374.982,363.874,333.844,292.626,271.852,265.72
1732,1696,1512,1532,1484,1392,976,1116,884,640,620,516,396,364,316,292,232,221.354,177.354,141.354,129.354,113.352,85.352,77.352,61.354,49.35,41.348,41.348,25.348,22.67,18.666,5.344,2.662,1.332,4,8,8,8,9.318,8,12,12,12,16,29.322,49.32,53.32,85.32,93.32,113.322,108,104,132,140,200,260,408,596,688,784,988,1156,1416,1600,1732,1764,1752,1816,1848,1848,1840,1860,1888,1880,1844,1692,1660,1664,1588,1664,1748,1852,1844,1888,1888,1864,1692,1620,1492,1404,1396,1288,1212,908,548,460,464,480,532,512,464,372,152,96,92,60,32,12,0,0,0,0,2.584,16.778,32.326,77.442,116.226,135.66,120.382,85.488,76.486,79.032,81.682,134.784,147.562,139.97,147.91,194.928,278.386,394.718,417.51,432.52,497.316,573.088,614.238,566.216,621.27,650.216,668.138,674.06,676.778,679.236,680.812,681.31,676.096,654.932,554.054,509.768,390.966,214.7,338.026,304.644,326.1,323.04,298.584,299.238,302.536,236.606,284.052,234.862,128.862,73.636,29.946,40.328,36.156,37.398,16,20,20,20,12,28,16,12,8,8,12,12,13.386,17.556,25.552,25.55,17.54,18.936,17.546,20.146,17.53,14.738,18.734,22.732,12,24,44,80,44,48,180,316,396,380,576,600,512,424,480,412,228,128,88,24,8,9.362,5.36,5.36,1.36,1.358,1.356,0,0,0,0,0,4,0,0,0,0,0,0,1.386,4.146,13.582,36.68,69.098,83.686,178.354,363.614,510.386,570.95,601.97,639.846,648.896,657.248,657.354,657.842,662.482,663.26,664.052,664.728,665.288,665.644,665.57,665.686,665.554,665.124,664.388,652.748,657.184,647.994,652.158,656.356,656.586,666.194,655.848,657.69,660.982,661.598,667.818,662.044,662.99,668.032,667.748,667.45,663.024,656.01,650.396,649.952,608.74,547.528,529.23,362.934,330.086,321.996,243.284,282.11,183.314,145.848,118.67,154.256,119.582,274.28,339.87,379.47,321.03,395.904,341.392,347,425.212,627.604,663.37,667.546,625.352,579.234,645.652,645.628,653.456,652.2,651.56,651.114,649.17,647.436,645.776,644.066,642.306,633.578,614.33,621.656,631.702,628.882,626.298,624.01,622.256,620.998,619.842,619.874,623.68,622.516,621.144,620.068,618.63,617.348,616.356,615.61,615.116,614.724,614.31,613.996,613.814,613.798,613.728,613.582,613.402,613.118,612.83,612.58,612.36,612.042,611.708,611.288,611.006,610.64,610.428,610.138,609.86,609.508,609.144,608.73,608.302,607.64,607.158,606.676,606.276,605.82,605.596,605.516,605.43,605.462,605.604,605.676,605.64,605.62,605.754,605.786,605.68,605.552,605.152,604.806,604.722,604.758,604.764,604.624,604.288,603.89,603.67,603.572,603.402,603.102,602.66,602.178,601.998,601.764,601.548,601.374,601.112,599.484,595.518,598.866,599.774,599.486,599.278,595.598,599.044,598.954,598.93,599.074,599.19,599.194,599.244,599.306,599.442,599.354,599.04,598.53,598,597.582,597.06,596.426,595.692,594.964,594.344,593.924,593.65,593.572,593.672,594.248,595.124,596.62,600.242,599.782,86.436,139.034,432.526,406.56,412.038,438.556,466.984,448.044,474.53,521.546,512.742,442.024,399.692,393.438,356.822,392.31,338.45,302.312,289.25,294.422,344.774,406.8,458.62,503.966,549.308,567.186,599.694,615.386,612.938,627.232,633.648,636.074,638.418,639.48,638.87,638.028,636.908,635.774,634.95,634.366,635.302,635.238,635.194,636.64,637.272,636.762,639.01,640.142,640.124,642.898,644.284,644.356,647.044,648,648.828,649.556,649.896,650.23,650.314,649.178,649.286,646.66,650.524,645.076,635.41,634.96,630.268,627.078,614.746,610.09,585.996,563.314,523.408,478.504,409.072,338.574,283.776,248.28,193.668,151.088,100.522,66.994,50.156,27.16,20.744,15.682,17.068,22.27,36.46,47.224,82.768,122.444,177.048,239.772,304.292,359.682,389.446,390.762,390.806,376.022,360.982,339.422,293.528,241.02,209.754,184.31
1736,1676,1588,1484,1500,1452,1276,880,932,784,612,552,440,372,352,312,305.348,277.348,221.348,201.344,189.342,137.34,125.338,101.336,94.654,70.65,53.332,33.332,30.638,14.634,5.328,9.324,2.62,2.618,1.302,1.304,1.304,7.928,7.906,7.93,10.494,10.502,6.636,7.93,14.456,10.546,3.916,11.918,13.214,7.894,14.422,18.408,15.806,15.816,25.128,29.118,46.502,82.516,147.908,208,344,532,744,1020,1104,1160,1304,1496,1612,1612,1624,1608,1672,1664,1540,1528,1488,1420,1548,1744,1760,1856,1864,1844,1836,1824,1736,1471.93,1339.92,1299.92,1255.92,1079.92,967.934,611.972,336,228,164,116,164,264,164,32,12,4,4,0,0,0,0,0,1.292,6.424,15.416,56.692,97.9,182.856,240.776,264.08,235.944,141.882,74.922,125.376,261.87,313.098,288.888,261.996,278.998,324.732,424.848,495.876,550.22,579.234,554.01,558.038,605.652,611.568,613.21,653.494,664.15,670.722,672.666,674.248,673.708,671.914,645.994,548.278,499.056,357.714,293.206,314.566,300.044,275.16,354.222,269.808,340.794,229.178,234.544,304.64,193.974,158.808,117.966,34.968,16.206,32.18,29.516,33.396,16,12,8,4,4,20,4,24,8,8,8,8,9.38,12.156,17.536,29.532,17.526,18.924,13.536,13.528,13.522,10.734,14.728,17.36,13.366,16,40,64,56,64,184,268,328,376,416,556,648,480,656,580,400,244,116,52,20,5.354,10.724,6.722,2.722,2.716,1.348,1.342,0,0,0,0,0,0,0,0,0,0,0,0,4.082,10.898,46.048,91.6,135.604,245.336,367.876,508.504,565.04,602.814,635.37,646.994,656.504,656.554,656.93,657.498,658.14,660.07,660.536,660.68,660.578,660.04,659.678,659.158,651.726,655.84,654.414,650.418,648.874,647.582,650.39,654.614,656.508,661.066,648.682,649.916,664.29,663.124,664.508,664.646,663.632,659.64,647.58,648.57,649.584,643.906,643.338,630.576,600.528,570.204,491.398,459.788,430.414,492.078,445,369.236,285.116,227.62,131.544,228.954,228.892,281.346,309.396,288.076,276.152,349.916,307.78,351.086,544.938,646.316,647.106,499.358,522.074,586.61,604.438,624.234,642.96,644.232,642.994,641.544,640.178,638.852,637.438,635.87,635.39,629.596,626.214,627.934,625.77,623.666,621.838,620.536,619.696,618.78,617.832,617.9,621.752,620.594,619.508,618.164,616.984,615.994,615.362,614.84,614.428,613.996,613.744,613.562,613.546,613.568,613.464,613.268,613,612.754,612.518,612.24,611.944,611.602,611.168,610.898,610.522,610.354,610.082,609.798,609.448,609.07,608.71,608.228,607.494,607.012,606.51,606.04,605.656,605.44,605.332,605.202,605.246,605.474,605.594,605.632,605.658,605.756,605.754,605.71,605.65,605.312,605.04,604.898,604.85,604.784,604.552,604.218,603.806,603.526,603.344,603.124,602.724,602.176,601.718,601.654,601.512,601.298,601.19,599.79,595.842,599.14,600.138,599.89,599.604,595.748,599.254,599.09,598.966,598.942,599.112,599.27,599.218,599.264,599.346,599.466,599.356,599.04,598.568,598.104,597.666,597.168,596.588,595.876,595.196,594.662,594.296,594.114,594.132,594.346,595.008,595.918,597.392,600.888,601.564,486.566,334.408,456.962,520.972,495.17,506.354,515.726,533.924,423.222,474.248,507.574,428.048,447.27,401.73,344.13,315.84,408.562,340.696,298.844,328.508,421.216,480.958,529.34,575.142,600.272,609.658,618.808,629.344,630.77,633.238,634.236,636.302,636.862,637.266,636.044,633.282,631.516,629.964,628.634,629.006,629.766,629.628,629.628,629.862,629.092,629.684,631.422,632.262,633.178,634.314,634.292,635.69,638.436,639.602,640.708,641.864,642.574,643.146,643.678,644.176,644.612,644.874,645.052,642.6,633.376,628.07,622.49,619.544,608.826,601.926,591.114,566.148,533.05,484.376,407.424,338.322,289.8,253.948,226.124,181.78,141.924,112.642,80.804,50.52,35.346,29.098,24.1,34.444,50.912,56.11,88.5,154.956,184.336,245.174,298.13,359.11,401.748,420.2,424.396,391.852,388.218,390.586,353.394,288.984,248.072,199.778
1708,1692,1636,1572,1468,1452,1328,1164,836,940,756,620,520,444,424,377.344,325.34,313.338,273.334,253.332,193.328,173.324,137.322,118.63,86.624,62.622,42.616,29.318,14.612,13.144,10.422,8.968,8.976,12.8,11.526,15.416,21.86,25.748,25.79,24.592,36.23,41.43,44.102,50.528,49.324,45.436,44.216,45.436,44.172,55.8,67.502,85.552,75.13,65.986,54.206,45.194,37.416,20.63,16.768,24.976,45.318,129.314,212,312,372,500,644,852,984,1084,1088,1008,1004,1052,1148,1196,1272,1364,1340,1560,1624,1732,1736,1748,1696,1652,1503.97,1267.96,799.972,539.972,491.986,407.998,279.874,60,28,20,12,8,12,16,8,0,0,0,0,0,0,0,0,3.84,24.3,71.722,121.75,153.922,237.402,346.204,385.918,397.508,374.604,254.246,173.406,177.616,374.934,436.43,416.182,366.322,405.33,461.024,513.352,577.778,615.294,618.448,620.684,625.668,637.792,634.03,652.394,662.694,667.552,668.034,666.516,667.338,666.036,654.278,315.76,347.022,301.718,396.142,454.99,540.936,502.936,464.054,384.844,453.474,447.176,345.524,392.392,306.632,258.644,132.084,78.858,22.566,5.332,22.714,24,25.394,12,12,4,4,12,20,24,32,24,12,12,12,13.366,16.136,13.506,9.506,9.504,10.898,13.512,17.51,9.504,6.724,6.724,14.722,13.364,17.36,32,48,48,88,132,180,284,272,260,512,728,756,772,684,564,372,132,48,24,18.716,6.698,2.692,2.692,2.69,2.682,2.674,0,0,0,0,0,0,0,0,0,0,0,1.368,2.706,8.09,32.144,76.288,157.438,263.616,341.498,487.058,543.528,588.076,618.016,636.176,649.598,649.598,651.146,651.534,654.676,656.35,656.65,656.35,655.626,654.626,652.462,647.436,643.54,641.94,644,643.752,639.406,639.428,643.642,640.106,658.108,659.05,659.098,652.796,659.762,660.266,660.8,661.296,661.766,644.708,639.53,638.032,636.292,638.284,632.27,632.226,621.422,620.662,572.936,558.57,597.708,586.27,574.668,538.714,503.354,468.492,355.074,401.362,503.748,359.688,352.718,300.756,313.586,195.55,178.294,356.496,360.31,444.668,584.734,332.8,309.006,512.88,615.45,638.452,634.48,632.428,634.388,632.18,636.434,638.13,637.088,633.364,619.354,634.502,631.646,629.872,624.34,621.392,621.2,619.044,618.382,617.64,621.636,621.736,620.754,619.738,618.568,617.374,616.238,615.376,614.748,614.186,613.868,613.466,613.152,612.954,612.926,612.962,612.9,612.75,612.49,612.25,612.024,611.796,611.502,611.154,610.744,610.56,610.264,610.118,609.938,609.68,609.368,609.022,597.692,608.106,607.288,606.762,606.224,605.764,605.432,605.194,605.114,604.898,604.972,605.286,605.414,605.462,605.48,605.52,605.5,605.468,605.474,605.116,604.806,604.642,604.482,604.35,604.162,603.876,603.416,603.024,602.848,602.684,602.262,601.626,601.24,601.25,601.214,601.074,601.026,599.648,599.36,600.352,600.204,599.97,596.066,595.716,599.14,598.966,598.91,598.796,598.934,599.084,599.02,599.016,599.138,599.298,599.21,598.914,598.538,598.166,597.7,597.202,596.674,596.048,595.434,594.92,594.63,594.458,594.524,594.778,595.534,596.416,597.884,601.02,599.922,602.412,595.256,585.63,604.55,607.196,607.43,611.858,608.558,616.672,603.436,605.062,563.754,522.036,465.42,379.342,326.936,317.022,386.872,348.574,360.738,463.03,530.142,573.6,590.306,604.378,611.7,623.76,629.18,631.782,632.842,634.702,633.608,633.438,633.176,631.338,628.022,624.71,621.682,620.162,619.18,621.196,618.644,612.434,615.21,616.952,621.128,620.068,620.764,621.48,621.102,620.892,620.822,623.406,628.046,630.224,631.31,633.296,633.77,634.358,634.946,635.484,634.578,636.382,634.452,629.8,626.398,619.022,610.162,602.65,597.628,582.198,546.112,513.614,468.126,405.774,339.388,294.63,256.134,217.93,185.252,150.398,120.02,95.884,76.92,55.828,48.258,50.754,48.378,55.706,50.98,71.158,112.948,143.012,191.3,231.948,283.744,365.2,376.634,374.084,362.736,356.762,372.952,367.254,338.868,313.936,290.222
1796,1784,1744,1680,1592,1504,1396,1280,1148,980,920,760,672,576,524,437.332,401.328,317.324,273.318,201.318,145.312,121.308,109.288,74.594,47.83,27.79,17.092,15.614,11.624,14.144,10.182,11.44,13.966,26.582,36.72,40.596,58.304,74.852,67.374,60.102,67.762,84.566,106.306,111.462,107.818,114.302,124.808,135.252,144.424,145.942,161.34,165.274,154.702,134,126.134,98.826,77.028,48.774,29.414,25.574,14.018,27.642,43.852,70.556,133.282,205.276,281.272,329.27,385.27,421.268,441.27,385.268,337.266,501.266,653.264,760,992,1200,1292,1356,1264,1488,1540,1524,1483.99,1283.92,912,600,440,208,92,92,84,16,4,4,4,0,0,0,0,0,0,0,0,0,0,0,10.164,43.32,95.546,180.938,257.678,339.436,381.64,455.612,474.64,497.61,474.856,444.228,370.282,393.074,363.582,468.964,486.078,498.144,503.97,537.928,577.224,620.866,626.474,637.44,636.804,644.096,646.378,655.012,656.87,658.558,659.94,659.642,604.548,658.842,646.344,537.126,240.812,345.042,529.224,591.992,623.382,629.058,615.554,596.19,605.208,564.19,557.872,554.358,532.37,490.472,372.918,289.708,188.028,65.532,15.906,17.308,24,24,12,16,8,20,28,28,24,32,20,12,12,12,12,17.35,13.348,12.098,16.098,17.488,17.488,13.488,13.482,10.706,6.708,13.352,17.35,20,24,36,40,80,112,156,224,216,96,304,688,804,816,740,652,420,224,64,16,5.33,5.318,1.314,1.312,2.584,3.86,1.258,1.252,0,0,0,0,0,0,0,0,0,0,0,0,2.684,5.344,42.504,103.276,183.806,274.854,407.994,506.822,552.674,574.646,583.468,619.186,632.332,635.072,645.848,648.794,651.612,651.642,652.104,649.27,647.746,646.296,646.088,640.444,638.516,639.022,641.278,635.662,634.584,643.106,646.604,654.354,654.428,653.536,655.536,656.1,656.866,656.226,656.772,653.14,640.022,634.692,633.074,629.866,620.006,623.942,581.374,592.626,602.37,547.488,558.818,533.556,532.532,491.316,445.67,376.606,430.688,400.746,429.716,574.532,467.012,239.446,185.188,165.028,161.518,131.14,68.846,194.798,249.602,178.592,163.374,168.47,429.23,579.4,629.926,629.634,629.752,631.016,633.222,632.902,635.082,634.504,633.67,632.758,631.64,630.47,629.048,627.558,624.936,623.698,624.072,619.57,622.464,621.524,620.448,619.566,618.336,617.146,616.048,615.148,614.27,613.654,613.25,613.026,612.688,612.494,612.412,612.342,612.372,612.272,612.084,611.764,611.578,611.388,611.178,610.916,610.646,610.348,610.202,609.954,609.914,609.758,609.578,609.312,608.924,608.512,608.01,607.148,606.618,606.008,605.548,605.266,605.058,604.912,604.648,604.692,604.99,605.078,605.146,605.122,605.08,605.04,605.066,605.072,604.656,604.348,604.16,604.038,603.91,603.69,603.382,602.872,602.4,602.204,602.044,601.538,601.116,600.884,600.934,600.954,600.914,599.686,599.554,600.544,600.37,600.25,596.45,596.092,595.662,599.01,598.836,598.824,598.682,598.676,598.846,598.71,598.666,598.76,598.88,598.794,598.512,598.308,597.982,597.408,596.984,596.448,595.864,595.24,594.686,594.314,594.148,594.224,594.528,595.252,595.892,597.398,598.702,596.716,599.65,602.668,605.716,608.758,611.648,614.09,615.908,616.304,616.832,617.242,615.052,605.198,577.762,554.144,515.014,419.96,289.748,233.152,321.514,310.168,377.56,480.494,541.998,578.822,594.026,597.656,609.742,604.934,597.266,613.572,621.542,617.606,613.384,606.752,591.1,564,544.64,535.738,529.312,511.102,519.466,529.508,518.314,517.278,526.478,528.07,540.468,554.558,540.12,542.198,525.546,557.794,568.88,581.96,596.47,608.564,607.842,614.468,617.324,616.442,616.658,618.152,617.328,612.756,605.884,607.684,590.72,586.244,572.844,558.138,539.564,501.948,451.27,386.164,334.968,281.918,264.36,229.92,192.124,183.27,169.81,151.592,138.572,119.676,107.25,102.132,112.924,125.908,134.324,132.15,98.644,95.554,78.978,90.716,112.342,151.72,221.926,242.99,244.85,214.518,199.558,203.478,228.666,242.972,295.146,345.018
1812,1744,1716,1632,1552,1436,1276,1160,1036,928,776,688,612,520,440,364,316,245.304,181.296,142.556,114.552,94.536,57.262,30.532,18.284,20.776,20.486,13.724,17.422,24.95,31.156,37.422,44.918,60.042,73.898,82.756,94.122,110.436,109.408,105.838,116.036,133.898,147.968,172.112,196.336,219.432,231.25,231.752,238.458,238.756,237.782,237.66,227.51,191.73,166.19,143.082,114.866,86.756,54.768,31.704,22.788,15.138,11.36,25.056,51.732,90.5,86.494,98.494,117.26,121.262,125.264,121.26,121.262,149.262,205.262,333.262,484,680,816,964,872,980,1036,1008,772,396,180,120,84,40,24,0,0,0,0,0,0,0,0,0,0,0,0,0,0,0,0,13.892,49.252,88.286,127.556,247.812,354.228,442.934,504.422,536.262,534.602,538.222,530.664,526.67,529.808,451.186,408.298,373.13,455.692,546.392,554.104,549.952,596.882,620.074,633.34,636.472,638.026,644.852,646.538,645.278,650.292,650.132,648.382,300.632,523.42,593.288,560.87,558.002,597.956,633.832,631.852,629.542,628.76,630.13,622.728,615.928,613.29,604.968,575.704,556.96,538.888,464.324,381.8,285.308,130.646,45.408,18.366,26.536,25.286,24,12,4,28,32,28,28,36,32,16,16,28,12,8,4,5.344,5.344,6.698,9.352,10.692,13.344,14.692,10.69,5.34,9.336,8,12,12,12,24,60,104,148,248,276,472,564,808,884,988,912,808,620,424,256,88,20,4,0,1.278,2.566,3.76,1.228,0,0,0,0,0,0,0,0,0,0,0,0,0,2.664,1.322,11.836,30.092,79.836,169.072,238.072,296.326,349.782,345.562,384.558,386.978,465.692,564.376,578.964,567.484,608.348,621.652,619.02,630.168,641.34,638.198,633.704,628.126,633.754,635.848,635.642,642.454,637.804,633.418,644.01,648.114,649.712,648.964,651.02,650.188,649.55,648.778,649.2,642.698,631.854,627.566,616.89,593.094,626.452,616.284,586.892,573.974,600.376,605.51,588.244,577.22,576.512,568.24,539.216,574.096,594.092,589.182,612.838,615.294,570.27,485.826,329.588,344.824,401.176,368.812,423.766,464.584,540.968,592.912,584.762,615.458,622.042,622.298,622.434,622.898,623.608,625.226,629.128,630.45,630.496,630.024,629.464,628.844,628.068,627.186,626.108,624.964,621.386,622.796,622.278,621.688,620.85,619.936,618.872,617.854,616.696,615.658,614.772,613.82,613.072,612.678,612.43,612.386,612.182,612.036,611.98,611.906,611.884,611.752,611.482,611.146,610.938,610.798,610.572,610.404,610.204,609.92,609.778,609.602,609.646,609.548,609.376,609.04,608.602,608.232,607.776,606.988,606.434,605.792,605.298,604.986,604.716,604.482,604.254,604.284,604.478,604.544,604.59,604.512,604.456,604.44,604.488,604.51,604.158,603.916,603.806,603.668,603.594,603.356,603.024,602.456,601.884,601.632,601.47,601.118,600.734,600.538,599.442,599.518,599.524,600.73,600.602,600.38,600.294,596.628,596.436,596.07,593.138,598.828,598.61,598.544,598.306,598.202,598.362,598.19,598.148,598.226,598.406,598.438,598.188,597.982,597.582,597.078,596.578,596.04,595.48,594.774,594.126,593.692,593.468,593.502,593.806,594.532,595.332,596.308,592.152,594.264,596.47,598.83,601.076,603.112,605.108,607.224,608.742,609.21,609.616,610.06,609.078,605.572,586.064,567.696,541.41,497.766,444.932,381.506,531.592,390.828,260.566,291.354,371.908,465.486,497.414,519.62,551.504,562.816,526.566,559.052,599.5,583.116,539.362,522.91,466.628,441.312,449.666,498.016,531.562,559.322,588.662,586.246,597.362,593.856,594.288,590.884,596.936,604.812,607.816,597.288,563.37,517.438,471.506,469.324,495.99,522.644,544.094,566.43,591.406,569,567.644,556.41,559.03,561.486,545.854,543.632,520.478,483.412,448.932,421.99,370.022,326.684,268.242,216.562,192.954,144.81,136.84,131.008,119.218,133.372,159.53,182.874,180.642,173.99,187.742,194.444,229.848,286.724,319.806,264.286,208.53,164.404,120.214,105.114,94.596,100.07,148.638,183.572,206.352,203.552,221.552,232.196,274.852,293.07,349.67,430.236
1660,1540,1480,1364,1220,1084,984,896,788,700,592,528,460,412,360,288,224,181.25,145.252,118.526,83.782,46.512,30.202,23.13,34.274,42.628,48.236,72.926,92.656,123.476,145.836,128.642,133.696,159.906,166.248,153.93,157.75,164.016,155.434,144.486,159.488,165.868,177.35,198.794,237.734,256.922,273.604,271.496,273.198,269.87,265.05,283.658,257.624,237.438,219.858,185.758,147.902,116.474,82.278,51.772,33.972,23.844,18.992,18.016,21.018,26.51,34.48,27.706,26.478,29.228,38.488,57.256,65.256,73.254,133.254,209.252,313.252,480,560,700,696,716,643.986,519.986,283.986,120,72,52,28,16,0,0,0,0,0,0,0,0,0,0,0,0,0,0,0,2.488,21.154,29.94,84.66,138.488,183.71,291.368,409.178,491.14,524.774,562.72,558.81,527.442,537.27,560.502,516.344,462.392,365.026,388.004,346.04,424.932,502.862,543.028,583.424,629.116,630.536,633.256,639.578,640.806,641.654,642.198,642.736,630.41,134.154,351.556,627.64,635.338,632.632,619.838,631.682,630.728,628.166,623.878,622.64,621.25,621.306,615.028,618.506,612.5,578.454,566.374,526.416,445.558,340.266,231.334,96.322,39.046,28.998,21.28,16,24,24,24,28,40,44,40,36,28,24,24,32,20,16,16,8,9.336,17.338,9.336,9.336,12,9.336,10.68,5.334,12,13.328,16,12,28,36,80,116,164,260,396,616,828,928,1020,1040,976,904,744,540,332,152,36,4,4,1.248,3.67,3.668,2.41,0,0,0,0,0,0,0,0,4,4,4,0,0,0,0,0,1.312,15.486,42.466,82.384,125.946,166.832,173.292,166.702,233.756,349.548,471.08,490.264,473.392,531.426,555.934,549.762,542.106,545.97,600.756,625.014,627.874,631.896,638.738,641.83,645.086,644.776,644.714,644.764,645.054,645.564,644.958,643.256,644.944,644.162,644.468,642.126,644.65,644.078,638.216,619.526,618.062,619.532,606.902,604.24,605.596,610.67,608.848,612.124,610.352,613.706,613.258,614.342,615.496,616.73,616.754,616.548,614.842,613.298,606.716,595.282,521.754,510.184,464.082,542.596,582.864,607.79,609.506,612.628,613.216,615.036,615.498,616.074,616.97,617.918,619.652,622.408,622.356,622.206,617.864,621.032,621.688,619.78,619.152,617.2,617.718,613.61,613.258,613.346,614.538,615.234,618.124,615.728,615.998,615.104,614.19,613.352,612.59,612.02,611.754,611.672,611.778,611.702,611.592,611.536,611.444,611.334,611.174,610.94,610.634,610.408,610.208,610.072,609.91,609.746,609.492,609.344,609.236,609.278,609.176,609.032,608.728,608.286,607.866,607.396,606.638,606.066,605.282,604.848,604.514,604.142,603.948,603.734,603.754,603.912,603.94,603.984,603.874,603.746,603.774,603.848,603.952,603.694,603.5,603.43,603.352,603.292,603.056,602.668,601.964,601.392,601.176,601.054,600.75,600.372,600.208,600.368,600.53,600.568,600.562,600.426,600.208,600.138,600.046,599.846,598.166,597.576,598.456,598.25,598.108,597.936,597.87,597.938,597.834,597.792,597.846,597.962,597.966,597.72,597.506,597.136,596.598,596.056,594.212,593.586,591.61,582.574,585.686,588.898,588.846,591.446,592.064,588.126,588.964,590.264,591.906,593.71,595.624,597.422,598.93,600.316,601.722,602.91,603.53,603.95,604.238,603.218,602.212,595.19,584.538,554.862,547.338,547.276,552.796,505.724,430.984,432.944,317.998,281.536,274.968,405.362,404.632,452.492,479.598,396.418,433.738,552.072,444.568,377.97,367.276,416.416,439.458,516.636,565.97,582.062,596.164,600.85,597.26,599.786,601.226,600.426,599.508,599.42,601.11,602.81,603.274,600.218,561.756,550.224,532.084,507.022,492.714,491.468,492.578,453.808,494.658,507.782,495.198,466.958,459.354,474.17,452.236,438.876,419.378,361.186,298.626,233.782,210.646,177.976,143.428,113.894,85.196,87.588,95.92,90.666,114.388,168.118,221.268,247.746,254.448,262.184,286.486,343.588,360.648,397.96,390.936,324.154,260.416,209.648,202.66,170.792,161.768,195.07,243.608,312.33,324.114,304.882,324.05,378.718,415.968,470.828,498.99
1276,1176,1032,832,712,612,556,492,468,440,400,384,340,304,272,216,164,113.242,86.5,71.706,52.566,27.022,37.996,46.266,62.492,103.18,156.12,207.894,244.898,277.038,291.86,293.142,285.818,279.594,261.188,232.862,214.394,199.636,184.924,181.382,164.242,160.548,171.656,195.39,228.974,246.586,281.298,265.576,254.668,241.376,251.57,279.148,277.12,272.212,260.958,231.146,166.006,102.688,71.496,58.876,50.048,37.6,27.616,19.188,24.99,26.476,27.686,26.174,24.914,23.694,22.478,30.478,33.248,45.246,69.246,97.246,177.246,273.244,340,404,384,280,212,168,116,64,36,8,4,4,0,0,0,0,0,0,0,0,0,0,0,0,0,0,2.442,18.466,35.666,30.846,87.612,121.05,208.78,320.318,397.622,412.316,409.532,454.932,525.436,531.432,512.826,511.176,456.45,407.964,392.014,346.778,307.556,259.58,375.6,610.674,623.288,624.534,626.868,627.92,633.708,634.378,634.5,624.476,629.57,632.236,516.778,575.226,628.744,626.476,625.264,624.606,624.272,624.15,623.612,622.734,622.456,619.38,618.642,623.384,610.906,595.032,564.904,550.764,506.72,412.162,321.542,200.018,93.436,36.426,13.12,25.278,24,16,16,20,36,40,40,44,44,40,32,8,20,24,16,4,4,5.326,8,9.326,5.328,9.328,8,5.33,1.328,1.322,8,4,4,12,16,20,40,64,144,348,524,688,892,996,996,956,880,724,520,304,132,24,0,0,2.412,7.2,8.406,7.196,7.202,6.026,3.612,1.2,0,0,0,0,0,0,0,0,0,0,1.29,2.54,1.26,6.348,22.706,50.386,78.118,108.326,115.748,104.462,191.484,309.758,362.606,422.952,445.672,477.242,524.1,533.444,472.79,440.91,483.378,578.322,617.266,635.49,631.56,619.762,623.894,628.09,640.324,640.41,640.65,639.752,639.054,631.752,634.51,637.112,633.322,615.526,621.254,605.206,533.87,603.728,610.516,606.328,605.682,597.58,601.914,604.96,592.568,600.118,610.068,611.342,614.932,614.962,615.018,614.986,614.988,614.682,612.85,610.932,565.8,609.442,588.72,461.006,384.246,462.024,539.86,603.504,607.522,605.454,608.312,608.87,609.46,610.088,610.924,615.388,615.488,617.868,617.452,617.064,616.204,614.126,614.718,614.064,613.58,613.292,613.322,613.71,614.112,614.912,615.46,615.586,615.372,614.818,614.18,613.452,612.706,612.116,611.452,611.042,610.906,610.94,611.134,611.23,611.164,611.086,610.954,610.86,610.676,610.424,610.134,609.86,609.67,609.512,609.386,609.288,609.078,608.904,608.8,608.81,608.71,608.58,608.276,607.812,607.37,606.802,606.046,605.416,604.694,604.192,603.882,603.552,603.344,603.072,603.062,603.242,603.246,603.286,603.25,603.168,603.254,603.4,603.552,603.324,603.126,603.108,603.036,602.948,602.636,602.196,601.448,600.988,600.732,600.594,600.342,600.078,599.924,598.922,599.158,600.372,600.394,600.248,599.966,599.87,599.786,599.52,598.85,598.252,597.97,597.8,597.646,597.504,597.362,597.366,597.232,597.216,597.28,597.424,597.474,597.3,596.99,596.602,595.938,595.218,594.49,591.416,592.99,587.346,590.356,586.39,588.62,590.012,585.814,586.526,587.292,588.412,589.848,591.428,593.088,594.65,595.928,597.146,598.258,599.244,599.836,600.254,600.474,600.57,598.336,593.692,581.698,570.594,560.518,569.914,550.574,542.394,491.84,501.242,503.822,376.608,320.86,388.02,364.212,330.826,341.04,302.74,314.306,359.254,367.874,354.914,427.576,489.714,540.716,564.196,587.834,592.888,596.018,595.94,592.45,595.11,595.38,597.052,596.194,596.174,597.852,595.85,596.114,599.004,591.16,568.48,572.232,575.306,560.804,535.03,580.672,581.39,571.136,535.244,537.026,504.916,489.732,491.13,446.412,402.86,369.284,320.154,244.39,190.318,166.302,125.772,104.038,83.642,79.846,71.314,77.072,92.27,148.452,206.956,261.478,288.052,306.656,329.686,370.3,411.71,423.2,446.082,438.73,416.458,366.204,312.674,308.828,313.576,314.79,350.64,402.938,469.502,482.71,472.716,491.726,522.954,536.682,564.526,543.844
696,608,488,416,332,292,252,228,228,200,180,172,172,144,136,100,85.236,54.478,44.47,46.53,43.048,53.288,80.07,98.734,145.192,207.88,274.476,328.604,365.626,406.278,429.638,416.222,398.976,395.086,381.218,353.974,337.772,313.13,298.01,255.438,229.818,234.4,240.55,241.884,246.786,241.03,254.524,244.814,224.23,214.836,230.95,256.564,247.154,258.304,250.366,204.576,118.566,77.912,53.274,47.052,48.154,44.152,25.596,17.524,16.316,19.308,18.116,20.894,18.154,18.158,22.468,22.468,21.24,33.24,41.24,53.242,85.242,96,116,148,100,88,76,76,8,4,0,0,0,0,0,0,0,0,0,0,0,0,0,0,0,0,0,1.218,13.326,32.58,45.876,20.722,64.658,248.32,293.412,361.484,376.102,379.518,292.002,332.398,412.284,512.604,535.71,520.924,565.8,485.208,401.158,399.638,315.06,565.78,615.42,616.592,617.888,618.836,620.836,621.214,626.614,627.01,625.59,626.708,626.536,625.072,622.66,622.218,619.06,618.442,616.66,618.08,618.54,619.196,619.506,619.524,618.868,617.26,623.496,614.962,606.876,585.864,559.876,535.168,482.592,377.932,259.332,150.772,49.646,14.024,3.838,0,12,16,8,8,16,24,24,32,36,44,16,4,4,8,12,8,8,8,9.314,5.316,5.318,1.32,1.32,5.318,5.318,0,0,4,4,4,4,16,32,64,152,332,472,688,888,960,984,920,828,684,464,224,76,8,0,0,4.796,11.972,15.564,15.558,15.546,13.138,7.184,3.598,0,1.194,0,0,0,0,0,0,0,0,0,1.242,2.498,9.858,22.17,53.062,67.906,102.404,101.206,131.862,146.616,167.778,262.954,287.506,323.124,390.52,432.792,455.208,443.998,370.54,227.288,410.722,598.506,612.256,610.502,612.998,614.128,615.034,615.558,623.542,627.438,635.54,623.512,623.928,613.226,608.412,595.458,580.928,549.542,531.52,560.794,605.02,599.8,609.724,608.252,606.662,601.166,608.318,603.774,598.142,609.592,611.22,611.522,611.908,612.348,612.92,613.206,612.936,612.33,601.656,604.54,591.312,606.15,606.082,511.936,564.632,603.884,602.546,603.848,603.886,602.944,604.708,605.266,605.934,606.396,610.374,611.13,611.65,610.78,609.778,608.362,607.17,604.948,604.088,604.778,604.7,605.22,605.028,607.412,609.082,610.456,611.488,612.178,612.48,612.428,612.004,611.51,611.056,610.634,610.352,610.384,610.494,610.702,610.832,610.776,610.72,610.59,610.47,610.26,609.976,609.622,609.33,609.094,608.992,608.96,608.934,608.79,608.636,608.554,608.482,608.414,608.27,607.976,607.474,606.876,606.268,605.396,604.786,604.1,603.542,603.194,602.814,602.554,602.294,602.29,602.55,602.526,602.582,602.618,602.61,602.83,603.096,603.29,603.098,602.972,602.928,602.796,602.622,602.24,601.648,601.032,600.622,600.336,600.226,599.976,599.714,599.694,598.534,600.046,600.132,600.136,599.998,599.662,599.484,599.358,598.992,598.292,597.752,597.468,597.22,597.068,596.902,596.766,596.77,596.666,596.646,596.708,596.818,596.858,596.672,596.246,595.678,594.846,594.098,593.248,592.504,591.472,589.262,589.84,589.42,589.296,589.494,583.93,584.616,585.194,586.176,587.452,588.834,590.318,591.584,592.608,593.788,594.944,593.402,594.034,596.816,594.552,591.004,589.916,576.798,574.274,543.632,550.22,520.654,512.578,520.204,506.282,484.53,478.658,514.39,449.744,466.31,441.264,369.328,355.24,399.532,451.704,472.946,501.824,488.376,530.722,563.024,581.29,584.504,588.868,588.404,587.184,589.902,589.042,590.654,589.772,591.234,591.416,592.71,593.028,590.83,589.664,592.222,593.722,586.686,578.082,574.784,562.508,582.496,584.212,577.398,580.254,580.352,572.368,565.468,558.424,547.496,533.746,517.528,503.826,423.616,405.094,303.808,217.762,152.43,118.45,114.95,88.964,88.036,106.632,136.088,187.788,262.196,316.144,339.302,357.15,378.064,424.454,447.68,447.752,461.274,459.79,441.076,432.354,400.77,400.42,403.594,417.076,450.31,493.926,518.44,529.458,541.418,549.092,554.894,558.366,562.006,561.226
316,272,188,152,116,100,88,72,68,68,56,64,60,48,48,29.212,27.608,21.618,26.048,35.734,48.65,65.304,105.366,140.854,204.326,263.38,334.736,381.568,414.872,453.052,471.468,478.632,483.232,479.254,478.54,458.304,444.218,448.102,412.16,367.13,365.584,366.412,362.778,363.824,356.442,333.536,319.152,297.472,275.668,251.478,249.19,267.426,274.284,256.194,209.042,141.394,95.548,66.598,47.262,43.732,50.796,37.234,26.456,16.114,14.936,17.21,21.21,17.654,23.238,28.87,28.906,26.45,30.454,28,37.226,41.228,45.226,52,52,52,44,32,16,4,0,0,0,0,0,0,0,0,0,0,0,0,0,0,1.16,1.16,0,0,0,2.384,20.094,33.136,75.856,52.524,173.348,520.658,494.226,384.704,396.782,383.502,299.52,243.674,370.962,462.184,478.95,534.79,591.144,580.584,489.196,604.438,606.786,607.93,609.01,609.87,610.898,611.506,613,612.902,611.036,565.758,617.26,615.69,615.47,615.348,610.398,611.658,611.888,611.818,611.88,612.876,614.07,615.164,614.894,611.814,605.304,599.986,605.904,586.578,572.288,561.54,534.512,485.93,406.864,296.062,173.94,83.244,26.51,2.546,1.274,4,4,23.836,12,8,20,24,20,40,40,52,28,8,8,12,12,16,20,16,12,8,4,4,1.304,1.302,12,12,0,0,0,0,0,0,12,64,136,252,428,660,808,900,920,860,768,564,360,172,12,0,0,8,8.33,15.476,17.866,20.22,19.076,14.304,9.516,5.95,1.2,1.186,0,0,0,0,0,0,4,0,1.23,1.226,2.432,14.542,55.652,70.254,145.002,189.418,250.786,266.416,277.402,366.464,277.894,204.638,215.258,254.812,284.628,325.642,338.018,385.136,387.124,493.294,584.698,597.216,606.152,603.898,605.588,606.858,607.382,607.29,619.006,627.23,618.836,612.12,598.256,575.79,531.878,569.07,572.456,595.27,600.068,601.254,601.096,602.23,602.052,600.556,600.082,599.888,601.546,602.218,603.004,604,605.166,606.444,607.762,609.202,610.436,610.954,610.728,606.344,598.294,602.386,595.114,604.846,604.624,599.774,602.63,602.416,602.358,602.256,602.26,602.5,602.78,603.204,603.304,603.2,603.62,607.184,604.512,603.042,602.446,599.798,505.264,381.822,596.956,596.856,595.096,592.82,590.9,597.93,600.066,603.11,609.548,610.652,611.148,611.104,610.708,609.218,610.068,609.928,610,610.178,610.358,610.468,610.44,610.346,610.21,610.048,609.858,609.536,609.174,608.86,608.642,608.598,608.652,608.722,608.616,608.468,608.338,608.212,608.108,607.91,607.578,606.914,606.22,605.466,604.672,604.078,603.422,602.79,602.374,601.88,601.588,601.318,601.37,601.63,601.682,601.824,601.97,602.112,602.416,602.726,603.038,602.95,602.832,602.78,602.602,602.316,601.878,601.28,600.76,600.262,599.956,599.766,599.468,599.238,599.206,599.43,599.726,599.784,599.826,599.66,599.374,599.218,598.93,598.482,597.88,597.326,597.016,596.748,596.504,596.244,596.062,596.06,595.916,595.954,595.992,596.102,596.052,595.74,595.19,594.456,593.55,592.726,591.696,590.784,589.574,587.214,587.766,586.182,583.762,581.584,581.972,582.468,582.93,583.84,584.946,586.216,587.52,587.39,585.822,584.586,586.938,579.38,578.726,569.384,571.982,576.806,568.402,558.886,552.29,561.174,504.17,477.078,453.242,482.168,493.19,472.388,449.828,456.692,522.268,528.508,500.746,446.698,435.33,486.73,513.226,526.914,545.862,539.066,550.54,567.844,574.342,580.868,584.614,583.614,582.902,583.514,582.914,588.14,587.338,587.546,588.764,588.844,588.912,585.226,582.34,586.762,584.252,583.892,581.182,575.188,572.1,572.43,578.664,564.582,569.394,575.55,573.316,567.534,565.204,559.948,543.722,549.37,544.71,513.122,513.826,446.636,346.646,281.526,244.048,219.472,190.696,166.118,172.124,179.528,230.476,308.074,344.614,368.1,386.404,401.026,415.524,411.708,434.766,459.504,453.72,441.058,452.924,452.338,459.912,460.836,472.07,492.502,522.208,540.888,547.1,553.394,555.32,558.588,556.084,558.156,558.17
108,80,76,60,44,20,16,16,13.168,13.168,17.17,21.166,23.528,24.716,19.554,13.958,18.754,19.564,19.182,34.862,56.544,75.914,113.56,156.332,212.502,277.488,339.038,391.926,423.916,461.944,482.766,497.078,502.794,511.97,517.214,508.886,512.63,509.072,501.872,503.172,508.19,503.642,506.664,503.636,498.396,468.354,465.48,437.912,417.44,374.272,375.732,391.958,376.228,331.608,270.258,209.652,125.65,97.194,78.308,93.514,76.674,41.384,26.024,22.422,24.058,23.674,26.022,18.22,17.51,15.604,16.812,18.428,19.59,20.782,18.36,9.21,9.21,9.206,8,4,0,0,0,0,0,0,0,0,0,0,0,0,0,0,0,0,1.16,1.16,0,0,5.824,20.886,41.77,22.194,65.338,209.914,237.616,197.798,381.972,562.49,558.704,549.668,484.868,454.198,401.528,434.486,497.502,518.256,539.04,588.85,597.692,598.454,599.094,599.7,600.42,600.952,601.454,601.796,602.28,587.994,522.418,603.698,431.482,457.406,604.43,604.486,604.942,604.066,603.626,605.538,606.41,605.664,600.312,596.888,590.776,599.43,595.618,557.944,527.822,526.86,544.42,520.178,520.82,446.15,457.058,389.652,278.018,205.374,130.276,57.464,27.226,22.322,19.79,23.79,23.802,31.814,31.824,24,40,44,36,44,56,52,48,40,28,28,32,36,44,32,28,20,16,16,16,12,20,20,20,13.166,13.166,0,8,16,24,48,64,60,236,148,48,68,680,696,600,440,280,132,40,12,12,22.382,27.13,31.428,32.142,35.66,30.97,23.874,12.274,14.36,16,12,16,16,12,12,12,16,20,20,21.182,8,9.194,13.59,46.952,76.906,145.072,296.39,326,225.426,348.712,397.642,223.308,209.386,190.394,342.286,467.892,526.01,521.646,435.866,512.568,475.526,565.06,602.232,611.788,613.558,615.432,616.748,617.288,617.38,617.272,617.714,615.15,616.134,605.8,563.646,358.56,502.88,604.35,611.61,611.724,608.212,600.978,590.8,569.724,502.468,507.09,552.764,544.532,593.244,594.394,597.14,599.036,600.91,602.692,604.696,606.758,606.978,608.576,607.042,594.302,602.064,601.976,604.164,602.784,601.552,598.174,598.14,600.48,600.196,527.332,600.144,599.866,599.988,599.722,600.064,598.914,593.474,590.4,563.452,565.02,560.102,593.564,592.806,592.47,592.206,583.486,557.708,530.944,537.168,586.498,599.704,606.908,608.768,609.868,610.152,605.07,603.686,607.152,609.53,609.654,609.802,610.072,610.168,610.148,610.058,609.892,609.736,609.542,609.206,608.89,608.624,608.476,608.434,608.538,608.664,608.558,608.428,608.302,608.128,607.984,607.766,607.35,606.632,605.82,605.042,604.282,603.636,602.912,602.212,601.706,601.15,600.88,600.67,600.686,600.934,601.07,601.278,601.512,601.772,602.184,602.574,602.938,602.894,602.76,602.644,602.436,602.126,601.668,601.06,600.492,599.944,599.62,599.362,599.04,598.846,598.872,599.062,599.256,599.164,599.17,599.066,598.834,598.654,598.438,597.938,597.364,596.83,596.494,596.164,595.802,595.5,595.162,595.124,595.084,595.088,595.078,595.112,594.998,594.582,593.924,593.13,592.07,590.952,589.75,588.678,587.342,586.1,585.408,580.282,579.152,579.408,579.824,580.282,580.756,581.53,581.394,583.662,580.122,579.882,574.798,567.47,572.092,558.538,541.016,531.468,483.734,513.666,521.776,513.362,537.504,508.768,474.484,390.672,352.96,394.312,414.38,391.272,393.216,388.294,456.076,523,505.796,455.792,486.62,507.62,500.044,496.312,513.186,511.218,504.462,509.388,524.014,543.916,551.722,550.086,548.306,556.192,561.646,576.474,581.588,579.232,571.838,572.884,575.146,572.41,571.466,565.79,557.99,560.814,565.082,569.222,555.408,540.216,551.076,545.582,545.804,556.692,565.038,566.266,561.952,562.234,556.292,560.498,555.462,530.67,521.882,500.732,463.708,385.416,368.5,346.032,337.136,298.806,273.036,292.868,299.974,348.522,376.02,385.714,376.834,366.806,362.246,350.736,378.08,437.02,427.018,422.386,444.816,464.92,490.64,491.852,499.95,517.912,535.238,550.482,548.668,550.07,552.712,553.124,550.02,550.278,553.126
56,48,32,20,12,16,12,4,6.332,3.498,4.668,5.848,7.046,5.886,9.456,9.52,13.09,15.518,22.724,39.548,57.584,80.656,116.948,165.67,224.162,284.054,342.976,395.692,429.852,465.168,484.642,500,507.824,516.8,529.104,528.018,526.762,531.578,535.168,547.1,545.95,543.704,547.562,544.352,539.998,536.994,524.572,522.716,509.048,479.106,469.458,461.742,450.336,404.96,367.886,295.972,209.1,161.176,143.664,160.556,147.442,59.27,52.274,50.916,57.992,50.428,37.728,23.828,16.872,9.886,5.18,13.186,8.656,8.648,7.458,6.334,6.336,6.332,0,0,0,0,0,0,0,0,0,0,0,0,0,0,0,0,0,0,1.152,2.29,3.434,10.348,20.736,48.256,79.442,146.244,239.948,290.454,257.882,413.224,483.26,549.996,546.872,554.062,558.99,511.362,495.1,525.804,552.766,558.176,565.846,591.23,589.336,592.252,592.508,592.638,592.694,592.466,592.6,588.186,559.828,436.676,587.192,594.342,588.88,585.706,591.082,594.098,588.774,582.768,588.926,598.542,594.95,601.966,597.206,589.048,556.186,562.58,577.186,511.378,421.174,395.904,375.87,326.436,364.27,268.58,195.116,224.348,120.774,68.516,44.766,23.44,29.002,27.754,23.766,27.778,31.626,35.802,35.814,24,36,40,48,48,84,84,80,64,56,60,60,60,52,44,36,32,20,16,16,16,20,21.162,21.162,13.164,13.164,0,8,16,24,28,40,44,96,108,84,144,456,540,464,300,164,64,20,12,13.182,25.898,36.534,42.434,45.94,35.072,42.528,44.812,27.904,23.682,24.702,22.334,20,16,12,16,16,16,20,20,22.344,24.718,29.48,42.748,86.89,148.386,233.372,317.762,389.028,407.6,431.978,403.294,534.918,376,395.022,524.3,576.254,579.964,553.758,597.428,597.824,564.152,470.412,366.542,288.434,598.956,602.722,601.496,607.02,605.368,605.796,605.388,588.554,561.644,563.428,513.558,457.066,564.122,603.982,603.998,593.006,603.042,603.968,592.55,581.478,534.77,478.772,532.762,458.288,311,304.252,563.874,588.444,590.798,592.152,597.394,599.122,599.148,604.304,603.024,511.896,539.752,592.166,599.01,580.326,597.354,597.528,545.29,593.08,591.702,494.472,478.908,594.094,589.718,568.514,571.78,530.448,497.482,506.33,571.238,579.074,584.324,586.324,586.238,585.21,585.418,585.044,577.316,563.114,519.392,432.522,495.164,587.944,596.554,600.73,605.3,602.896,602.844,602.79,602.89,604.292,603.278,604.784,606.236,608.72,608.716,607.35,604.688,605.72,605.396,603.918,606.152,606.038,607.33,605.044,608.83,607.506,608.596,608.434,608.284,608.038,607.772,607.308,606.532,605.668,604.89,604.134,603.398,602.58,601.792,601.228,600.69,600.388,600.234,600.286,600.474,600.648,600.996,601.242,601.548,602.056,602.528,602.878,602.828,602.704,602.602,602.392,602.026,601.612,600.996,600.402,599.84,599.47,599.144,598.72,598.466,598.452,598.564,598.616,598.538,598.48,598.388,598.198,598.032,597.838,597.402,596.81,596.242,595.83,595.46,595.054,594.726,594.394,594.356,594.37,594.296,594.25,594.228,594.042,593.6,592.796,591.858,590.604,588.18,585.724,584.506,585.438,580.558,577.492,577.144,577.22,577.414,577.91,578.402,578.846,579.692,580.644,580.492,580.464,562.678,550.392,547.69,549.524,534.608,502.66,487.032,430.86,378.428,414.768,444.076,382.958,348.744,327.322,322.442,211.148,237.596,249.064,265.068,251.13,218.756,253.89,478.82,431.88,397.22,380.598,386.118,372.834,350.044,368.89,331.06,304.738,287.32,286.068,323.378,334.822,346.082,360.766,387.352,425.706,493.628,497.52,480.724,444.624,445.402,460.476,468.074,478.582,476.276,440.124,416.908,484.45,501.48,451.944,430.284,432.174,455.888,465.486,494.894,513.652,526.216,527.628,535.654,535.444,543.106,539.062,518.018,525.09,518.808,504.784,483.022,461.852,460.534,463.694,480.408,523.268,504.876,482.172,487.264,479.088,466.654,452.032,422.884,389.36,422.77,396.374,441.776,442.09,448.994,475.94,498.58,512.132,521.244,520.332,525.114,550.25,549.474,550.59,553.762,550.222,545.446,540.546,531.076,521.698
32,12,8,8,4,4,4,0,2.33,3.496,5.828,7.012,8.212,7.058,9.45,10.64,14.234,17.85,23.862,39.504,58.742,81.756,119.206,170.158,228.448,283.336,342.046,394.428,431.97,458.566,483.834,501.014,500.186,517.176,521.916,532.502,526.428,534.512,540.326,545.348,553.86,552.922,553.448,551.57,548.618,547.976,552.004,549.944,546.64,532.932,519.372,501.162,494.156,446.714,377.64,329.234,316.99,278.344,228.346,219.78,191.606,151.358,120.256,117.918,101.818,75.556,56.09,33.296,16.164,12.122,7.474,6.296,7.47,7.444,7.434,3.44,1.14,1.138,0,0,0,0,0,0,0,0,0,0,0,0,0,0,0,0,1.14,1.14,4.524,7.934,17.034,34.286,63.748,78.73,157.508,352.632,434.834,316.168,423.036,466.658,522.212,538.486,537.612,509.782,530.762,563.664,520.672,532.45,549.742,573.768,575.294,570.796,585.338,585.644,585.586,585.052,584.632,570.1,288.36,293.498,498.784,578.68,579.686,579.768,567.688,575.416,578.84,578.624,551.264,569.468,561.484,587.962,589.994,587.606,586.582,578.704,496.272,505.126,458.144,458.086,374.942,252.12,220.128,117.804,123.286,82.388,66.35,68.952,49.45,48.74,37.498,35.058,40.266,39.15,35.392,31.614,35.638,43.562,35.736,31.948,32,36,56,56,72,100,108,96,100,100,96,84,72,56,48,32,24,12,16,16,20,21.16,22.322,13.162,13.164,0,12,20,24,32,60,60,72,104,112,116,188,228,196,124,28,20,12,12,16.7,34.042,46.936,52.852,59.322,59.94,59.968,60.124,35.236,22.436,30.326,24.612,21.142,12,12,12,12,12,20,23.448,25.796,28.188,26.602,47.272,85.924,154.932,222.704,292.404,353.906,460.254,500.434,546.02,561.376,582.32,586.632,590.904,590.412,590.592,591.152,591.436,590.376,591.942,586.354,549.594,337.65,428.012,538.536,371.766,526.116,531.802,418.762,236.756,275.03,479.182,547.912,508.37,569.91,591.492,570.262,580.838,543.458,571.48,571.188,549.134,485.286,345.132,295.352,287.756,260.27,237,360.754,234.29,266.59,331.474,353.602,530.238,519.742,514.49,563.072,581.94,425.472,413.464,558.094,575.678,566.816,505.876,572.316,582.352,544.754,553.322,488.922,510.5,535.272,584.232,560.242,416,409.39,475.43,526.464,520.352,577.618,577.536,577.806,579.414,580.03,577.054,580.4,573.862,556.414,519.234,382.81,43.976,143.114,475.236,596.824,600.61,602.204,602.38,602.464,602.66,602.918,603.202,603.428,604.934,605.05,605.084,603.786,603.612,603.448,603.17,602.982,604.056,604.074,604.136,603.054,608.084,609.218,606.556,602.706,606.148,608.362,607.968,607.412,606.602,605.744,604.944,604.232,603.406,600.072,601.626,601.004,600.418,600.056,599.858,599.858,597.646,597.888,598.242,598.628,600.194,600.724,602.438,602.79,602.8,602.748,602.672,602.484,602.168,601.74,601.09,600.518,599.882,599.412,598.944,598.424,598.104,597.984,597.958,598.02,597.876,597.814,597.716,597.56,597.444,597.266,596.822,596.208,595.616,595.16,594.752,594.374,594.026,593.676,593.682,593.612,593.574,593.484,593.444,593.198,592.652,591.764,590.646,589.376,588.076,581.96,580.638,580.318,576.584,575.866,575.468,575.576,575.812,576.378,576.87,577.406,578.168,577.954,580.074,568.238,547.916,519.066,531.138,509.112,536.488,500.972,494.792,427.992,454.12,434.272,375.128,339.844,323.772,321.452,299.062,297.934,250.51,248.446,282.48,329.118,345.13,360.558,494.716,493.932,434.502,395.192,380.844,319.836,259.172,283.962,259.13,232.652,219.482,172.244,139.97,162.98,155.344,133.684,185.532,232.732,314.384,301.852,266.626,220.038,211.288,201.746,233.85,286.164,288.13,239.404,261.62,303.02,315.75,339.794,324.532,320.702,368.646,393.364,434.148,481.332,493.774,506.504,518.754,514.064,530.828,524.744,494.976,514.638,519.92,525.026,521.396,514.964,511.374,516.892,537.194,540.332,540.486,536.588,537.01,530.876,523.872,513.59,514.318,504.152,491.776,476.83,492.91,489.982,488.208,493.842,511.752,527.478,529.848,527.604,536.51,546.52,538.526,541.45,544.108,538.026,533.058,521.328,521.772,503.42
20,4,0,0,0,0,0,0,3.494,4.65,5.828,7.012,8.212,7.058,8.232,10.632,13.046,17.848,23.824,41.756,59.81,77.86,112.84,163.492,221.578,276.164,321.028,381.684,410.588,422.464,449.628,477.01,480.64,493.878,508.78,527.604,525.922,528.888,535.878,537.552,541.46,541.704,543.644,545.364,548.254,545.166,544.438,547.794,544.386,540.99,533.246,532.11,520.754,479.81,438.086,418.968,406.652,396.672,362.828,315.75,330.942,385.184,307.044,224.464,169.022,141.67,122.264,65.74,30.706,15.864,11.958,9.688,11.92,8.56,5.684,4.562,3.408,3.406,2.26,1.128,1.146,0,0,0,0,0,0,0,0,0,0,0,0,1.114,5.576,13.394,14.562,34.776,57.254,110.34,119.634,173.258,300.352,419.12,423.75,498.934,492.396,511.692,538.046,555.35,523.01,482.518,470.85,517.382,533.524,547.104,548.892,575.914,577.164,577.378,578.686,578.452,577.992,577.324,559.44,301.98,246.21,521.974,570.772,576.372,567.124,568.752,568.56,566.048,547.626,574.766,505.708,511.974,572.534,561.83,570.734,570.806,548.586,540.484,502.018,424.642,375.852,312.908,276.574,179.144,101.95,40.436,42.602,48.604,61.848,82.592,68.732,60.514,53.464,45.742,50.51,38.916,39.292,35.45,39.512,43.574,43.646,35.96,32,24,32,52,68,88,116,124,116,120,124,96,84,72,48,32,28,12,16,16,22.292,23.454,23.458,15.462,15.466,0,8,12,20,28,36,48,64,68,84,84,100,80,60,40,20,8,12,12,23.562,43.124,56.024,66.438,75.71,76.542,74.15,65.974,44.492,31.942,38.17,45.874,30.154,11.396,16.498,12,8,12,22.276,25.72,29.2,33.922,36.386,48.84,92.29,151.316,204.736,283.284,421.586,465.972,525.084,538.2,563.708,580.952,582.454,584.116,584.702,584.706,583.832,579.484,557.778,575.326,582.564,580.744,537.686,468.476,560.302,471.252,536.922,529.314,360.218,323.152,502.252,582.78,581.546,589.336,581.348,577.094,565.92,565.384,586.498,575.01,541.15,493.28,410.58,282.09,396.928,496.51,523.232,549.08,564.036,564.508,553.742,388.142,181.18,224.47,169.336,115.404,132.63,345.21,253.498,74.352,152.298,369.136,369.512,373.696,289.88,376.574,568.898,465.046,292.592,204.488,197.282,259.25,417.534,397.36,345.184,184.126,240.002,298.692,451.012,555.448,566.51,570.852,571.7,573.746,571.48,568.548,558.374,521.692,419.51,432.848,364.11,513.524,579.08,600.264,602.236,602.656,602.876,603.074,603.304,603.474,603.644,603.888,605.202,605.21,605.138,605.06,603.764,603.616,603.506,603.474,604.788,608.53,607.374,609.892,609.708,605.854,605.632,609.046,607.51,608.282,607.668,606.86,605.902,605.14,604.38,603.46,601.292,601.578,600.93,600.298,599.888,599.67,599.646,599.854,600.176,600.552,601,601.422,601.95,602.464,602.81,602.878,602.856,602.774,602.63,602.338,601.97,601.3,600.658,600,599.416,598.794,598.202,597.812,597.596,597.54,597.534,597.294,597.182,597.122,597.01,596.806,596.638,596.176,595.548,594.944,594.508,594.08,593.666,593.49,593.15,593.068,593.014,592.872,592.788,592.766,592.374,591.8,590.836,589.666,588.366,581.248,585.796,582.052,576.812,575.538,574.982,556.068,574.958,575.326,576.004,576.74,577.456,578.358,576.946,575.408,562.232,527.656,510.544,476.302,501.188,524.684,490.028,470.19,451.518,454.866,398.58,290.968,279.954,288.792,277.17,268.144,259.254,315.31,227.992,266.856,334.352,394.392,427.748,454.726,423.466,431.874,288.352,281.958,262.308,177.35,152.434,134.078,112.186,93.182,86.568,73.408,61.418,45.852,47.308,50.874,46.316,38.734,42.338,30.402,24.75,32.58,44.952,69.626,94.42,85.17,68.148,84.138,154.862,164.926,122.12,191.426,233.596,247.99,279.142,339.98,410.652,450.034,484.118,476.178,463.744,499.55,507.24,487.028,497.894,510.082,521.062,530.836,531.222,533.57,533.798,536.554,536.33,537.5,539.852,538.984,537.118,536.444,533.618,527.57,524.858,516.698,503.844,518.57,510.278,507.306,511.676,521.512,517.074,522.338,529.61,529.248,531.074,531.616,522.046,527.792,517.394,512.388,500.874,498.118,487.616
28,16,12,8,0,0,0,1.164,3.494,5.814,6.992,7.012,8.21,7.052,8.226,9.414,13.022,15.438,22.566,36.86,48.85,60.74,89.516,113.564,148.184,186.586,228.38,271.372,277.514,281.692,286.756,323.916,335.51,338.058,371.904,449.672,446.228,446.962,450.712,469.974,476.276,490.91,513.584,512.95,527.12,520.304,521.556,535.338,514.544,508.728,516.606,517.788,499.898,467.93,448.212,443.412,434.878,436.41,424.652,416.524,448.208,456.468,438.25,398.766,317.82,271.78,245.628,186.16,117.77,87.53,49.492,31.498,30.312,24.63,20.186,13.456,11.224,5.636,3.384,3.384,1.124,0,0,0,0,0,0,0,0,0,0,0,1.096,0,7.766,32.132,60.948,99.762,175.54,216.286,266.238,344.394,392.814,440.342,521.404,537.09,541.76,529.268,541.62,549.422,534.456,482.922,453.068,457.166,493.894,571.95,572.194,572.106,570.76,571.732,571.582,379.55,344.534,398.122,553.736,432.374,527.622,568.136,566.772,566.724,567.314,569.546,563.912,561.66,534.48,563.172,518.126,494.87,515.06,565.696,556.832,516.606,496.538,458.4,365.574,367.356,272.054,196.402,138.476,102.158,69.114,34.798,47.452,53.924,64.206,50.32,53.078,57.008,61.768,48.356,51.598,39.08,35.334,43.374,43.51,39.562,35.634,39.972,47.986,36,40,60,64,88,124,120,140,136,124,104,92,72,44,28,28,20,16,17.138,18.278,23.44,23.442,19.446,19.448,1.144,8,20,24,24,36,48,60,68,76,68,64,40,24,20,16,16,16,16,22.866,32.584,34.868,39.342,61.458,73.824,66.516,45.326,26.998,32.514,50.666,48.934,43.276,28.21,24.916,16,16,13.124,22.26,23.41,24.56,38.362,43.046,60.708,92.898,127.166,225.87,352.356,414.124,415.194,473.578,549.948,546.972,533.862,567.908,573.416,573.034,575.734,575.84,576.114,575.986,579.654,573.304,574.916,556.05,541.748,531.162,535.594,553.532,562.592,469.912,522.234,569.268,582.824,584.39,584.766,576.634,576.736,581.318,585.976,586.378,586.978,569.608,453.486,458.304,460.574,465.038,530.826,395.796,268.688,300.126,501.358,531.69,415.076,293.232,190.254,97.298,30.558,18.064,30.982,49.514,151.758,222.802,96.83,33.506,16.922,10.184,11.4,36.288,14.73,2.318,9.07,40.778,66.92,25.966,37.202,255.432,169.686,359.974,433.636,133.422,429.35,504.118,524.64,540.556,540.468,557.746,549.422,564.886,550.848,471.556,545.426,575.198,492.74,512.672,593.748,602.162,602.832,603.118,603.31,603.494,603.634,603.696,603.824,603.854,603.808,603.81,603.74,603.694,603.616,603.634,603.736,603.94,607.804,607.914,610.432,607.848,605.21,608.636,603.47,605.538,606.232,608.006,607.166,606.226,605.426,604.61,603.682,597.694,596.776,597.342,600.332,599.928,599.734,599.678,599.934,600.356,599.622,601.206,601.568,602.082,602.562,602.838,602.934,602.98,602.932,602.72,602.396,602.07,601.314,600.698,600.03,599.362,598.624,597.994,597.548,597.27,597.096,597.052,596.804,596.636,596.562,596.376,596.36,596.22,595.732,595.1,594.5,594.072,593.662,593.222,592.93,592.558,592.504,592.408,592.304,592.138,592.058,591.612,590.968,589.996,588.932,587.686,585.354,585.262,581.448,576.228,575.134,574.912,574.97,575.48,576.082,576.926,577.838,578.76,579.746,575.868,575.49,570.324,555.568,525.18,513.284,523.808,532.88,506.062,504.008,466.294,409.5,358.882,338.326,299.924,261.546,245.758,206.582,207.23,350.48,427.262,371.822,423.474,447.484,430.754,445.512,433.078,364.292,367.13,312.81,265.402,249.046,221.836,136.378,89.534,95.898,84.998,88.478,75.448,63.604,67.102,61.768,60.688,81.184,107.956,66.388,46.248,55.04,104.766,135.532,168.842,201.388,157.656,222.05,296.374,296.392,250.09,233.6,272.214,301.67,298.068,314.518,352.224,380.566,401.034,380.19,382.66,482.786,492.748,495.232,491.92,499.926,518.652,524.198,530.338,529.75,533.496,534.058,532.634,532.37,532.336,535.652,532.632,536.154,534.152,525.832,521.98,516.036,511.092,512.406,500.694,494.298,499.46,505.67,508.602,507.014,506.346,507.896,512.714,500.06,478.608,474.658,455.682,423.768,445.628,472.964,483.116
24,16,8,0,0,1.164,1.164,1.164,3.494,5.814,8.14,8.166,8.204,7.044,8.216,9.398,10.592,13.034,21.222,27.204,30.766,31.912,35.432,42.546,54.226,78.622,77.794,97.174,128.784,144.408,162.398,182.812,186.418,201.77,227.558,248.07,282.552,292.844,330.266,337.366,382.002,413.84,405.718,422.522,432.092,451.544,467.98,466.13,446.694,439.746,449.856,458.062,441.694,421.37,412.408,423.394,402.918,389.31,417.962,460.994,484.118,459.688,462.188,468.29,430.35,392.198,356.348,327.042,283.304,208.966,142.792,96.258,85.222,67.682,52.134,36.706,24.502,19.986,13.292,3.312,1.12,0,0,0,0,0,0,0,0,0,0,1.09,5.482,52.364,79.896,97.718,143.934,205.84,275.858,348.464,399.542,424.214,425.752,485.728,514.636,534.546,530.044,516.35,521.75,544.182,540.688,540.554,496.246,555.184,559.45,563.212,565.426,565.038,564.632,447.034,189.33,366.476,541.554,559.826,560.3,548.32,557.46,559.966,555.474,559.168,557.928,561.832,564.706,554.83,534.944,547.454,498.534,515.022,517.06,482.944,531.426,388.652,273.86,375.102,396.41,190.224,81.736,45.534,19.8,21.498,28.262,32.366,44.43,57.266,69.224,75.336,73.39,78.57,74.998,68.542,61.792,54.464,46.858,39.326,39.462,39.55,31.832,31.972,47.998,60,60,56,80,96,124,132,136,140,132,116,88,52,48,40,32,32,23.998,21.134,22.268,22.296,23.432,22.3,22.3,1.142,8,16,24,24,32,32,40,48,52,56,40,32,20,20,16,16,16,16,16,20,20,21.12,27.878,48.978,54.426,61.172,58.698,51.908,69.704,60.678,50.782,33.238,27.73,22.228,17.108,18.24,24.522,23.38,21.134,32.452,60.604,76.328,95.912,135.014,258.086,347.088,344.896,286.15,348.282,518.034,511.812,446.4,387.092,487.146,569.804,555.31,524.222,498.622,547.576,547.754,552.406,560.508,565.596,564.35,562.522,552.312,561.856,508.51,502.426,520.108,497.526,518.44,547.162,560.462,557.386,571.422,563.588,563.47,569.234,577.548,562.028,533.636,523.95,507.016,550.494,545.766,533.638,544.448,547.858,547.952,547.486,538.176,416.634,331.616,221.552,74.912,182.376,416.346,366.672,311.752,223.838,236.546,192.376,63.746,21.014,14.298,42.054,241.988,46.548,12.198,81.172,124.392,201.17,258.574,410.862,458.948,495.396,423.416,408.736,441.96,488.04,543.49,551.778,542.968,530.614,549.476,549.086,564.346,531.274,531.864,569.81,562.722,425.682,555.124,602.534,603.214,603.574,603.774,603.922,603.894,603.788,603.81,603.808,603.76,603.712,603.606,603.636,603.692,603.922,604.208,604.656,606.184,605.146,607.74,607.666,605.096,604.9,604.476,603.956,603.348,608.678,606.654,606.81,605.898,600.218,600.34,596.818,595.926,595.396,594.902,600.6,600.378,600.306,599.194,599.688,600.152,595.722,601.994,602.404,602.75,602.962,603.032,602.978,602.922,602.694,602.346,601.976,601.226,600.552,599.902,599.23,598.438,597.788,597.29,597.004,596.772,596.686,596.326,596.166,596.05,595.958,595.888,595.712,595.302,594.728,594.19,593.762,593.312,592.846,592.524,592.178,592.09,591.998,591.822,591.604,591.532,591.03,590.394,589.448,588.402,587.276,578.096,579.192,576.748,574.002,575.51,575.488,575.976,575.434,575.14,576.046,576.97,577.984,578.946,578.668,578.05,565.63,528.068,523.654,524.73,498.872,486.586,467.694,444.652,368.698,278.362,231.146,212.632,188.686,196.142,179.66,224.044,257.648,359.6,454.38,465.382,451.042,435.442,405.094,444.04,427.55,340.074,260.874,358.802,293.236,230.844,225.376,170.604,100.74,82.548,80.52,68.622,65.526,72.16,57.076,52.666,51.6,77.992,85.488,77.84,55.108,75.454,116.572,150.94,191.266,244.354,226.86,276.804,260.808,262.918,272.932,282.544,263.88,293.47,305.538,314.652,351.114,349.904,338.622,320.242,359.132,509.03,522.246,511.732,496.982,495.208,507.556,516.33,526.83,529.586,526.99,528.588,525.93,525.628,527.634,525.564,528.076,532.742,527.522,518.12,510.028,511.54,494.75,492.894,465.636,449.116,447.58,462.33,477.054,484.816,477.458,463.83,478.046,450.254,409.006,366.822,372.61,410.964,474.098,504.42,511.37
12,8,4,0,1.148,1.15,1.152,1.152,3.48,6.956,6.95,6.98,8.15,6.996,5.838,4.68,4.684,4.702,8.224,6.996,3.464,2.242,4.592,7.988,8.944,20.106,34.578,49.114,91.924,117.25,124.908,156.808,161.06,174.28,233.152,327.512,286.072,313.83,338.976,342.952,349.074,351.388,332.734,287.174,311.524,332.362,345.844,345.478,310.166,348.29,358.806,343.876,376.508,365.714,379.31,382.742,311.872,357.956,392.266,454.288,486.104,441.878,446.886,469.556,463.566,442.054,420.692,423.842,408.356,344.51,260.726,211.724,206.98,185.898,153.192,93.756,60.196,42.76,28.464,15.362,13.104,7.674,2.174,0,0,0,0,0,1.07,6.5,23.782,57.242,112.468,144.182,175.878,191.744,228.324,288.19,361.044,416.664,424.068,396.686,440.808,438.266,497.9,518.72,471.738,441.396,474.35,527.948,543.486,556.616,557.554,558.384,556.646,557.804,556.262,506.194,321.112,431.102,529.62,554.194,554.038,553.208,549.46,541.524,551.82,551.064,545.702,552.978,539.724,505.394,553.286,552.734,513.58,525.79,501.286,484.678,491.426,479.304,400.226,329.066,319.92,461.234,467.872,226.2,113.962,74.816,38.97,30.376,35.562,43.06,64.994,68.134,80.222,71.964,72.964,73.72,82.146,77.608,63.688,63.128,46.824,39.366,35.706,39.514,35.82,27.972,44,52,64,80,76,96,120,112,128,148,140,144,92,72,36,36,32,12,20,21.13,22.26,22.26,21.134,23.402,17.138,2.27,4,16,20,28,28,28,36,36,36,36,28,20,20,20,16,12,12,12,14.218,21.106,23.278,23.266,24.344,71.602,108.854,85.486,72.766,67.754,71.358,52.714,46.196,20.748,21.472,20,17.118,15.33,21.118,22.226,21.098,24.466,40.898,46.614,81.476,145.978,200.926,180.25,164.112,122.088,185.252,265.382,321.874,280.198,230.39,204.78,358.22,502.224,366.572,362.208,371.044,272.224,415.764,490.23,410.972,377.648,380.814,259.236,246.104,275.646,260.042,88.136,61.728,233.132,29.912,134.822,227.318,380.438,419.6,511.28,530.23,539.694,520.09,488.22,535.652,541.446,535.17,529.84,523.928,527.01,537.936,516.142,531.116,531.842,528.826,463.748,429.264,474.136,493.874,462.618,400.74,397.222,400.456,427.498,391.138,288.868,209.524,197.694,220.948,241.368,303.482,72.408,102.07,139.354,243.354,211.33,335.498,361.804,337.512,270.812,382.434,458.264,426.51,473.048,488.326,458.206,443.49,463.168,545.688,537.008,541.522,504.73,547.488,563.424,562.134,494.698,594.256,603.524,603.85,603.98,604.132,603.982,603.802,603.67,603.566,603.484,603.452,603.468,603.53,603.718,604.11,603.378,602.746,605.634,604.662,607.306,607.284,605.96,608.194,605.338,607.22,608.892,608.142,607.272,607.452,606.53,604.482,602.166,597.458,596.654,594.998,598.276,599.18,601.352,601.22,600.168,600.644,601.08,602.614,602.688,602.834,602.986,603.14,603.176,603.12,603.016,602.75,602.414,602.074,601.2,600.552,599.81,599.148,598.328,597.67,597.172,596.816,596.586,596.424,596.046,595.848,595.744,595.664,595.574,595.376,594.962,594.476,593.968,593.512,593.054,592.574,592.228,591.906,591.738,591.642,591.38,591.116,590.954,494.69,588.63,588.944,587.994,586.98,570.864,579.268,576.95,574.378,566.786,571.524,569.812,576.408,577.444,576.076,575.864,575.616,577.732,579.82,579.182,562.026,506.998,489.47,481.954,468.78,447.264,406.824,339.038,235.44,186.09,160.39,152.946,157.882,232.024,266.676,286.152,325.99,408.398,447.618,467.008,461.068,431.104,410.188,424.64,404.948,345.588,275.124,242.312,295.478,231.358,195.06,190.782,131.14,79.194,59.188,57.112,57.06,50.622,41.124,44.128,54.672,57.9,57.794,65.056,84.092,78.93,96.682,146.208,193.37,232.658,236.892,239.466,240.734,249.646,247.826,265.81,286.894,271.92,304.778,319.6,342.212,335.686,351.842,393.348,461.05,502.996,513.284,513.718,505.964,489.694,504.15,512.908,514.544,516.106,504.948,507.454,509.132,514.164,509.858,510.97,516.814,521.69,521.88,501.948,495.206,499.792,496.798,476.46,464.374,419.92,405.386,403.744,416.158,413.132,408.736,449.1,508.476,485.262,488.588,480.494,503.062,512.726,516.484,517.464,516.166
16,8,4,0,0,1.128,1.126,1.126,0,0,1.158,0,1.144,0,1.16,0,0,0,0,0,0,0,1.094,1.088,9.726,18.63,29.62,56.752,100.262,122.036,141.546,172.852,194.574,229.408,306.936,357.434,362.902,352.584,348.844,388.996,399.418,398.46,354.826,333.572,317.74,344.516,363.692,371.002,432.868,427.878,423.488,414.32,415.252,415.622,361.436,321.864,352.586,378.084,389.246,403.924,461.694,457.092,458.988,472.776,474.284,477.766,470.542,473.676,452.922,395.844,371.42,335.858,327.658,310.91,262.622,196.438,128.136,102.222,70.976,64.28,150.19,129.684,12.804,0,0,0,1.062,15.012,40.682,73.766,110.354,173.586,203.952,201.27,222.546,254.602,269.48,330.624,397.44,418.662,391.912,405.822,390.498,403.286,443.708,439.02,380.154,296.656,494.83,539.044,547.582,551.558,552.258,552.716,551.798,527.01,502.944,422.31,519.298,546.368,548.072,547.936,546.924,546.448,546.456,542.352,538.552,539.252,537.512,535.094,532.088,531.396,531.466,535.092,514.194,489.858,487.724,466.144,472.094,434.678,397.912,405.174,450.28,400.248,265.446,215.022,78.028,45.148,28.19,20.298,32.402,56.406,66.562,78.468,82.158,79.13,82.976,78.772,84.8,75.972,66.806,35.348,26.88,23.602,31.708,23.886,7.922,15.96,24,36,60,76,72,92,112,116,120,116,124,160,100,88,48,40,28,4,7.998,17.086,26.174,22.252,20,8,9.126,1.124,0,0,20,28,28,16,24,20,20,20,20,20,20,20,4,4,4,1.088,5.418,25.45,25.432,36.276,65.502,106.294,71.94,92.712,87.904,73.81,68.862,49.598,33.312,12.672,7.29,4,8,12.352,22.168,20,20,23.246,30.142,29.042,89.65,126.724,159.182,230.862,191.942,139.018,150.908,179.312,245.494,318.592,311.032,260.228,263.706,301.49,312.624,204.372,301.148,331.742,373.624,287.64,266.77,246.092,176.87,147.346,107.002,153.556,141.556,112.278,174.592,392.532,449.28,180.944,175.458,222.988,243.846,263.68,179.86,144.842,236.182,380.084,314.354,417.294,250.272,367.35,336.022,520.838,506.706,472.23,502.386,512.898,513.948,503.448,487.278,510.288,498.18,466.156,412.254,369.228,356.73,372.266,332.832,254.056,181.958,175.736,206.14,264.918,277.054,292.712,236.39,344.876,361.1,415.698,384.596,174.406,316.194,276.438,292.664,458.316,506.592,371.868,385.134,379.87,417.05,464.206,491.274,535.724,473.992,479.188,455.462,526.534,562.3,577.35,559.234,563.552,597.928,604.148,604.212,603.944,603.628,603.428,602.152,602.082,600.798,603.248,603.39,603.646,600.562,555.912,150.502,570.728,597.998,604.39,606.882,605.602,605.442,592.768,324.248,397.174,546.68,600.696,595.964,588.936,586.978,595.584,596.984,596.156,595.806,595.552,598.87,599.848,598.522,598.552,595.338,588.468,591.12,597.096,592.288,597.142,595.94,581.348,598.066,599.094,602.506,602.228,601.844,601.174,600.498,599.754,599.09,598.326,597.724,597.176,596.774,596.44,596.28,595.974,586.144,583.654,587.132,595.36,593.998,590.042,99.824,238.654,542.284,586.896,592.294,591.924,591.586,588.992,588.84,588.596,589.486,588.132,565.076,584.582,588.5,587.666,579.556,539.018,561.84,554.002,537.904,455.218,432.24,453.846,535.988,554.458,554.486,560.994,560.692,553.668,548.676,542.082,514.394,482.084,403.146,400.162,397.538,348.26,250.976,150.078,99.47,62.844,63.51,117.754,166.77,234.422,319.988,375.29,379.58,405.134,440.074,451.948,441.942,441.36,369.162,380.256,375.438,326.804,270.786,211.686,173.59,208.4,170.238,153.226,93.386,74.286,49.006,38.54,38.528,34.368,29.142,39.57,44.744,49.696,63.942,70.122,75.1,81.316,94.838,135.926,189.596,225.864,194.314,205.556,232.46,227.712,207.042,200.798,238.32,294.604,253.156,281.602,315.716,327.13,358.904,418.224,449.358,476.536,461.494,488.702,501.49,498.202,490.358,485.532,499.78,499.076,490.176,489.484,483.858,483.692,476.294,472.076,472.572,470.144,490.738,484.836,477.078,464.596,426.336,427.192,426.784,401.712,372.224,376.666,387.864,400.644,443.776,496.284,512.962,510.87,510.928,512.42,513.118,512.482,512.28,512.414,512.56
8,4,4,0,0,0,0,0,0,0,0,0,0,0,0,0,0,0,0,0,0,0,0,5.3,13.838,33.228,52.658,90.274,146.25,183.864,230.308,265.764,284.25,334.9,369.632,363.194,395.656,399.926,372.982,364.358,378.294,353.244,333.07,330.894,329.246,339.342,504.246,521.806,495.118,493.506,495.656,498.638,498.378,504.978,518.428,508.322,471.584,431.182,399.412,404.122,437.714,444.17,441.842,420.37,393.902,437.596,461.622,470.192,452.034,370.806,391.42,401.446,388.884,367.912,356.888,312.502,244.806,189.62,202.064,279.414,296.66,290.988,213.564,46.548,11.658,27.616,62.546,99.584,155.784,179.36,209.48,220.47,261.346,246.052,268.208,281.698,326.34,379.458,403.612,409.18,396.474,373.44,362.398,334.712,273.186,357.972,437.546,526.426,542.928,544.996,545.722,546.172,546.758,513.998,481.886,417.244,544.448,544.47,537.016,539.344,539.702,540.874,539.132,540.09,533.84,541.14,539.924,533.25,531.93,527.384,526.194,518.734,521.032,492.25,485.01,510.76,471.562,448.988,450.92,366.666,367.75,425.688,357.876,255.08,172.694,70.262,41.174,15.576,10.084,21.65,38.204,66.52,70.454,76.39,71.63,90.114,88.436,97.072,90.574,87.172,46.51,20.146,4,12,20,20,4,4,12,20,32,64,64,88,108,100,128,116,124,144,116,96,60,36,12,4,4,8,26.214,22.242,21.118,1.116,2.242,0,0,0,20,24,24,8,12,8,0,8,20,20,20,20,4,0,1.06,1.066,2.16,28.562,38.248,56.476,71.834,92.842,108.26,102.274,88.424,65.848,57.364,49.482,45.202,9.748,4.364,2.13,9.076,11.234,24.322,24.266,26.44,17.674,28.386,51.324,113.844,195.772,262.148,270.128,334.612,381.338,339.728,349.636,427.49,480.752,484.726,423.574,374.964,453.914,460.236,346.826,373.26,484.09,405.706,332.848,235.542,212.8,259.228,187.05,300.472,215.198,256.72,371.138,414.692,475.786,447.83,410.052,404.788,119.588,138.988,107.626,77.088,73.804,68.294,83.154,310.878,147.318,19.058,67.946,345.29,504.318,474.716,416.648,500.018,474.738,490.204,458.146,487.478,517.282,503.49,472.326,418.598,375.83,345.016,361.212,320.768,254.478,198.838,208.538,202.136,193.796,179.086,185.84,230.356,280.244,313.01,351.228,350.652,390.5,429.314,434.536,448.906,468.872,505.628,516.668,419.654,429.684,469.776,446.852,469.914,472.014,411.262,295.09,238.736,249.458,230.956,307.66,377.768,343.974,326.948,493.082,577.316,463.516,320.554,230.078,382.328,565.174,596.832,599.364,600.786,602.33,556.628,461.964,490.814,377.462,565.472,589.076,590.374,591.664,585.516,540.986,311.384,203.314,292.332,424.846,208.42,191.084,279.574,566.37,581.184,586.474,441.266,4.844,65.264,465.89,589.902,598.316,602.208,601.25,595.248,307.776,311.348,535.744,576.654,589.756,588.336,570.058,590.286,602.098,601.718,599.904,587.222,598.48,599.084,598.392,597.838,597.374,596.958,595.446,595.252,586.65,551.796,538.576,521.71,570.4,568.888,466.172,148.51,153.136,291.818,387.46,554.086,585.694,585.318,574.408,561.154,510.016,534.57,555.584,556.174,568.642,579.834,566.152,547.766,487.718,469.952,485.002,446.144,352.962,290.496,257.096,386.538,413.398,468.334,499.742,415.646,437.734,404.094,367.724,382.33,337.642,312.968,217.108,147.116,105.854,61.404,34.992,41.24,59.95,107.308,215.28,291.618,338.682,380.44,413,397.452,412.506,439.774,433.76,411.124,399.968,394.996,343.182,321.472,273.472,236.774,171.076,108.292,115.488,143.628,93.284,68.278,60.022,46.5,38.174,24.642,26.676,25.71,29.794,43.008,50.022,72.292,77.24,69.87,75.068,100.614,121.97,170.472,190.266,160.844,159.514,164.658,187.98,155.962,150.23,149.012,193.098,244.098,200.256,256.722,287.918,351.608,363.87,391.84,436.442,450.236,437.726,457.438,479.594,470.592,454.516,462.476,473.376,458.51,447.576,454.68,438.984,400.028,397.944,453.714,424.118,415.108,430.512,441.846,421.21,406.184,392.014,384.424,377.164,380.442,393.122,396.724,438.372,489.296,508.174,508.234,508.34,508.802,508.492,508.448,508.194,508.258,508.59,508.94
8,8,4,0,0,0,0,0,0,0,0,0,0,0,0,0,1.036,1.04,1.042,1.044,1.046,0,9.504,19,41.184,65.69,98.908,134.344,192.96,247.49,295.512,332.06,373.868,393.184,414.468,431.218,435.586,456.41,469.94,435.414,429.7,441.152,424.144,412.214,405.194,423.186,512.238,516.22,517.3,502.462,510.036,517.538,518.52,518.842,522.586,523.174,512.114,464.54,434.022,430.218,459.216,457.166,431.634,391.372,377.394,386.354,415.692,496.036,486.334,426.466,433.134,430.306,426.28,388.748,338.16,221.044,106.484,84.424,143.93,197.882,197.182,203.298,301.3,276.44,169.594,180.046,211.624,252.84,282.558,293.706,264.158,304.644,291.686,300.83,324.804,350.96,372.686,408.156,410.668,437.368,404.55,350.7,296.332,299.964,485.348,525.636,534.406,537.79,538.854,539.794,539.376,534.234,530.292,528.102,497.252,536.978,538.222,538.346,535.39,536.65,535.904,535.264,533.808,533.92,525.658,536.232,534.822,532.294,497.068,520.908,507.6,495.336,440.32,450.262,448.028,383.506,379.488,266.91,249.826,269.994,358.49,284.846,157.614,116.242,64.978,29.65,12.158,12.212,15.924,14.872,37.086,27.194,16.864,76.328,66.928,67.002,88.842,85.396,78.112,41.574,37.668,4.81,4,16,20,20,0,8,8,12,20,40,44,72,88,96,104,4,20,132,108,80,36,12,12,4,8,16,20,21.12,21.104,4,0,0,0,8,20,12,12,8,4,0,0,4,20,20,20,20,4,0,0,1.052,5.06,23.194,26.696,39.468,60.53,67.812,80.25,79.28,65.44,55.844,42.396,46.08,24.156,10.756,8.298,9.074,10.114,8.258,23.202,19.158,20.24,27.69,32.118,36.95,86.016,149.176,247.714,263.86,297.7,313.346,403.876,421.294,393.738,423.522,385.054,286.866,334.53,255.938,276.128,170.744,234.462,129.374,153.702,112.262,25.296,20.256,106.292,181.56,124.91,116.514,225.02,313.9,324.262,385.148,388.354,422.302,497.3,356.044,125.968,107.178,142.256,167.552,240.788,288.42,446.474,513.776,481.104,370.556,381.546,481.124,459.438,246.802,233.454,216.95,246.072,400.454,515.01,514.408,484.894,445.596,360.304,284.938,241.69,254.362,208.566,189.5,119.272,75.672,83.104,119.43,95.02,67.412,123.532,183.002,161.628,179.06,193.326,226.154,376.738,397.35,396.002,409.588,449.634,490.394,496.814,433.286,275.536,271.092,246.682,186.692,75.062,33.808,14.216,0,0,45.082,300.322,434.962,306.618,273.438,400.132,251.158,85.344,37.792,35.264,530.786,597.748,601.472,598.078,581.354,500.396,419.298,547.34,563.964,576.712,590.618,590.87,597.23,585.04,540.672,487.552,413.652,348.158,215.154,50.116,3.674,11.04,372.382,591.33,572.484,246.394,0,1.206,14.558,384.832,587.646,601.086,601.088,407.534,7.206,5.992,202.778,422.364,502.97,512.348,471.14,515.464,560.992,575.028,547.988,528.288,455.714,545.122,562.52,596.736,591.626,575.678,582.546,564.488,459.298,431.664,439.866,468.34,496.702,417.752,400.8,200.886,78.39,58.176,126.778,371.536,444.572,489.136,538.572,387.016,375.056,408.992,497.272,361.36,543.546,571.408,543.734,464.702,376.808,311.512,294.318,238.34,232.072,268.22,150.362,215.024,264.206,241.018,330.58,42.394,195.478,247.344,245.036,214.266,183.126,143.254,8.314,10.514,13.468,28.552,50.616,68.048,111.042,198.202,245.566,321.086,363.838,397.136,392.466,391.728,375.552,390.04,384.03,347.764,326.098,300.404,325.18,239.342,176.632,148.492,102.094,59.574,48.328,43.16,64.644,44.85,35.732,34.676,25.45,13.134,7.064,5.104,10.166,19.216,30.228,44.352,43.27,44.092,47.054,44.158,72.288,91.048,291.09,292.624,128.022,129.138,162.12,142.126,130.072,116.828,119.252,143.502,200.08,161.542,185.298,215,202.722,264.094,338.822,369.736,385.118,337.316,401.66,461.448,445.354,419.428,435.272,440.022,446.848,456.996,449.97,441.414,478.616,502.142,497.8,494.172,465.83,423.104,421.252,442.556,442.092,435.022,448.284,458.022,466.934,476.65,486.11,498.668,503.322,503.924,503.738,503.736,503.98,504.434,504.746,505.114,505.606,506.164
8,8,0,0,0,2.078,3.104,3.07,3.072,3.076,2.05,0,1.032,2.032,1.03,3.06,3.064,3.096,3.06,2.042,3.102,10.354,13.536,26.11,58.454,82.83,124.164,180.498,232.572,286.664,320.892,366.61,386.882,403.874,422.744,432.544,446.13,436.998,452.148,457.67,446.748,439.936,448.626,440.788,484.266,507.742,497.098,501.232,514.882,516.308,505.156,513.624,516.942,518.352,518.75,519.098,518.384,500.512,472.238,478.796,492.592,486.332,461.056,403.64,398.608,420.26,474.736,514.57,514.09,496.812,478.558,474.312,445.488,377.094,361.084,409.422,396.608,441.67,325.634,131.248,158.498,226.872,276.69,311.73,298.608,300.062,284.702,314.178,320.248,294.004,296.78,293.972,290.472,276.366,303.286,346.664,329.984,285.908,303.058,318.27,281.132,212.212,469.23,523.306,528.59,529.53,530.444,531.348,532.298,526.63,517.314,508.862,533.662,524.922,522.386,529.35,528.766,528.32,528.93,529.47,526.886,528.82,529.942,518.69,521.154,528.088,522.078,522.624,521.272,490.888,503.706,469.584,410.634,420.192,430.476,348.34,262.9,89.222,104.976,106.152,127.358,61.426,49.34,39.48,24.03,13.13,7.784,13.734,10.262,16.934,10.016,0,0,51.314,66.868,51.506,68.836,69.286,34.336,33.204,2.158,1.074,0,16,20,16,4,8,12,12,8,16,32,36,68,32,0,0,0,44,96,84,52,20,8,4,16,16,20,20,20,8,0,0,0,4,20,12,12,4,0,0,0,0,8,20,20,20,4,0,0,4,4,23.166,23.438,30.862,40.154,59.7,74.662,72.604,55.572,40.622,38.15,41.86,26.12,7.464,5.272,7.148,6.072,7.128,23.124,22.106,21.238,18.452,29.52,26.112,43.88,89.276,148.26,190.396,140.748,172.538,191.554,235.09,362.162,265.748,211.864,259.552,178.65,147.59,153.884,137.562,135.154,78.788,47.472,30.806,12,16,30.616,49.54,81.118,77.966,157.686,139.836,167.844,345.038,369.848,427.462,496.232,486.068,447.342,406.096,407.172,437.968,446.79,382.408,299.03,321.566,313.382,469.188,465.712,439.092,450.248,394.12,155.898,77.054,270.47,174.598,263.498,280.768,348.79,319.364,212.778,83.268,79.084,77.916,101.78,56.664,14.708,5.258,3.154,44.182,45.328,4.26,41.512,47.036,54.782,8.592,11.834,8.594,109.226,128.534,63.084,59.032,63.86,96.432,232.796,97.212,13.95,2.11,0,0,0,1.192,0,0,0,0,9.772,93.22,202.166,151.522,172.054,98.744,40.236,0,0,506.084,598.628,599.976,595.412,571.426,502.542,426.386,500.552,604.122,605.988,602.882,599.69,606.236,603.92,603.764,588.64,419.92,258.998,225.618,203.274,101.634,122.408,513.644,495.884,299.624,162.082,13.424,3.644,182.516,409.286,568.826,590.528,508.026,404.724,56.878,39.878,212.7,412.916,459.682,512.476,486.894,462.572,529.68,519.682,538.386,565.504,569.658,55.176,39.556,447.616,588.392,578.464,579.288,443.164,438.244,395.086,405.694,425.732,451.644,407.144,320.028,77.338,90.348,52.26,81.81,120.706,233.934,194.734,152.164,233.372,301.578,398.052,243.62,242.31,351.562,465.388,488.764,366.398,257.546,198.018,141.954,105.748,149.16,197.328,158.464,126.456,82.272,69.07,37.69,60.856,68.172,72.998,77.948,68.254,37.868,25.638,14.19,7.628,16.998,40.212,68.706,92.998,147.078,194.186,214.914,249.168,305.776,348.99,363.74,318.646,311.836,361.964,318.338,249.45,215.638,199.366,217.716,230.698,95.77,53.846,29.496,34.52,18.268,18.286,19.218,38.392,27.142,20.066,25.03,18.01,10.954,9.936,14.87,22.862,41.792,65.518,75.476,92.304,100.348,120.056,145.778,235.92,330.09,363.796,352.61,245.554,236.616,208.842,211.82,181.108,163.534,153.832,195.802,258.194,160.956,123.224,145.526,228.098,259.754,334.676,348.888,294.512,282.048,363.54,406.6,389.09,372.244,425.272,459.47,466.452,464.422,481.514,492.866,481.356,461.998,482.858,489.508,455.72,422.542,444.496,457.95,453.986,461.634,468.388,478.202,490.428,486.998,484.904,496.93,497.23,496.704,498.338,499.142,500.064,500.996,501.802,502.676,503.446
0,0,0,1.018,2.036,2.038,2.042,5.128,6.128,8.16,7.15,6.068,7.062,8.054,5.04,5.046,6.066,7.106,7.13,6.158,11.296,15.458,25.878,41.422,71.452,95.464,138.456,193.158,256.072,297.332,338.114,364.354,383.622,391.958,405.34,396.542,404.61,407.116,403.15,410.888,428.714,414.356,415.166,445.776,478.592,474.18,462.702,479.292,504.328,508.952,510.262,496.984,508.71,509.942,508.11,502.052,507.224,502.962,486.246,476.992,491.664,500.97,487.406,435.788,469.466,472.406,498.378,508.724,504.464,482.754,431.962,365.872,393.64,468.304,486.338,510.728,511.466,477.326,455.42,458.826,433.246,445.258,413.602,397.346,409.768,390.698,384.99,416.87,386.526,371.794,340.298,337.884,337.676,324.854,337.828,344.286,288.166,307.252,333.684,385.386,393.218,514.816,523.946,524.292,520.69,523.384,523.86,523.288,488.974,497.884,506.388,499.8,486.064,512.31,497.232,514.966,516.8,509.216,498.616,521.96,512.55,520.228,513.338,507.228,501.332,515.678,512.004,513.54,504.756,512.012,479.914,414.672,406.556,415.142,402.552,365.542,277.65,228.178,243.094,159.836,84.764,65.268,41.196,23.824,12.984,4.328,10.126,16.992,23.624,20.192,13.29,0,3.302,68.95,80.65,72.284,62.292,38.074,41.648,9.334,1.07,0,0,12,20,20,4,8,12,8,4,0,8,28,24,4,0,0,0,8,28,52,32,12,12,8,8,4,20,20,20,4,4,0,0,4,16,8,16,4,0,0,0,0,4,20,16,20,4,4,4,4,5.036,24.23,24.468,36.104,31.862,54.236,60.634,45.828,37.246,38.3,23.398,29.25,22.564,7.144,1.04,2.096,2.094,3.106,19.138,24.12,25.186,25.286,31.656,34.11,46.62,87.302,134.016,215.014,254.2,296.176,347.494,379.978,389.926,363.768,347.086,320.308,273.838,266.622,247.968,197.772,246.448,233.586,257.624,232.778,179.936,195.63,148.74,155.434,246.736,288.41,303.194,324.932,360.038,451.338,478.592,475.684,487.432,495.632,491.798,500.074,490.018,497.32,481.34,477.286,476.498,501.042,491.088,503.33,503.898,499.362,495.298,490.586,475.682,499.692,372.606,293.798,119.14,147.38,261.298,226.014,119.6,51.852,41.346,26.9,12.46,1.038,0,0,0,0,0,0,0,0,0,0,0,0,2.126,0,0,0,3.078,18.524,10.254,7.22,4.122,2.028,0,0,0,1.2,0,0,0,0,14.816,125.272,386.114,368.496,158.524,65.926,26.81,21.888,9.76,286.718,559.194,544.762,545.12,557.76,452.314,273.62,486.716,556.042,604.462,575.78,479.518,561.956,592.922,595.3,501.54,196.768,99.514,90.886,122.62,209.53,345.018,264.058,70.948,42.788,47.722,13.464,111.166,125.714,191.402,208.252,199.586,143.468,99.548,93.322,70.17,96.746,108.746,190.732,229.218,159.168,153.032,270.932,270.738,323.322,482.622,346.73,9.592,5.996,104.232,505.114,508.39,502,284.566,339.538,363.176,65.764,134.928,151.504,190.554,129.768,13.132,21.45,58.212,16.674,30.786,41.366,17.756,22.468,51.848,212.98,156.426,201.126,81.068,120.988,260.804,255.026,339.764,127.216,44.924,27.378,25.092,48.078,82.116,72.772,99.542,28.082,1.226,15.904,3.678,30.622,14.754,7.38,7.376,1.23,1.986,5.956,12.912,28.894,58.976,88.236,117.602,172.378,216.304,248.928,300.15,295.32,350.158,342.2,307.66,305.916,359.474,292.874,250.97,213.138,165.744,136.134,125.04,83.764,11.068,4.022,3.012,6.044,4.028,8.04,8.024,16.962,7.932,4.944,7.918,7.9,8.872,8.86,16.776,29.668,54.266,74.058,100.74,129.202,165.584,228.272,290.252,336.31,357.814,383.132,386.93,353.146,292.32,279.406,241.272,243.258,214.528,233.942,217.786,192.388,104.638,48.944,75.944,140.46,199.62,247.026,226.628,247.364,303.876,351.128,367.344,367.35,366.722,407.588,425.332,451.904,445.812,446.79,412.628,417.75,437.402,446.882,444.036,415.982,390.576,409.502,409.622,429.52,449.764,451.192,464.33,467.218,474.222,483.494,483.148,489.89,491.88,491.954,494.994,496.192,497.436,498.69,499.816
0,0,0,1.012,2.03,3.022,4.032,10.028,11.032,12.018,11.038,13.028,14.022,14.03,9.028,8.014,10.074,10.12,11.18,14.284,20.452,26.58,39.88,60.516,77.996,109.922,155.514,223.978,255.994,309.876,328.776,350.538,345.904,341.734,338.24,333.35,338.336,346.956,334.828,344.804,376.078,411.648,415.538,430.746,427.742,415.522,435.716,472.77,484.42,495.41,500.656,504.962,497.242,496.448,486.172,493.278,493.272,488.978,466.222,473.164,464.846,493.388,502.372,484.136,487.474,495.79,499.792,497.764,501.066,480.824,467.65,474.18,462.914,456.538,466.246,508.27,508.076,491.426,482.948,485.586,476.698,488.852,486.81,450.076,458.34,473.888,474.37,438.766,464.564,424.99,381.466,380.23,388.292,386.906,359.518,320.586,314.544,325.208,492.968,513.602,519.168,518.698,519.162,518.282,517.502,517.686,511.548,496.986,496.45,466.442,500.616,478.27,506.44,485.428,490.594,472.816,484.548,497.032,487.882,508.176,500.164,505.906,484.014,504.468,499.584,481.056,484.714,486.248,478.366,452.372,403.812,329.7,358.23,357.994,326.616,263.758,221.288,135.16,147.348,68.444,51.36,35.304,17.14,7.502,4.268,0,6.768,17.29,20.238,34.336,34.472,37.834,58.738,86.498,83.052,67.08,54.84,48.646,24.702,22.456,4,8,8,16,20,24,16,28,28,24,36,40,24,24,20,16,20,8,8,44,68,64,52,32,16,12,16,12,20,20,20,8,16,0,0,4,12,16,16,4,4,4,4,4,16,16,16,20,16,16,20,16,15.15,24.214,26.494,25.42,42.526,45.298,31.6,22.154,21.046,13.642,19.416,16.342,18.188,5.026,4,5.028,2.036,8.082,13,18.004,26.074,30.258,31.536,35.694,61.446,86.948,137.454,198.108,291.548,334.56,344.304,383.63,405.526,411.864,410.236,298.144,319.102,298.16,277.38,254.2,199.538,229.672,280.09,263.964,237.622,220.422,206.376,247.59,309.182,301.752,342.99,327.078,326.142,440.506,461.748,434.21,422.56,463.874,472.22,479.362,492.758,481.908,464.686,470.002,474.542,498.092,492.37,494.626,500.028,500.146,498.862,439.126,292.826,397.274,284.644,153.434,160.762,166.238,197.59,199.44,82.15,32.784,55.078,70.06,1.99,0,1,6.008,0,0,0,0,0,0,1.032,0,0,0,2.042,3.06,2.032,12.276,35.76,31.592,14.234,23.39,22.334,7.06,0,0,0,0,0,4.9,7.442,23.444,39.392,152.924,286.856,411.852,455.126,145.83,145.698,440.618,535.526,595.076,567.218,579.592,600.702,601.172,567.798,504.972,574.14,603.232,605.27,607.228,606.57,604.69,601.352,580.486,540.996,507.598,397.976,383.008,412.164,382.328,280.378,108.938,68.542,90.666,56.364,160.32,252.984,323.53,223.344,57.4,43.896,90.072,224.766,189.174,171.97,226.162,186.09,132.84,195.47,201.438,186.806,137.294,191.37,272.91,192.204,249.612,68.32,17.992,106.758,359.634,463.342,520.484,509.634,486.792,126.79,7.202,8.396,100.176,97.662,105.884,33.344,45.182,41.578,60.428,46.136,27.19,17.762,63.562,123.484,166.896,378.818,123.142,86.912,269.316,385.618,437.474,462.554,269.868,11.816,0,31.212,102.488,152.402,143.282,136.196,56.224,41.648,30.656,13.522,46.628,54.014,28.306,8.618,4.204,8.41,12.85,20.788,35.798,74.746,107.768,141.99,176.45,220.998,253.624,285.076,313.602,323.482,352.832,346.946,340.776,343.668,314.926,307.23,271.708,236.316,214.242,208.912,172.616,154.408,105.45,71.726,39.83,37.006,34.946,23.852,19.876,24.762,16.774,21.702,30.53,37.376,45.124,48.998,60.8,76.45,98.038,143.004,170.398,228.01,277.704,291.302,329.276,349.714,374.766,393.032,395.606,332.662,285.73,319.554,262.952,277.318,342.314,334.726,325.32,384.86,402.99,443.646,442.178,402.346,343.772,300.152,302.864,348.718,368.368,354.93,342.464,334.192,391.814,413.616,427.132,383.808,338.396,371.802,371.154,389.412,379.27,388.362,399.784,393.586,324.256,325.69,378.078,404.1,407.82,402.518,402.606,444.79,457.804,465.494,479.288,485.428,486.83,484.226,491.644,493.35,494.124,492.766
0,0,0,2.024,2.024,3.012,8.012,11.964,15.938,15.918,17.938,17.94,15.97,17.976,16.968,9.99,16.066,17.136,14.128,20.234,25.222,31.286,63.68,71.824,98.298,127.682,153.268,193.13,241.8,270.17,280.736,295.426,290.574,276.868,301.256,315.744,315.574,313.15,323.794,347.564,357.808,379.6,422.196,432.798,409.914,414.468,456.934,471.388,473.862,477.594,477.594,488.966,483.486,472.288,455.992,479.288,477.278,466.036,448.488,451.292,441.236,499.884,502.706,489.72,472.688,468.71,451.384,434.192,477.06,481.42,494.824,493.996,496.076,496.016,502.014,502.984,502.818,502.682,499.544,479.014,492.94,499.014,494.978,480.806,471.702,498.488,499.698,469.418,453.422,455.772,428.476,405.876,371.876,359.078,330.804,295.79,478.79,505.044,511.822,512.378,513.68,512.914,512.052,512.054,503.98,484.48,434.942,456.518,404.424,458.138,469.3,452.546,452.786,486.844,362.68,454.144,445.266,455.054,491.41,471.174,480.898,480.418,478.44,476.528,462.106,453.896,440.392,445.798,422.058,423.76,355.612,315.13,330.52,280.72,254.62,228.614,162.53,82.812,37.798,36.896,26.38,11.668,8.508,2.108,2.106,0,6.778,10.4,27.344,30.79,44.5,51.924,51.852,65.494,62.118,41.732,31.206,24.95,8,8,8,8,12,12,16,16,24,48,40,68,72,72,40,32,16,28,40,48,40,56,52,52,36,16,20,16,20,20,20,22.024,23.036,20,20,0,20.98,8.98,16.98,16,16,8,8,8,12,12,16,16,16,16,20,20,20,20,20,17.058,20.092,21.136,24.394,25.588,21.522,23.498,8.196,7.084,14.052,11.028,14.026,15.008,19.002,18.988,16.994,3.91,20.932,19.01,29.954,31.03,51.12,38.252,73.678,93.894,135.542,201.308,247.798,294.258,324.152,337.338,291.532,400.664,397.884,360.74,277.664,210.518,225.136,144.73,145.338,146.9,168.944,144.284,182.196,183.252,186.926,200.452,232.886,248.142,266.908,193.06,176.57,335.448,296.926,308.114,291.178,264.952,319.624,403.51,483.166,480.072,459.474,442.124,434.812,485.406,487.792,468.95,467.004,492.164,494.286,477.716,412.922,432.444,310.656,190.542,215.224,252.254,161.124,131.626,148.24,139.576,125.9,28.728,5.906,6.85,4.896,59.712,8.796,12.822,4.008,1.006,1.006,0.998,3.042,0,0,0,3.02,10.078,15.096,24.158,29.158,31.132,33.128,28.036,17.994,8.986,2.01,0,0,0,0,0,1.212,24.648,46.7,85.828,119.75,220.496,336.832,395.94,483.218,542.624,548.724,593.762,589.024,598.95,600.608,599.918,594.532,596.508,604.626,599.25,605,605.656,605.144,604.508,588.914,512.582,500.26,496.45,482.826,455.604,407.382,329.828,201.09,176.574,225.458,236.424,251.078,248.474,254.35,230.962,194.192,145.282,120.774,179.058,206.704,218.48,222.964,217.852,211.592,199.292,136.364,144.784,65.108,3.598,7.2,111.748,93.676,149.984,130.698,64.794,57.596,193.338,262.524,373.808,384.504,342.516,114.906,9.602,9.598,39.39,72.652,88.082,52.388,42.794,39.198,40.304,7.18,6.004,22.462,94.122,89.482,161.046,266.826,181.754,124.42,192.768,328.016,335.168,303.646,160.346,22.498,1.206,17.916,106.076,152.252,110.482,75.412,86.518,78.212,51.524,7.364,37.998,36.826,22.132,4.92,6.128,8.77,18.564,34.22,58.858,87.428,126.034,162.81,184.966,214.082,219.38,231.754,263.952,248.188,217.044,176.21,214.27,217.844,210.798,229.434,208.24,190.058,184.964,170.922,141.174,114.346,86.708,54.2,37.296,22.656,12.772,11.794,8.85,8.844,14.736,18.632,21.546,29.318,41.01,42.934,67.166,87.566,111.886,147.912,209.79,272.614,273.676,280.504,309.598,343.354,343.24,349.814,412.726,392.94,347.898,222.958,194.696,204.004,355.972,344.4,372.196,407.652,450.192,409.752,414.514,431.082,440.912,377.54,368.684,403.004,417.33,408.688,340.292,308.79,355.032,389.846,372.94,289.828,283.504,314.652,336.984,326.778,299.138,274.782,300.102,301.242,293.388,294.868,302.36,334.316,373.722,362.944,349.79,374.402,380.502,425.738,411.406,436.84,451.772,467.512,459.108,472.222,475.84,464.576
0,0,0,2.022,2.024,3.992,8.976,14.894,18.832,14.898,15.866,17.852,17.876,18.87,19.89,15.878,15.966,15.974,12.002,17.93,22.902,25.862,39.872,74.866,86.856,106.776,137.774,173.92,227.896,263.884,244.054,238.016,232.002,253.678,284.266,322.992,321.984,354.578,387.578,377.49,346.948,365.572,399.422,417.428,458.328,485.952,478.286,475.612,472.152,480.806,477.772,468.162,463.784,430.696,474.872,473.86,459.756,465.938,465.684,478.884,481.118,493.974,497.902,495.1,471.24,427.036,421.978,452.156,468.612,463.84,482.138,491.252,492.336,499.35,494.316,479.184,495.34,500.166,480.968,487.872,498.74,497.686,494.528,491.39,484.332,493.61,498.678,496.69,470.678,436.752,426.024,415.232,402.582,358.146,479.104,495.7,502.954,504.11,502.398,505.614,505.638,501.736,491.762,433.076,462.542,417.842,381.072,454.178,427.028,433.638,462.25,482.692,489.07,501.78,482.796,467.968,457.664,450.578,437.32,445.068,466.932,469.502,453.614,447.782,446.98,422.092,405.568,394.408,395.628,383.266,281.838,185.842,235.804,182.012,137.626,112.9,83.888,25.914,26.042,18.732,11.47,13.444,8.158,6.092,5.044,5.044,4,10.788,13.962,23.984,34.188,37.73,41.528,41.534,38.098,20.788,6.712,3.384,8,8,8,12,12,12,12,12,32,56,72,88,88,72,44,32,16,16,40,48,48,36,28,28,28,16,16,16,20,20,16,18.936,25.866,19.886,17.932,4.976,17.954,16.976,16,12.978,16,12,16,16,16,16,16,16,16,16,16,16,16,20,16,16,18.016,19.016,19.002,16,16,17.008,4,4.988,13.944,8.996,12.994,12,13.994,12,16.85,16.814,15.89,16,17.952,19.932,23.932,21.85,23.772,27.928,31.902,32.938,29.978,26.99,104.278,168.496,119.004,149.068,279.238,325.572,175.63,129.636,114.596,125.256,145.512,59.922,61.062,86.362,135.656,40.294,39.41,50.294,135.066,182.26,156.46,79.01,86.454,122.832,136.292,139.304,240.614,252.054,155.61,391.51,377.754,320.64,427.994,434.796,421.556,418.4,469.25,411.664,368.138,465.676,479.412,423.644,376.236,328.586,189.096,102.526,100.606,174.664,212.644,194.884,132.672,153.872,143.446,67.746,88.616,64.278,54.652,43.08,27.85,20.178,3.898,0,0,0,0.988,0.99,0.99,2.964,7.922,11.864,15.836,17.81,23.764,23.742,26.678,24.668,15.748,10.812,6.882,1.964,0.98,0,0,0,0,0,2.49,24.534,35.502,40.268,123.928,309.338,405.244,481.798,469.508,559.562,573.044,587.836,593.096,592.326,594.186,599.652,602.78,602.198,604.146,602.256,597.874,595.932,580.508,525.228,352.06,352.248,380.402,332.488,249.034,166.862,134.922,122.694,123.84,123.83,33.008,109.054,127.314,110.094,85.556,80.636,84.198,48.742,27.94,36.4,116.416,127.148,113.75,113.64,88.178,35.004,8.414,2.402,4.804,19.242,80.448,153.662,127.136,184.766,203.988,222.062,242.328,238.622,222.968,214.478,156.87,92.108,32.284,17.932,38.186,45.212,36.832,35.654,45.058,21.354,6.01,6.012,8.352,97.688,153.974,227.872,266.55,298.354,266.604,331.394,350.378,347.092,312.036,236.996,241.312,122.222,109.574,154.732,183.074,131.874,106.786,97.322,85.394,75.734,48.936,42.736,26.95,15.944,8.578,4.124,6.744,11.552,18.336,26.066,23.24,25.18,61.218,98.222,89.704,80.95,72.32,84.03,95.798,67.502,28.284,47.006,31.294,50.856,99.932,134.338,133.036,122.262,121.196,91.758,66.322,53.618,35.134,15.644,12.706,8.806,9.772,10.754,8.792,9.76,17.56,21.45,23.374,39.886,50.488,73.774,99.89,145.292,194.382,247.996,276.762,294.172,290.53,322.208,351.794,374.84,374.67,367.04,415.13,419.492,389.9,391.022,423.868,435.776,437.228,439.814,439.594,427.148,430.478,405.086,398.056,421.742,433.418,399.582,399.364,395.294,388.616,360.27,343.348,331.024,451.078,407.444,335.754,316.88,314.426,334.286,322.082,318.298,310.554,289.874,282.002,318.248,334.53,358.438,384.162,424.514,438.032,453.79,470.412,467.82,458.018,440.638,409.872,409.13,388.002,392.722,357.008,386.294,358.99
0,0,0,2.022,2.018,3.986,7.948,12.86,17.794,13.822,14.782,18.762,14.818,16.774,14.786,13.762,14.828,10.868,10.826,13.778,12.748,18.696,33.538,58.022,108.138,143.446,183.442,225.94,264.544,277.15,323.564,451.794,441.262,373.196,370.172,396.54,396.496,413.228,416.316,393.944,378.636,404.82,431.418,417.68,466.2,490.576,484.942,468.33,470.776,474.25,469.298,466.644,470.554,450.924,429.72,489.156,494.396,485.612,488.732,488.954,491.294,482.246,490.302,489.612,478.928,453.088,441.024,430.102,471.236,481.216,476.238,488.134,492.06,492.956,452.86,457.938,479.06,476.062,486.062,492.902,493.712,495.668,492.516,488.318,485.258,488.28,495.296,494.354,491.576,457.8,399.802,396.93,492.686,488.884,488.966,496.076,495.912,492.856,470.888,495.152,397.018,336.21,316.93,424.988,452.94,459.052,448.842,467.26,478.838,476.516,460.418,477.178,500.232,501.006,491.584,474.03,453.548,433.628,441.714,444.264,471.366,474.932,446.756,441.19,409.514,371.552,342.794,344.04,338.868,302.304,193.666,131.282,115.092,117.144,90.586,58.678,27.71,14.338,11.212,13.268,9.22,8.21,6.084,4,4,4,4,7.346,17.652,13.624,27.412,34.472,34.178,34.568,23.71,10.034,0,0.97,0,4,8,12,8,8,8,16,32,48,64,84,76,72,40,32,12,12,20,24,24,20,16,16,16,12,12,8,16,16,19.87,20.836,39.19,37.16,32.352,13.638,16.836,18.928,17.93,12.978,16,8,12,12,12,12,16,16,16,16,12,12,16,16,16,16,16,16,16,16,12.968,15.948,0,0.954,8,5.962,12.986,12,12,14.91,17.74,16.804,24.492,13.918,17.786,14.898,15.878,11.746,32.404,24.742,27.784,24.858,20.976,24.948,64.994,146.134,126.108,116.212,187.716,295.986,211.564,214.816,220.706,127.556,160.37,187.274,154.248,135.108,42.934,61.51,50.866,126.79,178.804,165.276,124.946,44.088,13.72,12.708,51.74,70.332,175.432,214.322,346.246,250.262,249.52,346.974,372.284,342.91,386.16,437.256,442.698,347.848,305.64,389.114,381.174,361.87,253.576,338.82,198.648,75.728,65.848,63.912,86.808,141.14,131.746,95.98,135.228,131.888,118.134,80.934,51.414,29.488,19.988,10.472,4.768,0.954,0,0,0,0,0,0.984,4.888,4.896,4.9,9.812,11.796,13.764,14.724,17.638,12.71,9.744,6.778,1.924,0,0,0,0,0,0,0,1.25,4.896,9.666,69.308,158.874,252.176,375.906,312.572,485.22,527.946,557.324,575.914,570.19,576.836,561.378,537.394,568.494,586.246,588.08,499.06,554.868,489.866,46.552,0,0,19.904,172.994,112.882,68.776,45.412,44.208,52.816,0,2.434,1.218,3.656,17.132,19.564,8.542,6.094,4.86,6.064,4.84,6.056,7.25,10.874,8.436,2.41,8.466,7.55,4.518,8.462,6.628,16.798,50.346,69.53,83.922,123.532,125.93,128.292,112.642,88.624,100.52,108.872,59.772,45.398,36.998,30.954,26.156,19.02,15.434,20.194,16.558,14.188,7.154,23.618,47.122,83.542,130.384,187.894,217.23,210.314,262.086,268.152,256.468,224.836,208.728,185.668,129.258,170.522,128.074,64.862,37.368,53.398,57.098,48.672,37.736,24.362,11.018,3.62,3.622,0,1.926,0.962,3.796,6.642,4.74,0.96,1.87,4.784,14.324,49.002,93.162,103.74,104.772,110.892,110.736,74.242,159.724,187.352,121.412,123.432,118.43,118.354,103.84,89.164,65.754,54.158,45.43,26.2,16.474,10.668,9.704,9.72,9.726,8.744,9.712,9.694,16.476,11.586,34.704,51.104,60.672,98.024,169.528,217.23,218.704,210.048,232.16,253.406,284.956,317.246,354.388,345.792,331.868,369.384,408.612,403.224,395.868,404.8,428,437.818,443.064,431.116,425.006,422.256,422.294,393.412,381.626,411.934,421.502,398.74,357.236,359.08,395.408,413.838,412.7,460.272,460.274,433.242,389.444,398.188,412.334,400.106,401.126,401.36,400.85,389.054,385.592,378.272,434.092,451.31,438.556,445.408,451.592,458.484,461.56,456.6,423.18,444.862,408.602,401.676,380.2,358.022,330.95,276.878
