5027,5098.67,5156.33,5216.33,5262.33,5358.67,5470.33,5553.33,5604.33,5659.67,5692.33,5745.67,5834.67,5850,5886.33,5918.33,5976.33,5993,6049.33,6089,6105.67,6103.67,6103.67,6122.33,6184,6204.67,6204.67,6224,4085.67,0,0,0,0,0,0,0,0,0,0,0,0,0,0,0,0,0,0,0,0,0,0,0,0,0,0,0,210,632.333,633,634,635.333,636.667,638,427,429,647.333,649,652.333,655.333,659.333,664.333,670.667,447,683.667,690,696,701.667,708,711.333,715.667,722,728.333,491,496.667,753.667,764,774.333,782.333,793.333,538,816.667,828,840,572.333,579,296.333,592,596.667,601.333,903.667,905.667,907.333,909.333,304,6592.33,6620,6592.33,6614.67,6683,6634.67,6654,6652.67,6631,6631,6603.33,6582.67,6628.33,6654.67,6726.67,6806,6906.33,6984.33,7090.33,7173.33,7313.67,7369,7492,7557,7622.67,7657,7719,7790,7853,7890,7890,7921.67,7854,7854,7783.67,7821.67,7723.33,7721,7597,7496.67,7404,7340,7309,7249.33,7194.33,7166.33,7192.67,7219.33,7277.67,7362,7481.33,7544,7605,7766.67,7798.67,7832,7832,7901.33,7870.33,7901.33,7906.33,7906.33,7941.33,7941.33,7941.33,8008.33,8045.33,8115,8184.33,8184.33,8256.67,8333.67,8300.33,8421.67,8464.33,8553,8599.33,8615,8696.67,8747.67,8781,8822.33,8805.67,8791.33,8827.33,8779.33,8808,8802,8802,8760.67,8757,8757,8714.33,8674.33,8633,8516,8477,8402,8362,8289,8176,8106,8069.67,8000.33,7969,7937.33,7940,7874.33,7874.33,7842.67,7806.33,7872,7911,7984,8025,8106.33,8223,8362.33,8427.67,8480,8500,8531,8531,8562.67,8629.33,8628.33,8697,8697,8732,8805,8788.67,8788.67,8862.67,8862.67,8902.67,8980,8980,9152,9195.67,9319.67,9463.67,9598,9643,9682.33,9676,9673,9572.67,9523.33,9379.67,9243,9154,9019.67,8979.67,8894.33,8850.67,8767.67,8767.67,8805.67,8808,8893.33,9022.67,9158.33,9213,9359.67,9612,9776.33,9849,9969,10093.7,10095.7,9909,9791.33,9566.67,9553.67,9398,9340.33,9243,9102.33,8968.67,0,0,0,0,0,0,0,0,0,0,0,0,0,0,0,0,0,0,0,0,904.333,902.333,903.667,902.333,901.333,910,0,1111.33,1131.33,1135.33,1133.33,1132,1128.67,1124.67,1120.67,1116.67,1110,1104.67,1094,1085.33,1071,1057.67,345,0,0,0,947,938.667,935.667,930,926,921.333,916,911,906.667,902.667,899.333,896.333,893.333,890.667,890,889.333,888.667,591,0,0,0,0,732,731.667,729.667,726.667,721,714.333,707,699.333,691.667,685,680,675.333,671.333,667,663.667,660.667,658,655.667,652.667,650.667,648.667,647.333,646,644,642.667,641.667,640.667,640,639.667,639.333,639.333,639.333,639.333,639.667,640,640.333,640.667,642,643,643.667,644.667,645.667,646.667,648,648.667,650.667,652,653,654.667,656.333,658.667,660.667,662.667,665,667.667,670.667,674,677,681,684.333,688.667,692.667,696,700.667,704.667,709,713.333,717.667,722,726.333,731.333,735,738.333,743,747,752,756.667,761.667,766.667,771,775.667,779.333,782.333,785,786.667,788.667,264.333,0,0,0,0,0,1052.67,2002,2001.33,2997.33,3002,2992,2992,2987,1990,2962.33,2948.67,2934.67,2916.33,2911.33,2897.67,2888.33,2884,2875.33,2871,2861.67,2853,2835.67,2822.33,2800.67,2779.33,2763,2746.33,2738,2726,2714,2702.33,2690.33,2682.67,2678.67,2663,2648,2632.33,2613.67,2602.33,2587.67,2576.67,2562.33,2555.33,2541.33
5039.67,5096.67,5169.33,5259,5291,5386.33,5498,5621,5691.67,5711,5765,5819.33,5890.67,5927.67,5942.67,6000.67,6017.33,6051.33,6091.67,6109.33,6168.33,6168.33,6148,6187,6206.33,6206.33,6267.67,4085.67,4148.67,0,0,0,0,0,0,0,0,0,0,0,0,0,0,0,0,0,0,0,0,0,0,0,0,0,0,210,210,631.667,631.667,632.667,633.667,634.333,636,638.333,641,644,646.667,650,653.667,657.667,663.667,669.333,676.333,451,688.667,694.667,700,706.333,709.333,712.667,718.333,723.667,730.667,738.667,747.333,504.333,510.333,516.667,267.667,269.333,271.667,272.667,565.333,572.667,579.667,297,591,596.333,600,903.333,905.667,908,908.333,607.333,0,6565.67,4471,6632.67,6606.33,6630,6628.33,6627.67,6603.33,6604.33,6604.33,6606.33,6654.67,6677,6750.33,6801.67,6902,6980,7060,7169,7282,7337.33,7428.67,7523.67,7556,7650.33,7650.33,7747,7782,7810.67,7810.67,7810.67,7779,7779,7776,7746.67,7715,7648,7554,7429,7426,7366.67,7305.33,7276,7163.33,7190,7190,7247,7275,7391.33,7452.67,7576.33,7608,7733.33,7767.67,7798.67,7867,7836,7836,7870.33,7840,7870.33,7906.33,7978.33,7941.33,8008.33,8146.33,8179.67,8217.67,8325,8364,8443,8449.33,8535.67,8620.67,8680.67,8730,8781,8833.33,8887.67,8922,8917,8862.67,8810.33,8746,8735,8773,8765.67,8760.67,8677,8634.33,8674.33,8633,8633,8553,8475,8437,8362,8212,8176,8176,8033,7965.33,7965.33,7898.67,7934.67,7901.33,7906,7842.67,7811.67,7875.67,7876,7911,7984,8061,8149,8237.67,8381.33,8432.33,8484.67,8534.33,8534.33,8590.67,8621.67,8621.67,8688.33,8720.67,8754,8753.33,8767,8803,8840,8878,8878,8917,8993,9071.33,9170.33,9247.33,9291,9417.33,9598,9598,9689.33,9730.33,9725.33,9572.67,9475.33,9331.67,9292.33,9203.33,9162,9077,8988.67,8945,8859,8856.33,8849.33,8849.33,8933.33,9061,9195.33,9343.33,9443.67,9650.67,9817.67,9993,10115.3,10179.7,10179.7,10012.7,9875.33,9707,9501.33,9389.67,9248.33,9195,9012.33,8925,0,0,0,0,0,0,0,0,0,0,0,0,0,0,0,0,0,0,0,0,910,910.333,914.333,920.667,620,0,0,1117.33,1132.67,1135.33,1134.67,1133.33,1128.67,1125.33,1120.67,1116,1110,1103.33,1095.33,1088.67,1076.67,1066,0,0,0,0,957.333,948.333,943.333,937.333,931.333,925,919.333,914,908.667,903.667,900.333,897.333,893.667,891.333,890.667,889.667,889,888,0,0,0,0,487.333,729.333,727,724,719,711.667,703.667,696,688.667,681.333,676.667,672,667.333,663,659.667,657,653.667,651.667,649.333,647,645.333,643,642.333,641,639.333,638.667,637.667,637,636.667,636.667,636.333,636.333,636.333,636.667,637,637.667,638.667,639.333,640.667,641.333,641.667,643.333,644.333,645.333,646.333,647.667,649.333,650.333,652.333,653.667,656,658.333,660.333,663,665.333,668.333,672,675.333,679.333,682.667,686.667,691,694.667,699,703.333,707.333,712,716.333,720,724.667,729,733,736.667,741,745.333,750,755.667,760.333,765.667,770.667,775.667,779.333,782.333,785.333,787.333,788.667,527.667,264.667,0,0,0,0,2003,2002,2988.67,2992.67,2987.67,2987,2977.67,2968.33,2958.67,2949,2934.67,2925.33,2916,2902.33,2897.33,2893,2884,2880,2875.33,2866,2866,2853,2835.67,2818.33,2796.67,2779.33,2767,2754.67,2742.33,2725.67,2713.67,2694,2686,2674.33,2662.67,2643.33,2625,2613.33,2602.33,2591,2573.33,2566,2555.33,2548.33
3298,5139,5197,5288,5349.33,5429,5529.67,5668.33,5721,5759.67,5779.67,5815.33,5907.67,5965.33,5965.33,5996.67,6055.67,6094.33,6133.67,6170.67,6189,6212,6191.33,6273.67,6273.67,6293,6314.33,4107,2032.33,0,0,0,0,0,0,0,0,0,0,0,0,0,0,0,0,0,0,0,0,0,0,0,0,0,0,210,420.333,630.667,631,631.667,632,633,634.333,636.333,638.333,641.333,644,648,651.333,655.333,661,667.667,674.333,223,687.333,693,698.667,703.333,706.333,709.333,713.333,718.667,485.333,731.333,739.333,499.333,505.667,513,267,268.667,271,272.333,567.333,294,578.667,297.333,589.333,594.333,598,900.333,904,907,908,909,608,0,4471,4490,6628.33,6626.33,6625.33,6601,6625.33,6601.33,6625,6628.33,6650.67,6723.67,6750.33,6798,6923.33,7002,7083.67,7166.33,7279.67,7366.67,7459.67,7519,7551.33,7583.67,7678.33,7678.33,7707,7770.67,7770.67,7770.67,7766.67,7737.33,7705,7705,7673.33,7613,7578.67,7486.33,7396.67,7337.33,7276,7218,7190,7161.33,7217.67,7217.67,7245.67,7361,7454,7545.33,7639,7733.33,7735.33,7767.67,7767.67,7802.67,7770.67,7836,7805.67,7805.67,7876,7978.33,8045.33,8077,8179.67,8291,8400,8440,8516,8600,8643.67,8738,8786,8886.33,8902.67,8957,8917,8973.33,8973.33,8953,8953,8846.33,8795.33,8783,8821,8726.67,8765.67,8720.67,8717,8674.33,8674.33,8633,8593,8514,8475,8323,8286,8248,8139,8068,7998.67,8000.33,7967,7933.67,7933.67,7874.33,7874.33,7843.33,7909,7909,7984,8021,8138,8222,8273.67,8368,8468.33,8520.67,8539,8509.67,8595.33,8595.33,8625.67,8656.67,8688.33,8720.67,8824.33,8788.33,8895.33,8859.33,8896.33,8934.33,8973.33,9049.33,9090.67,9170.33,9208.33,9336,9417.33,9554.33,9598,9636,9578.67,9673,9572.67,9526.33,9387,9336,9203.33,9162,9077,9038,9038,8907,8945,8940.67,8940.67,9024.67,9064.67,9196.67,9334.67,9480,9687,9906.33,10081.7,10159,10290,10290,10163.3,9979,9707,9598.33,9440.67,9243,9148.67,8969.67,8797,0,0,0,0,0,0,0,0,0,0,0,0,0,0,0,0,0,0,0,0,611,919.667,933.333,952,651.333,0,721,1118,1133.33,1134.67,1133.33,1131.33,1128.67,1124.67,1120.67,1116,1110,1102.67,1094,1087.33,1078,1068,697,342.667,336.667,0,320.667,956.333,950.333,943,936.667,930.333,922.667,917,911.333,906.333,901,896.667,894,891.333,890.667,890,889,0,0,0,0,0,0,725.333,723.333,720,715.333,708.333,700.333,691.667,684.333,677.667,672.667,668.667,663.667,659,655.333,652.667,650.333,647.667,645.667,643,641,640,638.667,637.667,636.333,636,635.333,634.667,634.667,634,634,634,634.333,634.667,635,635.667,636,636.667,638,638.667,639.333,640,641.667,642.667,643.667,645.333,646.333,647.667,649.667,651,653.333,655.333,658,660.333,663,665.667,669.333,672.667,677,680.333,685,689,693,697.333,701.667,706,710.333,714.667,719,722.667,727,731.333,735.333,739.333,744,748.667,754.667,759,764.667,770,775,779.333,781.667,784.333,786.667,788.333,528,528.333,264.667,0,0,1058,2003,2975,2979.33,2978.67,2978.67,2973.33,2968.67,2959,2945,2935.33,2926,2916.67,2911.67,2897.67,2893,2888.67,2888.67,2888.67,2880,2879.67,2870.67,2862,2840,2826.67,2805.33,2788,2775.33,2762.33,2750.33,2729.67,2713.33,2697.33,2686,2670.33,2654.67,2639.33,2624.33,2613.33,2598.33,2587.33,2580,2566,2559,2548.33
3338.33,3351.67,5256,5303.33,5396.33,5445.67,5561.67,5683,5721,5755.67,5815.33,5832,5888.33,5945.33,5981.33,6018.33,6073,6133.33,6151.33,6192,6233.33,6257,6254.33,6273.67,6314.33,6336,4107,4170.67,2052.67,0,0,0,0,0,0,0,0,0,0,0,0,0,0,0,0,0,0,0,0,0,0,0,0,0,0,210,420.333,630,630.667,631,631.333,632.667,633.333,634.667,636.333,638.667,642,646,649,653,659.333,442.667,672.667,450.667,685.667,691.333,697,702.667,705,707.667,710.667,715,719.667,725,490.333,494,500.667,262.667,266.333,268,270,0,0,571.667,295.333,296.667,586,591.333,596.333,897,901.667,905.667,908,909.333,606.667,0,0,2160.67,4464.33,6623.67,6623.33,6623.33,6647.67,6623.67,6625,6697.33,6697.33,6747.67,6769.33,6869,6972.67,6999.33,7080.33,7165,7279.67,7335.67,7424.67,7456.33,7515.33,7515.33,7575.67,7640.33,7640.33,7670.67,7670.67,7670.67,7635.33,7669.67,7667.67,7701,7636,7608,7515,7482.67,7393,7365,7303.67,7245.67,7189,7189,7189,7189,0,0,0,0,0,0,7701,5232,5232,5299.33,5299.33,0,0,0,0,0,0,0,8252,8362,8437,8556.33,8677,8681.67,8726.67,8870.33,8870.33,9013.67,8898.67,8970.33,8970.33,8970.33,9007.33,9007.33,8951,8844.33,8831.33,8782,8773,8726.67,8681.67,8678,8635.33,8674.33,8674.33,8633,8593,8514,8436,8360,8323,8248,8139,8033.67,8034.67,8001.33,7934.67,7934.67,7901.33,7874.33,7874.33,7881.33,7913.67,7947,8016.33,8059,8097,8176,8265.67,8395,8443,8514,8543.33,8476,8528.33,8612,8642.33,8642.33,8668,8668,8733.67,8824.33,8895.33,8990,8954,8992,9031,9107,9148.33,9266,9266,9309.67,9433.67,9463.67,9598,9636,9578.67,9574.33,9572.67,9526.33,9432,9387,9306.67,9265.33,9180.33,9141.33,9089,9045.33,8956.33,9000,8988.67,9072.67,9112.67,9291,9331.67,9475.33,9626.67,9896.33,10062,10132.7,10321.3,10321.3,10197,10030,9853.33,9642,9435,9243,9146,8968.67,8797,2932.33,0,0,0,0,0,0,0,0,0,0,0,0,0,0,0,0,0,0,0,619.667,942.333,960,981,0,0,1089.67,1119.33,1131.33,1134.67,1134,1131.33,1129.33,1124.67,1120,1114.67,1109.33,1102,1092.67,1085.33,1074.67,1065.67,1048,1027,1007,986.333,970,961.333,956,947.333,940.333,933,926.667,920,913,907.333,902.667,897.667,894.333,891.333,890.667,889.667,889.667,0,0,0,0,0,0,724,722,718.333,713.333,235.333,697.333,688.667,681.333,674.667,669.333,664.333,659.333,655.333,652,649.333,646.333,643.667,641.333,639.333,637.667,636.667,636,634.667,633.667,633.333,632.333,632.333,632,632,631.667,631.667,631.667,632.333,632.667,633,633.667,634.333,635.333,636.333,636.667,638,638.667,640.333,640.667,642.333,643.333,645.667,647,648.667,650.333,652.333,654.667,657.667,660.333,663.333,666.667,670.667,674.333,678.333,682.333,687,691.333,695.667,700.333,704.333,709,713,717.333,721.667,726,729.667,733.667,738,742.667,747,752.333,758,763.333,768.667,773.667,778.667,781,783.667,786,787.667,527.333,528,264.333,0,0,1058,1998.67,2971.67,2966,2960.67,2960.33,2959.67,2950.67,2941,2931.33,2917.67,2912.67,2903.33,2894,2889,2889,2888.67,2884,2888.67,2880,2884,2879.67,2866.67,2853.67,2835.67,2818.33,2805,2792.33,2779.33,2754,2737.67,2717.33,2701.33,2685.67,2670.33,2658.33,2639.33,2628,2613,2602,2591,2583.67,2573,2569.33,2559
0,3394,5301.67,5377.33,5426.67,5509,5576.33,5698.33,5751.67,5771,5791,5867,5904.33,5961.33,5998,6035,6073,6111.67,6151,6191.33,6233.33,6233.33,6254.33,6295,6336,6356,4127,4170.67,0,0,0,0,0,0,0,0,0,0,0,0,0,0,0,0,0,0,0,0,0,0,0,0,0,0,0,209.667,630.333,630.333,630,630.333,630.667,631.333,632,633,635,637,640.333,644,647.667,651,656.667,663,445.333,449.667,683.667,690,695.667,700.667,704.333,707,710.333,713.333,717.667,722.333,487.333,491.333,257.667,261.667,265.667,267.667,269.333,270.333,273,569.667,573.667,295.333,583.333,588.667,593.667,893.333,898.667,903.667,907.333,909,909.667,304,0,0,2183.67,2207.33,6670.67,6646.33,6670.67,6718.67,6718.67,6718.67,6818.33,6818.33,6894.67,6974,7002,7082.67,7165,7223,7280.67,7336.33,7365,7424.67,7454,7454,7513,7544,7541.67,7573.33,7603.67,7603.67,7572,7572,7572,7572,7572.67,7541,7512,7451,7390.67,7362,7302.33,7273.67,7217,7189,4802,2415,0,0,0,0,0,0,0,5197.67,5232,5232,5232,0,1376.67,1379,1379,1378,1374.67,0,8402,8477,8595.33,8717,8847,8845.67,8940,8989.33,9052.67,9067,9067,9067,9084.33,9045.33,9045.33,9045.33,8989,8844.33,8793.33,8782,8726.67,8765.67,8720.67,8677,8674.33,8674.33,8633,8633,8593,8514,8437,8399,8362,8212,8176,8104,8033.67,8000.33,8001.33,8006,7971.67,7906,7944,7912.33,7944.67,7947,8020.33,8091.33,8166.33,8205.33,8286.67,8382.67,8474,8474,8522,8502,8502,8582.33,8543.33,8626,8619,8650.67,8770.67,8805,8859.33,8953,8954,9050,9127,9127,9245.33,9245.33,9326,9348.67,9433.67,9463.67,9598,9541.67,9532.33,9526.33,9523.33,9475.33,9480,9387,9395.67,9407.33,9366,9326,9225.33,9141.33,9141.33,9134,9173,9173,9259.33,9391.33,9429,9572.67,9724,9887,10051.3,10173.7,10361,10361,10188.7,10070,9847.33,9636,9435,9196.67,9103.67,8883.33,8714.33,2932.33,0,0,0,0,0,0,0,0,0,0,0,0,0,0,0,0,0,0,0,633.667,965,991,672.333,0,361.333,1100,1121.33,1131.33,1134.67,1132.67,1131.33,1129.33,1123.33,1119.33,1114.67,1108.67,1101.33,1092,1084,1073.33,1062.33,1045,341.667,1005.67,330,972,964.333,958.333,950.333,943,935.333,927.667,921,915.667,908.667,903,898.333,894.667,892,891.333,890.333,890,889.333,0,0,0,0,0,723.333,720,718,711,235,695,686.667,451.667,671.333,666,660.667,656.333,652,648.333,645.667,643.333,640.667,638.667,636.667,635.333,634,633.333,632,631,630.667,630,629.667,629.667,629.333,629.333,629,629.333,629.333,630,630.667,631,632,632.667,633,634.333,635,636.667,637.667,638.667,639.667,641.333,643,644.333,646,648.333,650,652,654.667,657.667,660.333,664,667.667,672.333,675.667,680.333,685,689.333,694,698.667,703.667,708,712.333,716.333,720.333,725,729,732.667,736.333,741.333,745.667,751.333,756.333,762,767.667,772.667,777.667,780,782.667,784.667,786.333,526.333,527,264,0,0,1058,1052.67,1052.67,2957,2957,2951.33,2941.67,2932.33,2928,2909,2909,2899.67,2890.33,2885.33,2880.33,2884,2888.67,2888.33,2888.33,2883.67,2879.33,2879.67,2870.67,2857.33,2844.67,2826.67,2814,2792.33,2779.33,2762.33,2741.33,2729.33,2705.33,2689.33,2673.67,2662,2647,2628,2616.67,2605.33,2601.67,2587.33,2580,2573,2566
0,1682.67,5347.33,5409.33,5474.33,5541,5609.33,5713.67,5786.67,5806.67,5806.67,5843,5879.67,5920.33,5956.33,6013.33,6051.33,6090,6129.33,6169.67,6210.33,6212,6230.67,6250,6314.33,6314.33,4147.33,4169,0,0,0,0,0,0,0,0,0,0,0,0,0,0,0,0,0,0,0,0,0,0,0,0,0,0,0,209.667,630,630,629.333,629.333,629.667,630.333,631.333,632.333,633.667,635.667,638,641.333,645,648.333,654.667,660.667,667,448,681.333,687.667,693.667,699.667,702.667,706,708,711,714,717.667,721.667,491,496,260.667,265,0,268.667,269.667,272,565,568.667,574,579.333,585.333,882,889.333,895.667,902,906,908,909.667,910.333,304,305,0,2207.33,2231.33,4512,6769.33,6769.33,6819.67,6846.33,6951.33,6951.33,7005,7060,7116.67,7147.67,7200,7254,7313.67,7396.67,7396.67,7454,7484.33,7482.67,7481.33,7510.67,7510.67,7510.67,7510.67,7510,7479.67,7510,7510,7510,7541,7510.67,7480.33,7451,7361,7331.67,7273.67,4830,4830,2415,0,0,0,0,0,0,0,0,0,5197.67,5197.67,5197.67,0,1374.67,1375.67,1375.67,1374.67,1374.67,1373.67,457.333,8477,8635.33,8762,8888.33,8973.33,9067.67,9114.67,9165.67,9272.33,9188.33,9147,9107,9123.33,9123.33,9067,8989,8973.67,8882.33,8870.33,8773,8765.67,8720.67,8677,8634.33,8714.33,8673,8633,8633,8594,8554,8477,8439,8325,8289,8214,8141,8141,8069.67,8069.67,8036.33,7971.67,7940,7906.67,7976.33,7944,8015.33,8017,8091.33,8095.33,8209.67,8286.67,8368,8410.67,8424,8469,8469,8474,8522,8522,8512.33,8553.67,8636.33,8721,8716.33,8896.33,8895.33,8954,9028,9127,9167,9245.33,9245.33,9326,9348.67,9433.67,9463.67,9541.67,9541.67,9484.33,9574.33,9523.33,9623.67,9532.33,9487.33,9493.67,9463.67,9463.67,9422.33,9422.33,9319.67,9319.67,9319.67,9366,9311.67,9401,9443.67,9581.67,9575.67,9827.33,9934,10100.3,10162.3,10341.3,10464.3,10234.7,10067,9844.33,9633,9432,9240.33,9060,8883.33,8633,5823.33,5782,0,0,0,0,0,0,0,0,0,0,0,0,0,0,0,0,0,0,327.333,1007.33,1025.33,347.333,0,1083.33,1107.33,1124.67,1134,1134.67,1133.33,1131.33,1128,1123.33,1118.67,1114.67,1108,1100,1090.67,1082,1070.33,1058.33,347.333,680.667,1004.33,986.667,974,966.667,960.333,952.333,944,936.667,930.667,924,916.667,910.667,904.333,899,895,892.333,891.667,890.667,297,0,0,0,0,0,241,722.667,719.667,715.333,709.667,468,692.333,682.667,674,444.667,662,657,652.333,648,644.667,642,640,638,635.333,633.333,632.333,631.333,630.667,629.667,629,628.667,628,627.667,627.667,627.333,627,627,627,627,627,628,628.667,628.667,630,630.667,631,632,633.333,634.667,635.667,637,638.667,639.667,641.333,643.333,645,647.333,649.333,651.667,655,658.333,661,665,669.333,673.667,677.667,682.667,688,692,696.667,702,707,711.667,715.333,720,723.333,727,731.333,735.333,739.667,744.333,749.333,755.333,760.333,766,771,775.333,779,781.667,783.333,784.667,526,527,527.667,0,0,0,1052.67,1989,1047.33,2929.67,2929.67,2920,2915,2905.33,2900.33,2891,2886,2876.67,2876,2876,2879.67,2879.33,2883.67,2883.33,2879,2879,2875,2861.33,2853,2844.33,2831.67,2814,2801.33,2788,2770.67,2749.67,2733,2717,2697.33,2681.33,2662,2650.33,2639.33,2624,2612.67,2609,2598,2587.33,2576.67,2569.33
0,0,3591,5472.33,5541.33,5573.33,5624.67,5695.33,5748.67,5784,5788,5804,5859,5896.33,5969,5989,6026.67,6065,6104.67,6126.33,6188,6207.67,6230.67,6227,6267.67,6266.33,6309.67,0,0,0,0,0,0,0,0,0,0,0,0,0,0,0,0,0,0,0,0,0,0,0,0,0,0,0,0,420,629.667,629.667,628.667,628.667,629,629.667,630.333,631.667,633,634.333,637,640,643,647,652.333,658,664.333,222,679,685,691.667,697.667,701.333,704.667,707.333,709.667,713,715.667,247.667,490,0,0,0,0,268,269,557.667,562,565,850,859,867.667,876.667,885.333,892.667,900.333,905.333,908,909.667,910.333,304,305,0,0,0,2231.33,2231.33,4699.33,6960,6990.33,7045.67,7102.33,7160.33,7186.67,7246.67,7274.33,7274.33,7299.33,7381.67,7377.67,7492,7492,7459.67,7456.33,7459.67,7455.67,7483.67,7483.67,7421.67,7421.67,7391.33,7420,7449.33,7479.67,7510,7510.67,7451,4916.67,2415,2415,0,0,0,0,0,0,0,0,0,0,0,0,0,0,0,0,0,1373.67,1372.67,1373.67,1373.67,1373.67,1372.33,1371.33,0,5826,8979.67,9018.33,9106,9154,9252,9304.33,9315,9229.67,9188.33,9188.33,9148.33,9068,9013.67,9013.67,8921.33,8783,8861,8766.67,8721.67,8760.67,8674.33,8674.33,8714.33,8674.33,8674.33,8635.33,8635.33,8557.33,8518.33,8443.33,8365,8329,8253,8218,8179,8144.67,8073.33,8109.33,8004,8009.33,8012.33,8017,8017,8023.67,8055.33,8055.33,8130,8164.33,8278,8283.33,8404,8369.33,8339,8423,8424,8424,8469,8418,8495.33,8536,8585.33,8664,8785.67,8839,8839,8932.33,9067,9107,9148.33,9228,9208.33,9291,9319.67,9407.33,9439.33,9435,9381,9475.33,9474,9575.67,9581.67,9532.33,9598,9554.33,9554.33,9569.33,9569.33,9521.33,9521.33,9470.33,9511.67,9561,9561,9547.33,9687,9733.33,9830.67,9986.33,10097,10269,10452,10518.7,10287,10118,9893.67,9681,9381,9192.33,9057.33,8883.33,8674.33,8673,5782,0,0,0,0,0,0,0,0,0,0,0,0,0,0,0,0,0,0,337.667,1040.33,0,0,364,1097.33,1115.33,1127.33,1134,1135.33,1134,1132,1128,1122.67,1118.67,1114,1107.33,1100,1090,1080,1068,1055.33,1041,681,1005,988.333,975.667,968,960.667,952.667,944.333,937.667,930.667,924,917,911.333,904.667,900,895,893.667,892.333,891,296.333,0,0,0,0,0,0,721.667,718.667,712.333,705.333,464.667,686.667,452,669,662,658,652.667,648,644.333,641.333,638.667,636.667,635.333,632.667,631,629.333,628.333,627.667,627.333,626.333,625.667,625.667,625.667,625.333,625.333,625,625,624.667,624.667,625,625,625.667,626.667,626.667,627.667,628,629,630.667,631.667,633,634,635.333,636.667,638.333,640,642,643.667,645.667,648.333,651.333,654.333,658,662,666.667,670.667,675,680,686,690.333,695.667,700.333,706,710.667,714.333,718.667,722.333,725.667,729.667,734.333,738,743.333,748.333,753.333,758.667,764,769.667,773.667,777.667,779.667,782,783.667,785,786,787.333,0,0,0,1052.67,1989,2916.67,2916.67,2907,2902,2896.67,2887.33,2883,2878,2868.67,2863.67,2863,2866.67,2870.67,2870.33,2874.33,2874.33,2874.67,2874.33,2870.33,2857,2848.33,2840,2827.33,2809.67,2801.33,2788,2770.67,2749.67,2733.33,2717,2701,2681.33,2669.67,2654.33,2646.67,2628,2620.33,2609,2601.67,2594.33,2583.67,2576.67
0,0,3750,5556,5573.33,5621.67,5658.33,5711,5780.67,5780.67,5800,5800,5853.33,5909.67,5946.33,5965.67,6021.67,6062.67,6101.67,6141.67,6163.33,6185.33,6184,6203.33,6224,6266.33,6264.33,4126,0,0,0,0,0,0,0,0,0,0,0,0,0,0,0,0,0,0,0,0,0,0,0,0,0,0,0,209.333,420,628.667,628,628,628.333,628.667,629.667,630.667,632,633.333,635.667,638.667,642,645.333,651,656,662,445.667,675.333,682,688.333,694,699,702.667,706,708,710.667,475.333,0,0,0,0,248,0,267.333,268.333,552,831.333,558.667,842.667,851.667,860,581,296.667,888,898,903.667,908.333,910,911,913,304.667,0,0,0,0,2255.67,2255.67,2255.67,4921.67,4992.67,7362.33,7327.67,7355.33,7383.33,7412,7400.33,7429.67,7456,7481,7478.33,7439,7470.67,7433,7464.67,7433,7433,7459.67,7397,7366.67,7340,7366.67,7394.33,7391.33,7481.33,2503.33,2503.33,0,0,0,0,0,0,0,0,0,0,476.333,474,470.667,0,465.333,0,459.333,1371.67,1372.67,1372.67,1371.67,1373.67,1373.67,1373.67,1372.33,1372.33,1370.33,1369.33,1369.33,1369.33,0,0,0,9340.67,9348,9358.67,9272.33,9231,9136.67,9097.67,9097.67,9002.67,8951.67,8902.33,8813,8816.33,8763,8719.33,8676.67,8715.67,8674.33,8677,8717,8717,8678,8678,8600,8600,8567.67,8524,8413,8294,8294,8219.67,8186.33,8147.33,8152,8083.33,8016.33,8025,8065,8060.33,8101.67,8141,8139.33,8171.67,8293.67,8328,8363,8372,8410,8334,8329.33,8369.33,8410.67,8410.67,8413,8444,8449,8520.33,8601.67,8647.33,8732.33,8732.33,8876,8953,8993,9034.33,9152,9152,9225.33,9265.33,9300.67,9292.33,9336,9334.67,9378,9475.33,9575.67,9581.67,9636,9541.67,9647.33,9661.33,9661.33,9618.67,9618.67,9618.67,9661.33,9712.33,9669.67,9712.33,9654.67,9795.67,9842,9939.33,9986.33,10151.3,10325.3,10387.7,10452,10341.3,10055.7,9836,9578.67,9381,9101,8969.67,8798.33,8593,8553,2851,0,0,0,0,0,0,0,0,0,0,0,0,0,0,0,0,0,0,702,1073,726,366.667,1098.67,1111.33,1125.33,1133.33,1138,1136,1134.67,1132,1127.33,1123.33,1118.67,1112.67,1106.67,1098,1089.33,1079.33,1066.67,1052.67,1037.67,1020,1004.33,988,651,968.667,960.333,952.667,944,937.333,930.667,924,917,910.667,904.667,900,895,893.667,891.667,891.333,593.333,0,0,0,0,0,0,239.667,718.333,710.667,701.333,692,681.667,224.667,664,657.667,653.333,649,644,640.667,638,635.667,633.667,631.667,629.667,627.667,626.333,625.333,624.667,624.333,624,623.667,623,623,622.667,622,621.667,622,622,622.333,622.667,623,623.333,623.667,623.667,624.667,625.333,626.333,627.667,628.667,630,631,632.667,634,636,637.667,639.333,641,643,645.333,648.333,651.333,654.333,658.333,662.667,667,671.667,677.333,682.667,688,693,699,703.667,708.333,713,717.667,721,724.667,728.667,732.667,737,741.667,746.333,751.333,756.667,761.667,767.333,771.667,775.333,778.333,780.333,782.667,784,785,786,262.667,0,0,0,0,928.667,2890,2885,2879.67,2874.67,2869.67,2869.67,2864.67,2859.67,2863.67,2858.67,2862.33,2857.33,2866,2865.33,2865.33,2861.33,2865.67,2857,2857,2848.33,2835.67,2827.33,2814.33,2801,2788,2767,2754,2733.33,2717,2697.33,2685.67,2666,2654.33,2646.67,2631.67,2624.33,2616.67,2605.33,2594.33,2587.33,2580
0,0,3801.67,5621.67,5655.67,5674,5674,5724.33,5759.67,5779,5798.33,5798.33,5870.67,5905.67,5943.67,6001.67,6040,6040,6060.33,6099.67,6140.33,6140.33,6140.33,6181.33,6159.67,6200.33,6221.67,4147.33,2116.33,2073.33,0,0,0,0,0,0,0,0,0,0,0,0,0,0,0,0,0,0,0,0,0,0,0,0,0,0,210.333,419,628,628,628,628,629,629.667,631.333,633,634.667,637.333,641,644,648.667,653.333,659.333,666,672.333,678.333,685,691,696,700.333,704,706.667,709,711.667,0,240.333,475.333,243.667,248.667,0,267.333,543,817.333,824.333,829.333,553.667,844.333,852.333,575,293.333,883,895.667,903.333,908.333,911.667,912.333,913.667,611.333,304.667,0,0,0,0,2255.67,2255.67,5067.67,7413,7441.67,7469.33,7497.33,7487,7492.33,7484.67,7447.67,7466.67,7498.33,7487.67,7478.33,7503,7503,7438.33,7438.33,7439,7439,7375.67,7350,7319.67,7313.67,7282.67,7335.67,4921.33,0,0,0,0,0,0,0,0,0,0,478.333,476.333,474,472,469.667,0,0,1376,1372.67,1370.67,1371.67,1371.67,1371.33,1372.67,1372.33,1372.33,1371.33,1370.33,1370.33,1368.33,1368.33,1368.33,1368.33,906,0,0,9295.67,9297,9220.33,9128,9045.33,9089,9038,8988.67,8945,8897,8850.67,8805.67,8724,8719.33,8678,8717,8677,8721.67,8760.67,8721.67,8683.67,8683.67,8691.67,8691.67,8606.67,8570.67,8458.67,8415,8343.67,8347.33,8342.67,8310.33,8197.33,8205.33,8146.67,8108.67,8192.67,8199.33,8163.33,8237.67,8233,8264,8374.33,8373.33,8407.67,8409.33,8413,8450,8372,8334,8404,8400.33,8399,8441.67,8432,8468,8507.33,8585,8632,8632,8769.33,8846.33,8927.67,9007.33,9045.33,9128,9077,9203.33,9203.33,9286.67,9286.67,9331.67,9330,9426,9524.67,9529.33,9581.67,9536.67,9647.33,9603.67,9654.67,9669.67,9712.33,9712.33,9712.33,9764.67,9764.67,9707,9707,9850,9944.33,9937.33,10040.7,10095,10265.3,10387.7,10452,10170.3,10004.7,9786.67,9478.33,9240.33,9013.67,8839.67,8633,8398,8436,0,0,0,0,0,0,0,0,0,0,0,0,0,0,0,0,0,0,0,1090.67,1108.67,1113.33,1112.67,1116.67,1124.67,1133.33,1137.33,1138.67,1138,1135.33,1131.33,1127.33,1123.33,1117.33,1112.67,1106,1098,1088.67,1079.33,1066.33,1052.67,1037,1019.67,1003.67,988.333,650.333,967,959.667,951,943,935.667,930,923,916.667,910,904.333,900.333,895.333,892.667,891,890.333,593.333,0,0,0,0,0,0,0,239.667,707.667,697.333,457.333,450,444.667,439.333,653.333,649.333,644.667,640.333,637.333,634.333,632.333,630,628.667,626.667,625,623.667,622.667,622,621.333,620.667,620.667,620.667,620.333,620.333,620,619.667,620,619.667,619.667,619.667,620.333,620.333,620.667,621.667,622,623,623.667,624.333,625.667,627,628,629.333,631,632.667,634.333,636.333,638.333,639.667,642,645,648,651.333,655.333,659,663.667,668.333,673.667,679.333,685.333,690.667,696,702.333,707.333,712,716,719.667,723.667,726.667,731.333,736,739.667,744.667,749.333,755.333,759.667,765,770,773.333,776.667,779.333,780.667,782.333,783.667,784.667,262,0,0,0,0,0,916.333,1942.67,2862,1936.67,2852,2852,2847,2846.33,2841.33,2845.67,2844.67,2844,2852.67,2856.67,2848,2852.33,2848,2844,2844,2840,2827.33,2818.67,2809.67,2797,2788,2771,2750,2737.67,2717,2697.33,2689.67,2674,2662.33,2646.67,2643,2631.67,2624.33,2613,2605.33,2594.33,2580.33
0,0,3819,3873.33,5690,5741,5741,5759.33,5759.67,5795.67,5795.67,5813,5832.33,5905.67,5942.67,5962,5999.67,5999.67,6019.67,6079,6099.67,6079.33,6079.33,6098.67,6118,6118,6179.67,6159.33,6158.33,4085,0,0,0,0,0,0,0,0,0,0,0,0,0,0,0,0,0,0,0,0,0,0,0,0,0,0,0,208.667,418.667,627.333,628,627.667,628.333,629,630.667,632,633.667,636.333,639.667,642.667,647,651.667,657,662,668.667,674.333,680,686.333,691.667,696,699.667,702.667,705,467.667,230,471,476,0,248.333,0,532.333,537.667,811.333,818.667,822.667,830,837.667,563.667,571.667,578.667,297,891.667,901.667,908,912.333,914.333,915.667,917.667,0,0,0,0,0,0,2280.67,5146.67,7547.33,7603,7595.33,7625.67,7585.67,7592.67,7585.33,7547.33,7542.67,7540,7553.33,7553.33,7544,7510.67,7510.67,7478.33,7478.33,7413.33,7350,7294.67,7263,7263,4699.33,0,0,0,0,0,0,0,0,0,0,0,0,476.333,473,472,469.667,467.667,925.667,1379,1375,1372.67,1369.33,1370.33,1370.33,1370.33,1368.33,1369.33,1369.33,1368.33,1366.33,1366.33,1366.33,1366.33,1367.33,1367.33,1366.33,1366.33,0,0,9122,9083,8988.67,8950.67,8950.67,8902.67,8856.33,8856.33,8811.33,8767.67,8805.67,8763,8721.67,8720.67,8720.67,8720.67,8681.67,8721.67,8721.67,8683.67,8770,8733,8733,8655.67,8655.67,8575.67,8541.33,8549.33,8549.33,8516,8528,8499.33,8444.67,8424,8348,8385,8347,8310,8352,8352,8381.33,8442.67,8525.33,8522.67,8470.67,8505,8506.67,8493.33,8413,8403.67,8365,8321.33,8349.33,8380.33,8424.33,8457.67,8493.67,8574.67,8537.67,8707,8746,8864.33,8945,8945,9027.67,9027.67,9154,9195,9195,9238.67,9237.33,9283.67,9378,9429,9480,9529.33,9536.67,9642,9642,9650.67,9654.67,9654.67,9654.67,9750.67,9750.67,9805,9805,9805,9896.33,9944.33,9937.33,10040.7,10151.3,10154.7,10271,10397.7,10170.3,9895.33,9633,9387,9103.67,8883.33,8673,8475,8285,8211,8248,2737,0,0,0,0,0,0,0,0,0,0,0,0,0,0,0,0,0,1127.33,1128.67,1130.67,1130,1130,1134.67,1141,1142,1140,1138,1134.67,1130.67,1126.67,1121.33,1116.67,1110.67,1104,1096.67,1087.33,1076,1063,1049.67,1035,1018.67,1003,988.333,650,966.667,958.667,950.333,941.667,934.667,928.333,921.667,915,909.333,904.333,899,895,892.667,891,890.333,296.333,0,0,0,0,0,0,0,0,707.667,693.333,0,0,440.333,218,648.667,644.667,640.333,637,634,632,629.333,627.667,626,624,622.667,621.333,620.333,619.333,619,619,618.333,617.667,617.667,617.333,616.667,616.667,616.667,616.667,617,617,617.333,617.667,618,618.667,619.333,620,620.667,622,623,624.333,625.667,627,628.333,629.667,631.667,633.667,635,636.667,639.333,641.667,645,648,652,656.333,660.333,665,670.667,676.333,682,688.333,694.667,700,705.333,709.667,714.333,718.667,722,725,730,734.333,738.333,742.667,747.333,752.333,757.667,763,767.333,771.333,774.333,777,778.667,780.667,781.667,783.333,783.667,262.333,0,0,0,0,0,1932.67,1932.67,2835,2835,2834,2833.33,2833.33,2832.67,2832,2827,2830.67,2835.33,2839.67,2839.33,2835,2835.33,2835.33,2831,2827,2823,2810,2801.33,2793,2779.67,2767,2750,2741.67,2725.33,2705.33,2693.67,2682,2666.33,2662.67,2651,2643,2628,2620.67,2605.67,2594.67,2584
0,0,1936.67,3873.33,5741,5741,5741,5741,5778,5758,5758,5777.33,5830.33,5868,5885.67,5922.67,5942,5942,5999.67,6019.67,6019.67,6019.67,6001.33,6020,6058.67,6058.67,6058.67,6078,6078,1993,1993,0,0,0,0,0,0,0,0,0,0,0,0,0,0,0,0,0,0,0,0,0,0,0,0,0,0,210.333,418,418,417.667,627.333,627.667,628.667,629.667,630.667,632.667,635,637.667,641,645.333,650,654,659.667,665.333,446.667,450,454,457,460.333,462.667,464,465.667,466.667,469,470.667,476.333,243.333,247.667,0,263.333,266.667,538,543,547.333,553.333,833,840.667,573,580.333,583.667,303.333,603.667,609,305,916.667,917.667,919.667,0,0,0,0,0,0,0,2280.67,5255.67,7759,7722.33,7712.67,7720.67,7680.67,7675,7579.67,7634.33,7598.33,7622.67,7612.67,7578.33,7578.33,7604,7510.67,7487.67,7445,7413.33,7325,7300.67,4704.33,2231.33,0,0,0,0,0,0,0,0,0,0,0,475,474,472,939.333,935.333,1387.33,1383,1376.67,1372.67,1368.33,1366.33,1366.33,1365.33,1366.33,1366.33,1363.33,1364.33,1364.33,1365.33,1365.33,1363.33,1365.33,1366.33,1367.33,1367.33,1368.33,1370.33,0,8994,8994,8901.33,8864.33,8864.33,8819.33,8775.67,8859,8812.67,8770,8728.67,8773,8726.67,8687.67,8726.67,8726.67,8688.67,8688.67,8688.67,8688.67,8738,8738,8662,8662,8662,8580.67,8632.67,8683.33,8727,8661.67,8725,8699,8700.67,8684.33,8656.67,8615.33,8575.33,8536.33,8564,8592,8582.67,8642.33,8673.33,8700.33,8700.33,8677.67,8590.33,8540,8526.67,8482.33,8391,8429,8342.67,8413.67,8408,8449.33,8450,8529.67,8566.67,8688.67,8688.67,8808,8850.67,8940.67,8979.67,9018.33,9059.67,9102.33,9192.33,9237.33,9191,9237.33,9283.67,9379.67,9379.67,9433.33,9433.33,9535.33,9535.33,9640,9596.33,9694.33,9748.67,9748.67,9805,9805,9850,9850,9896.33,9993.67,10044.7,10097,10097,10271,10281,10345.3,10057,9844.33,9538.67,9246,8971,8714.33,8553,8360,8103,8103,8068,8033,0,0,0,0,0,0,0,0,0,0,0,0,0,0,0,0,0,1146.67,1146.67,1146,1144,1141.33,1143.67,1147,1144.33,1141,1137.33,1134.67,1130.67,1126,1120.67,1115.33,1109.33,1102.67,1094.67,1085.33,1074.33,1061.33,1047.33,1033,1015.67,1001,986,649.667,964,955.667,947.333,938.667,932.333,927,920.333,913.667,908,903,898,893.667,891,888.667,0,884,0,0,0,0,0,0,0,0,0,0,0,0,656,649.333,643.667,640,636.333,634,630.667,628.333,626.333,624.667,623,621.667,620,619,618,617,616.667,616,615.333,615,614.667,614.333,614,614,613.667,613.667,614,614,614.667,614.667,615,616,617,617.333,619,619.667,620.333,622,623,624.667,625.667,627.667,629.333,630.667,632.667,634.333,636.333,639.333,641.667,645.333,649,653,656.667,661.667,667.333,672.667,452.333,685,691.667,697.667,703,707.667,712.667,716,719.333,723.667,727.667,732,736.333,740.667,745.333,750,755.667,760.333,764.667,768.333,771.667,774.667,777,779,520.333,521.333,0,0,0,0,0,0,0,0,920.333,1824.67,2817,2816.33,2816.67,2811,2810.33,1833,1837,2818.33,2818,2817.67,2817.67,2826.33,2821.67,2818,2818,2809.67,2805.67,2801.33,2792.67,2792.67,2775.33,2762.67,2750,2738,2721.67,2713.33,2701.33,2689.67,2678,2674,2655,2651,2635.67,2628,2613.67,2602,2584
0,0,3873.33,3891.67,5741,5741,5741,5741,5759.67,5776.33,5758,5776.33,5813,5849.67,5849.67,5866.33,5904.33,5904.33,5923.67,5981.33,6001.33,5981.33,5963,5983,6021.67,6021.67,6040,6040,6040,4006,1973.67,0,0,0,0,0,0,0,0,0,0,0,0,0,0,0,0,0,0,0,0,0,0,0,0,0,0,0,417.333,417,626.667,626.667,627,627.333,628.333,629.667,631,633.667,636.667,639.667,643.667,648,652.333,657.333,663,668,448.667,451.333,454.667,457.667,460,462,463.667,464.333,467.333,469.667,240.667,243.667,0,0,260.333,530.333,534,539,541,552,829,549.667,574.667,583,300.667,304,606,305.333,306.333,919.333,921,921.667,0,0,0,0,2975,5307.67,5281.33,5281.33,5281.33,5255.67,7854,7811.33,7803.33,7738.33,7675,7637,7693.67,7693.67,7647.67,7612.67,7638.33,7638.33,7604,7578.33,7545,7452.33,7420,7363.33,7331.67,2207.33,0,0,0,0,0,0,0,0,0,0,0,474,951.333,948.333,942.667,937.333,1390.33,1386,1382,1376.67,1371.67,1367,1364,1364,1362,1363.33,1363.33,1362.33,1362.33,1362.33,1361.33,1362.33,1362.33,1365.33,1365.33,1367.33,1369.33,1370.33,1373.33,462.333,0,8907,8907,8859,8907,8907,8907,8864.33,8813,8813,8773,8773,8773,8773,8726.67,8688.67,8688.67,8688.67,8651.67,8651.67,8651.67,8615.67,8662,8623,8588,8627,8592.67,8731.33,8742.67,8756,8868.67,8841.33,8789.33,8799.33,8830.33,8786.67,8786.67,8770.67,8729.33,8757,8785,8785.33,8864.33,8857,8831.67,8770.67,8661.33,8609.33,8561,8513,8432.33,8424.33,8453,8410.33,8408,8443,8481.33,8518.33,8561,8681.67,8721.67,8763,8844.67,8933.33,8973.33,9059.67,9102.33,9192.33,9192.33,9237.33,9146,9192.33,9238.67,9286.67,9334.67,9384,9435,9536.67,9536.67,9591,9598.33,9598.33,9698.33,9743.33,9795.67,9853.33,9853.33,9899.67,9947.67,9990.33,9990.33,10044.7,10044.7,10218.7,10281,10173.7,9955.33,9643,9439.33,9151.67,8798.33,8554,8322,8139,7929.33,7861.67,7796,2566,0,0,0,0,0,0,0,0,0,0,0,0,0,0,0,0,1166.67,1158.33,1157,1154.67,1150.33,1147,1147.67,1146.33,1144.33,1142,1138,1134.67,1130.67,1126,1119.33,1113.33,1108.67,1101.33,1092.67,1084.67,1073,1058,1045.67,1030.67,1013.67,999,985.667,972.667,962.333,953,944.333,935.667,930.333,924,918.333,912.333,906.333,902,896.333,891.333,592,0,0,0,0,0,0,0,0,0,0,0,227,0,220,0,432,643.333,639,636.333,633,630.667,627.667,625.333,623.333,622,620.333,619,617.333,616.333,615.333,614,613.667,613.333,613,612.333,612,611.667,610.667,610.667,611,610.667,611,611.333,611,612,612.333,613,614.333,615,616,617,618,619.667,620.667,622,623.667,625.333,627,628.333,630.333,632.333,634.667,636.333,639.333,642.667,646.667,650.333,653.667,658.667,663.667,669.333,675.333,681.667,688.333,694.667,700,705.667,709.667,713.667,717.667,721,725.667,730.667,734.333,738,743.333,747.333,753,758,762,766,769.667,772.667,516.333,517.667,518.667,260.667,0,0,0,0,0,0,0,0,924.667,1816.67,2798.33,2798.33,2798.33,2793.33,2797.33,1829,1833.33,2801,2801,2801,2800.33,2804.67,2813.33,2809.33,2801,2801,2801,2792.67,2792.67,2780,2771.33,2763.33,2754.33,2745.67,2733.33,2717.33,2705,2697.33,2689.67,2682,2670.33,2662.67,2647.33,2632.33,2621,2602,2587.33
0,0,3873.33,3891.67,5741,5741,5759.67,5759.67,5759.67,5759.67,5743,5759.67,5795.67,5813,5848.67,5831.33,5848.67,5886.67,5886.67,5943.67,5963,5945.33,5908,5948,5965.33,5965.33,5965.33,5985.67,5965.33,1900.67,0,0,0,0,0,0,0,0,0,0,0,0,0,0,0,0,0,0,0,0,0,0,0,0,0,0,0,0,0,0,0,0,208.667,626.667,628,628.667,630,632,635.333,638,641.667,646.333,650.333,655,659.667,664.667,668.667,449.333,452.333,455.333,457.667,460,461.667,463.333,466.333,469.667,241.333,0,247.667,253,517.667,527.333,531.667,535,537.667,540.667,826.667,835.667,577.667,585,302,601.667,306.333,613.333,617,618.333,923.333,924.667,925.333,0,0,2932.33,5291.67,5291.67,5334.33,5334.33,5307.67,5307.67,5307.67,7837,7795.67,7829,7724.33,7686.33,7709.33,7709.33,7699.67,7699.67,7699.67,7657,7664.67,7664.67,7604,7536.33,7510.67,7420,4797.33,0,0,0,0,0,0,0,0,0,0,0,0,469.667,947,945,940.667,1393.67,1389.33,1385,1381,1375,1369.33,1365,1363,1362,1361,1361,1361.33,1360.33,1361.33,1361.33,1360.33,1361.33,1363.33,1364.33,1368.33,1369.33,1372.33,1374.33,1377,921.667,0,9002.67,9002.67,9002.67,9002.67,9002.67,9002.67,8961.33,8949.33,8860,8860,8813,8813,8766.67,8728.67,8688.67,8606.67,8606.67,8606.67,8606.67,8651.67,8615.67,8615.67,8576.67,8623,8627,8632.67,8731.33,8837,8899.67,8969,9052.33,9112,9135,9175,9197.67,9197.67,9152.67,9179.33,9094.33,9055.67,9049.33,9017.33,8996,8968.33,8904,8750.67,8733.33,8596,8548,8501.67,8503.67,8450,8488,8479,8479,8516,8595.33,8595.33,8677,8717,8798.33,8841,8926,8968.67,8968.67,9057.33,9102.33,9102.33,9102.33,9148.67,9148.67,9195,9243,9292.33,9343.33,9343.33,9395.67,9450,9554.33,9612,9612,9655.67,9715.67,9810,9918.67,9856.33,9904.33,9953.67,9997,10051.3,10107.7,10165.3,10225.3,10180.7,10180.7,9959.67,9591,9343.33,8976,8635.33,8360,8104,7895,7666.33,7603.67,7572.67,7480.33,5007.33,0,0,0,0,0,0,0,0,0,0,0,0,0,0,1176,1174.33,1169.33,1164.67,1160.67,1157.67,1153,1151.67,1148.33,1145,1142,1137.33,1133.33,1129.33,1124,1118.67,1112.67,1106,1100,1090.67,1082.67,1071,1056.67,1044.67,1028.67,675.333,999.333,985.667,972.667,960.667,951.333,943,934.667,927.667,921.333,915.667,910,904.667,900,894.333,889,884.333,0,0,0,0,0,0,0,0,0,0,0,221.667,0,0,0,427.333,637,634.333,632,630.333,627,625,622.667,621,619.667,617.667,616.333,614.667,613.667,613,611.333,611,610.667,610.333,609.333,609,608.333,608,607.667,607.667,607.667,608,607.667,608.333,608.667,609.333,610.333,611,612.667,613,614.333,614.667,616.333,618,619.667,621,622.667,624.333,626,627.333,629.667,631.667,634.333,636.667,640,643.333,647.333,650.333,655,660.667,666,672,678,685,691.333,697.333,702.667,707.333,711.333,715,719,723.333,727.333,731.667,736.667,741,745.333,750.333,755.333,759.667,763,767.333,770.667,773,775,777.333,778.667,780.333,261.333,0,0,0,0,0,0,0,1821,2789.33,2789.33,2784.67,2788.67,2788.67,2788.67,2788.67,2784.33,2788.67,2797,2797,2797,2801.33,2801.33,2797.33,2797.33,2789,2788.67,2784.33,2784.33,2775.67,2767.67,2758.33,2750,2737.33,2729.33,2721.33,2709,2697.67,2690,2682,2670.33,2655,2639.33,2624.67,2610,2594.67
0,0,1936.67,5724.33,5724.33,5724.33,5724.33,5743,5743,5743,5724.67,5724.67,5760.67,5795.67,5797.33,5814,5814,5833.33,5869.33,5888.67,5908.67,5928,5874.67,5894,5910.67,5894,5910.67,5914,5874,3861.67,0,0,0,0,0,0,0,0,0,0,0,0,0,0,0,0,0,0,0,0,0,0,0,0,0,0,0,0,0,0,0,0,417.333,626,626.667,628,629,631,633.667,636.333,640,644,648.333,652.333,656.333,661.333,665,444.667,446.333,448,448.667,682,684.333,686,465.667,470,241.667,0,246,252,516,525,262,533,534.667,538,540,543.667,551,572,578,306.667,610.333,616.667,619.667,621,621,928.333,929.333,306.667,2387,5278,5278,5319.33,5319.33,5319.33,5319.33,5319.33,5250.33,5250.33,7815.33,7803,7738.33,7701.33,7762.33,7726.33,7754,7719,7712.67,7684.67,7684.67,7657,7623.67,7562.67,7504,2280.67,0,0,0,0,0,0,0,0,0,0,0,0,946.333,946,943,940.333,1397.67,1393.33,1390.33,1385,1380,1377,1370.67,1365,1363,1360,1360,1359,1359,1359,1360,1360,1360.33,1361.33,1363.33,1366.33,1369.33,1372.33,1374.67,1375.67,1379,1384,0,9067,9067,9107,9067,9067,9107,9107,9000.33,9000.33,8951.67,8902.33,8816.33,8816.33,8733,8646.67,8646.67,8603,8563,8606.67,8570.67,8615.67,8615.67,8580.67,8588,8592.67,8632.67,8780.67,8883.33,9051,9075.67,9130,9238.67,9390.33,9542.33,9515.67,9467.67,9448,9370.67,9252,9211,9157.33,9061,9020,9009.67,8887.67,8775.33,8720.33,8669,8621,8574.67,8574.67,8486,8524,8518.33,8516,8554,8633,8593,8674.33,8714.33,8755.67,8839.67,8882.33,8968.67,9012.33,9057.33,9106,9106,9106,9106,9106,9152.33,9200.33,9200.33,9203.33,9297,9395.67,9403.67,9506.33,9521.33,9564,9624,9667.67,9730,9775,9821.33,9966.67,10017.7,10007.7,10062,10058.3,10176,10176,10238.3,10132.7,9907.67,9493,9249.67,8763,8479,8177,7896,7698,7479.67,7331.67,7273.67,7245.67,0,0,0,0,0,0,0,0,0,0,0,0,0,0,396.333,1183.67,1178.33,1175,1170.33,1166.33,1161.33,1157,1151,1147.67,1145,1142,1136.67,1132.67,1128,1122.67,1116.67,1110.67,1105.33,1097.33,1088.67,1081,1068.33,1054.33,1042,1027.33,1011.67,998.667,985.667,972.333,959.667,950,940.667,932.667,926,919.667,913.667,908.333,902.333,898,892,886,881,292,0,0,0,0,0,0,0,0,0,0,0,0,0,637.333,635,632.667,631,629,626.667,624.667,622.333,620,618,616.667,615,613.333,612.333,611,610,609,608.333,607.667,607,606.667,606,605.667,605.333,605,604.667,604.667,604.667,605,604.667,605.667,606,607,608,609.333,610,611,612,613.333,615,616.333,618.333,620,621.667,623,625,627,629,631.333,634,637,640,643.333,647.667,651.333,657,662,668.333,674.667,681.333,688,694,699,704.667,709,712.667,716.333,720.333,724.667,729.333,733.667,738,742.667,747,752.333,756,759.667,764.333,767.667,771,774,776.333,777.667,520.667,261,0,0,0,0,0,0,0,1821.67,2781,2785.33,2785.33,2781,2781,2784.67,2784.67,2780.33,2784.67,2793,2793,2797.67,2797.67,2798.33,2798.33,2789.33,2794,2785.67,2781,2781,2768,2763.67,2758.67,2750,2745.67,2729,2725,2717,2701.33,2697.67,2686,2678.33,2666.67,2651,2628.33,2610,2598.33
0,0,0,3771.67,5724.33,5724.33,5743,5727,5711,5692.67,5712,5692.67,5762.33,5762.33,5762.33,5780.67,5780.67,5816.67,5818.67,5874.67,5858,5858,5881.67,5881.67,5881.67,5865.67,5865.67,3853.33,3817.33,2032.33,0,0,0,0,0,0,0,0,0,0,0,0,0,0,0,0,0,0,0,0,0,0,0,0,0,0,0,207,417.333,418,418,417.667,417.667,625.667,625.667,627,627.667,630,632.667,634.667,638,642,646.667,650.333,654.333,658.667,662.333,665.667,668.667,672,446.333,447.333,448.333,683.333,688.333,694,242,240,245.333,251,514,522.333,261,262.333,263.667,264.667,265.667,266.333,268.333,574.333,579.667,309,613,619.667,622,928.667,930,931,932.333,307.667,0,5306,5306,5306,5306,5306,5376,5306,5306,5266,7792.67,7820.67,7747.67,7747.67,7712.67,7679.33,7645,7679.33,7673.67,7673.67,7679.33,7651.33,7651.33,7591.33,7530.33,2306.33,0,0,0,0,0,0,0,0,0,0,0,465.333,945,943.667,941.667,938.333,1397.67,1394.33,1390.33,1386,1381,1376,1370.67,1366,1361,1360,1359,1358,1357,1358,1358,1358,1361,1361,1364.33,1368.33,1372.33,1377,1378,1380,1382,1386,466.667,9163.33,9163.33,9163.33,9163.33,9148.33,9148.33,9148.33,9094,9002.67,8994.33,8945,8907,8812.67,8688,8644.33,8603,8603,8563,8527,8570.67,8570.67,8570.67,8576.67,8588,8588,8632.67,8775,8931.33,9000,9132,9252.33,9423.67,9542,9783.67,9756,9706.67,9622.67,9522,9398,9384.33,9232.67,9199.33,9096,9071.67,8909,8815.33,8799.33,8746,8659,8649.67,8611.67,8566.67,8599,8595.33,8595.33,8674.33,8674.33,8674.33,8755.67,8755.67,8755.67,8841,8882.33,8926,8971,9014.67,9061,9019.67,9061,9106,9106,9064.67,9064.67,9112.67,9117,9117,9209.33,9220.33,9331,9331,9430,9490,9532.67,9621.33,9666.33,9775,9869.33,9907.33,10014,10070.3,10176,10176,10190.3,10132.7,10132.7,9853.33,9398,9112.67,8719.33,8326,7964.33,7666.33,7449.33,7245,7105.67,2387,0,0,0,0,0,0,0,0,0,0,0,0,0,0,0,1190.33,1186,1181.33,1176.33,1171,1168,1162.67,1157,1151,1147,1145,1142,1136.67,1131.33,1127.33,1121.33,1115.33,1109.33,1104,1096,1087.33,1079.67,1068,1052,1041.67,1025.67,1011.33,998,986.333,971.667,958.333,948.667,939.667,932,925.333,918.333,911.667,906.667,901,896.667,889.667,883.667,877.333,870.667,574.667,570.333,564,0,0,0,0,0,0,0,0,0,212.333,634.333,632.667,630.333,628.667,627,624,622,619.667,617.333,615,613.333,611.667,610.333,609.333,608,607,606.333,605.333,604.667,604,603.333,603,602.667,602.333,601.667,601.667,601.667,601.667,601.667,602,602.667,603,603.667,604.667,606,606.667,607.667,609,610.333,612,613.333,615.333,617,618.667,620,622.333,624.333,626.667,629.333,631.333,634,637.333,640.333,644.333,649,653.667,659,664.667,671,677.333,685,691.333,697,702.333,706.667,710.333,714.667,718.667,722.667,726.667,731,735.667,739.667,744.333,748.333,753.333,757.667,761.667,765.333,769.667,772.333,774.667,777,777.667,260.667,260.667,0,0,0,0,0,937.333,1826,2776.33,2780.67,2780.67,2777,2777,2781,2777,2777,2785.67,2794.67,2794.67,2799,2794.67,2799.33,2795.33,2795.33,2800.33,2791.33,2786.33,2782,2777.33,2768.33,2767.33,2758.33,2749.67,2737,2733,2725,2717,2709.33,2701.67,2686,2674.33,2658.67,2639.67,2617.33,2598.33
0,0,0,1936.67,3740,3755.67,5692.33,5711,5699.33,5680,5714.67,5714.67,5714.67,5714.67,5733,5733,5748.67,5752.33,5806.67,5806.67,5846.33,5830.67,5851.33,5855.33,5851.33,5855.33,5840,3827.67,2052.67,0,0,0,0,0,0,0,0,0,0,0,0,0,0,0,0,0,0,0,0,0,0,0,0,0,0,0,0,207,207.333,419.333,627.667,419,418.333,625.333,625.333,626.333,627.333,628.333,630.333,633.667,636,640,644.667,649.333,653.667,656.667,660.333,663.333,666.667,670,673,676.333,678.667,682.333,687.667,693.667,702.667,239.333,493.333,502.667,512.333,520.333,260.667,262,263.333,0,265,266.667,269,272.667,276,610.333,904.667,622,624.333,624.667,932.333,934.667,934.667,936.333,0,5255.67,5255.67,5255.67,5255.67,5255.67,5285,5247,5247,5180.67,5144.67,5139,7703,7605,7605,7603.67,7635.33,7603.67,7636,7605,7605.67,7609.67,7615.33,7615.33,7556.33,2359.33,0,0,0,0,0,0,0,0,0,0,0,465.333,942.667,941.667,1406,1402.67,1400.67,1396.33,1390.33,1387,1381,1376,1370.67,1365,1360,1358,1356,1355,1356,1354,1356,1357,1359,1361,1365.33,1368.33,1375,1378,1381,1384,1387,1392,0,9247.33,9247.33,9247.33,9204.67,9148.33,9152,9152,9045.33,9007.33,8907,8859,8775.67,8730.67,8687,8601.67,8601.67,8560.33,8484.33,8484.33,8488,8488,8531.67,8496.67,8541.67,8588,8667,8727,8914.33,9003,9140.33,9346,9403,9676,9762.33,9762.33,9714.33,9659,9501.33,9409.67,9299.33,9245.67,9141,9083.33,9015.33,8951.67,8840.67,8827.33,8738,8735,8688.67,8649.67,8642.67,8599,8638,8677,8717,8757,8755.67,8755.67,8839.67,8926,8968.67,9013.67,9013.67,9013.67,9017.33,9017.33,9017.33,9017.33,8929.67,8929.67,8884.67,8928.33,8929.67,8976,9024,9073.33,9081.67,9134,9188.33,9244.67,9328.67,9429,9472.67,9621.33,9712.67,9810,9861,10070.3,10128,10116,10176,10132.7,10132.7,10014,9743.33,9391.33,9019.67,8597.33,8215,7796,7572,7273.67,7078,6945.33,6893.33,2255.67,0,0,0,0,0,0,0,0,0,0,0,0,0,1196,1191,1187.67,1182,1176.33,1171.67,1167,1162,1156,1151,1147,1145,1142,1135.33,1130.67,1126,1120.67,1114,1108.67,1102,1095.33,1085.33,1079,1066,1050.67,1038.33,1024.33,1008.33,995.667,984.667,969.667,956.667,947.333,938.667,931.333,923.667,916.667,910.667,905.667,901,894.333,888.333,881,874.333,867.333,860,853.667,844,278,276.333,0,0,0,0,0,0,0,212.333,632.333,630.333,628.333,626.667,624.333,621.667,619,616.667,614,612,610.333,609,607.667,606.667,605,604.333,603.667,602.333,602,601.667,601,600.333,600,599.333,599.333,599,599,599,598.667,598.667,599.333,599.333,600.333,602,602.667,603.667,604.667,606,608,609.333,611,612.667,614.667,616.333,617.333,619.667,622,624.333,626.333,629.333,631.333,634,638,641.667,645.667,651,656.333,661.667,668,674.667,682,688.333,694.333,699.667,704.333,708,712.333,716.333,720.333,724.667,729,733.333,737.333,742,746.667,750.333,755,759.333,763.333,767.333,770.333,773,775.333,777.333,520,0,0,0,0,0,0,0,884.667,1822,2772.33,2776.33,2776.67,2772.33,2777,2785.33,2781,2781.67,2786.33,2794.67,2804.33,2804.33,2805,2796.67,2796.67,2800.67,2792.67,2792,2787,2782,2773,2768,2763,2754,2749.33,2745,2733,2725,2713.33,2709.33,2697.67,2682.33,2662.67,2643.33,2628.33,2610
0,0,0,1936.67,3724.67,3724.67,3724.67,3747.33,5669.33,5703.33,5669.33,5684,5684,5702.33,5702.33,5707,5721.67,5757,5775.67,5815.33,5836,5836,5842,5842,5846.67,5846.67,5832,3805.33,3769.67,3769.67,3735.33,1669,1642,0,0,0,0,0,0,0,0,0,0,0,0,0,0,0,0,0,0,0,0,0,0,0,0,0,207.667,207.667,629.333,628.333,627,625.667,625.667,626,626.667,628,629.667,632,634.667,638.333,643.333,647.333,651.667,656,659,662.667,664.667,668.333,671,674.333,448.333,450,452.667,693.333,475.667,238.333,492,500.333,508.667,517.667,260,527.667,264,534,266,544.667,557,275,0,898.667,911,921.667,929.333,934,936.333,937.333,938,939.667,311,5247,5210,5210,5210,5210,5204.33,5169.33,5166,5101.67,5069.33,5068.67,7541,7541,7542.33,7542.33,7512,7542.33,7573.33,7575.67,7544,7545.33,7578.67,7548.33,7519,4830,0,0,0,0,0,0,0,0,0,0,0,464.333,941.667,940.667,1405,1402.67,1399.67,1395.33,1391.33,1386,1381,1375.67,1369.67,1364,1359,1356,1354,1353,1353,1353,1354,1354,1357,1360,1363,1368.33,1375,1382,1384,1387,1391,1398.67,0,9157.67,9252,9252,9309.67,9252,9141.33,9103.33,9051,8963,8913.67,8819.33,8738.33,8651,8608.33,8524.33,8483,8443,8368,8326,8366,8407.33,8450,8450,8456.67,8503.67,8580.67,8794.67,8899.67,9019,9203,9358,9462.67,9736.33,9820.33,9820.33,9736.33,9608,9486.33,9330.33,9231,9141,9116.67,9049.67,8995.33,8927,8834,8779.33,8775,8808,8766.67,8681.67,8677,8677,8677,8757,8757,8798.33,8798.33,8882.33,8926,8926,9013.67,9013.67,9103.67,9060,9060,9060,9017.33,9017.33,8971,8926,8841,8841,8798.33,8800.67,8845.67,8892,8940,8989.33,9040.33,9092.67,9188.33,9328.67,9372.33,9564,9612,9816,9808.33,9907.67,10068,10116,10118.3,10180.7,10076.3,9959.67,9743.33,9343.33,8976,8557.33,8106,7763.67,7420,7161,6945.33,6767.67,6694.33,4414.67,0,0,0,0,0,0,0,0,0,0,0,0,0,1196,1191.67,1187.67,1182,1177,1171.67,1166,1162,1155,1150.33,1147,1144.33,1141,1134.67,1129.33,1125.33,1118.67,1113.33,1107.33,1101.33,1093.33,1084.67,1077.67,1065.33,1049.67,1037.67,1022.33,1007,994.333,983.333,968.667,956,946.333,938,930,923,915.333,909.667,905,900,893.333,887.667,880,873.333,865.667,858.667,852.667,845,836.333,277,0,0,0,0,0,0,0,422,630.333,627.667,626,624.333,621.667,619,616.333,613.667,611.667,610,608,606.333,605,604,603,602,601,600.667,599.667,599,598.667,598,597.333,597,597,596.667,596.333,596,596,596,596.333,597.333,597.333,598.667,599.667,601.333,602,603.333,605,606.667,608.333,610.333,612,613.667,615.333,617.333,619.333,622,624.333,626.667,629,632,634.667,638.667,643.333,647.667,653.333,659.333,665.333,671.667,678.667,685.667,691,697,701.667,706,710.333,714.333,717.667,722,726.333,730.667,735,739.667,743.667,747.667,753,757,761,765.333,768.667,772,774,776.333,260,521,0,0,0,0,0,0,0,1822,937.333,937.333,2773,2772.33,2777,2781.33,2781.67,2786.33,2795.33,2800.33,2805,2809.67,2810.33,2810.33,2806.33,2802.33,2802.33,2796.33,2787.67,2782,2773.67,2768.33,2767.33,2762.67,2753.67,2749.33,2737,2729,2721,2713.33,2701.67,2690,2670.33,2650.67,2628.33,2613.67
0,0,0,0,3709.33,3728,3713.33,3718,5674,5659.67,5679.67,5679.67,5698,5712.33,5698,5751.33,5751.33,5751.33,5806,5846.67,5868.33,5890.33,5875.67,5875.67,5875.67,5861.33,5845,5811.33,3799,3763.67,3728.67,1655.33,1629,0,0,0,0,0,0,0,0,0,0,0,0,0,0,0,0,0,0,0,0,0,0,0,0,0,0,207.667,208,629.667,627.667,626.667,626,0,626,626.667,628.333,630.333,633,637,641,646,650.333,654.333,657.667,660.667,663.667,666.667,669,446.667,448.333,450,453,456,460,236.667,488.667,496.667,505,514,260,526.333,265,266.333,539,548.333,563.333,279,0,304.667,916.667,926.333,932.333,936.667,939,940.667,942,942.333,944.333,2473,5139,5139,5135,5135,5101.67,5100.33,5068.67,5037.67,5007.33,5009.67,5042,7428.33,7400.33,7405.67,7433.67,7462.33,7434.67,7494.33,7461,7491.33,7519.67,7492,7461,2359.33,0,0,0,0,0,0,0,0,0,0,0,940.667,939.667,1406,1404,1402,1401,1395.33,1390.33,1386,1381,1375.67,1367.33,1361,1357,1353,1352,1351,1351,1351,1351,1353,1355,1358,1361,1368,1374,1383,1386,1389,1394,934.333,0,6139,6195.33,9202.67,9259,6139,9148.33,9059,8963,8913.67,8829.67,8738.33,8651,8567,8524.33,8483,8403,8364,8326,8289,8289,8329,8370.33,8413,8413,8493.67,8615.67,8748.33,8934,9052.33,9220.67,9309.67,9477.33,9669.33,9749.67,9623,9623,9471,9386,9282.67,9156,9071.67,9049.67,8899.33,8883.33,8834,8779.33,8733,8770,8763,8721.67,8717,8717,8717,8757,8757,8798.33,8798.33,8842,8926,8926,8971,9057.33,9103.67,9147.33,9147.33,9060,9060,9060,8971,8883.33,8883.33,8714.33,8714.33,8714.33,8717,8717,8760.67,8805.67,8813,8861,8951.67,9041.67,9128,9265.33,9366,9561,9654.67,9750.67,9906.33,10010.3,10058.3,10118.3,10062,9959.67,9847.33,9586.67,9246,8887,8477,8034.67,7636,7360.33,7078,6792,6646,6551,0,0,0,0,0,0,0,0,0,0,0,0,0,1198.67,1195,1191.67,1187.67,1182,1176.33,1171.67,1166,1160.67,1155,1149,1145.67,1143,1139.33,1133.33,1128.67,1123.33,1118,1111.33,1105.33,1099.33,1092.67,1084,1077.67,1065,1048.67,1035.67,1019.67,1004,991.667,981.333,965.667,954,945,936,929.333,922,914.667,909.667,904.333,899.333,893.333,887,879.333,872.667,866,858.333,853,845.333,837.667,277.667,0,0,0,0,0,0,0,210.667,627,624.667,623.333,621,619,616,613,610.667,609,607,605.333,604,602.667,601.667,601,599.333,599,598.333,598,597,596.667,596,595.333,595,594.333,594,594,594,593.667,594,594.667,595,595.333,596.333,597.333,598,599.333,601,602,604.333,605.667,607.667,609.667,611.667,613.333,615.667,617.333,619.667,622.333,624.333,627,629.667,632.333,636.333,640.333,645.333,650.333,656,662.333,668.667,675.333,682,688,694,698.333,702.667,707,711.333,715,719.333,723.667,728.333,732.333,736.667,741,745.667,750,755,759,763,766.333,770,772,774.667,777.333,779,780.667,521.333,260.667,260.667,0,0,0,937.333,937.333,937.333,1892,2777.67,2777,2786,2790.67,2795,2799.67,2809.33,2809.67,2823.67,2811.33,2815.33,2816.33,2812.33,2802,2797,2792.33,2786.67,2778,2777,2767.33,2762.67,2762,2749.33,2749.33,2741.33,2733.33,2725,2717.33,2697.67,2678,2658.33,2639.33,2621
0,0,1710.67,1710.67,3665.67,3698.67,3713.33,1710.67,3728.67,3735.33,3735.33,5724.67,5690.33,5704,5724.67,5743.33,5743.33,5798.33,5812.67,5853.67,5873.67,5895.67,5918,5903.67,5903.67,5867,5853.33,3821,3785.33,3771.67,1655.33,1642,3669,1603.67,0,0,0,0,0,0,0,0,0,0,0,0,0,0,0,0,0,0,0,0,0,0,0,0,0,207.333,207.667,208,628.667,627,626,625,207,626.333,627.333,629,631.333,635,639.667,644.667,649.333,653.333,657,660.333,663,665.667,668.667,446.667,448.333,679,453,455.667,231.667,707.667,485.333,493.667,501,510,517,524,530,267.667,543.333,555.333,570,283.667,0,292.667,924.333,931.667,937,940,942,944,945.333,945.333,947.333,0,5039,5007.33,5007.33,5069.33,5068.67,5037.67,5009.67,5009.67,5013.33,4985.33,4957.67,4991,7305,7305,7331.67,7297.33,7379.33,7381.67,7411,7404,7402,7401.33,7344,0,0,0,0,0,0,0,0,0,0,0,0,939.667,937.333,1406,1403,1402,1398.67,1393.33,1389.33,1384,1379,1374.67,1366,1360,1355,1352,1349.33,1349.33,1349.33,1348.67,1351,1351,1353,1356,1360,1367,1375,1381,1386,1390,1394,467.667,0,2774,6102,9222,9165.67,9111.33,9111.33,9008,8834,8786,8739.67,8616,8530.67,8408,8368,8325,8212,8212,8106,8071.67,8179,8218,8218,8258,8299.33,8342,8493.67,8575.67,8703.33,8887.67,9006,9141,9327.67,9543,9535,9609.67,9490,9408,9272.33,9103,9019.67,8944,8850.33,8750,8738,8646.67,8646.67,8603,8678,8678,8717,8674.33,8674.33,8717,8757,8757,8798.33,8839.67,8926,8926,8969.67,9057.33,9057.33,9240.33,9240.33,9195.33,9195.33,9108,9060,8971,8971,8882.33,8755.67,8714.33,8674.33,8674.33,8678,8678,8725,8770,8770,8770,8897,8988.67,9072.67,9267.33,9356.67,9449,9694.33,9795.67,9899.67,10007.7,9947.67,9895.33,9738.67,9633,9438,9108,8800.67,8399,8000.33,7605,7273.67,6971.67,6718.33,6505,0,0,0,0,0,0,0,0,0,0,0,0,0,1201,1198,1195.67,1191,1187,1181.33,1176.33,1171,1165.33,1160,1153.67,1149,1145,1143,1138,1132.67,1126.67,1122.67,1116.67,1110,1105.33,1098.67,1091.33,1084,1078,1066,699.333,1035.67,1018.67,1002.33,989.333,977.667,963,952,943.333,935.333,927.667,920,914.333,909.667,904.333,898.333,893.667,886.667,878.333,581.667,865.667,858,852.667,847,840.333,279,0,0,0,0,0,0,419.333,626.333,623.667,621.333,619.667,617.667,615.667,613.333,610,608,606,604.667,602.667,601.667,600.667,599.667,598.333,598,597,596.667,595.667,595.333,594.667,594,593.333,593,592.333,592,591.667,591.333,591.667,591.667,591.667,592.667,593,594,595,596,597,598,599.667,601.333,603.333,605.667,607.333,609.333,611.333,613.667,615.667,617.667,620.667,622.333,625,627.333,630.667,634.333,638.333,643,648,653.667,659.333,666.333,672.667,679.667,685.333,690.667,695,700,704.333,708.667,712.333,716.667,721.333,725,729.333,734.333,738.333,742.667,747.667,251.333,504.333,507,764.667,768,770.667,773.333,776,778.667,780,781,521.333,260.667,260.667,0,0,0,0,954.667,2777,2781.33,2785.33,2790,2799,2808.67,2813.33,2823,2823.67,2828.67,2825.33,2830.33,2821.33,2812.33,2811,2806,2796.33,2786.67,2777.67,2772.33,2771.33,2762.67,2753.67,2753.67,2753.33,2737.33,2733.33,2725.33,2717,2697.33,2682,2662.33,2643.33,2624.33
0,0,0,1696.33,1696.33,3703.67,1710.67,1682.67,1682.67,5729.67,5751,5716,5751,5751,5770.33,5770.33,5784,5825,5859.33,5881.33,5938.33,5938.33,5967.67,5961.33,5967.67,5930.33,3857,3843.33,3821,1669,1669,3728.67,3694.67,1642,0,0,0,0,0,0,0,0,0,0,0,0,0,0,0,0,0,0,0,0,0,0,0,0,0,0,216.667,216,423,626.667,412.667,413,0,624.667,626.333,627.667,630,634,638,643,647.667,652.333,656,659.333,662.667,665.333,668.333,671.667,675,679,453.667,456,697.333,705.667,244.333,247.333,249.333,507.667,516.667,525,531.667,538,272,284,293.667,0,292.667,604.333,612.333,619.667,942.333,943.333,945,947.667,948,949.333,951,953,5006.67,5006.67,4976.33,4947,4978,4949.33,4953,4953,4925.33,4964.33,4938,4972.33,4946.67,7178,7202.33,7228,7279.33,7271.67,7325,7294,7261.67,7255.67,7224.67,0,0,0,0,0,0,0,0,0,0,0,0,938.667,937.667,1405,1403,1400,1395.67,1392.33,1387,1383,1377.67,1372.67,1367,1360,1355,1352,1349.33,1349.33,1348.67,1348.67,1349.33,1350,1353,1356,1360,1366,1374,1383,1387,1391,1395,1400.67,0,2774,5847,9165.67,9222,9111.33,9023,8927,8799,8704.67,8704.67,8573.33,8489.33,8329,8214,8214,8139,8069.67,8069.67,8004,8004,8073.33,8079,8111.33,8150.33,8223.67,8334.33,8488,8608.33,8739.67,8799,8951.67,9071.67,9242.33,9306.67,9306.67,9330.67,9199.67,9071,8973.33,8862.67,8759.33,8746,8651.67,8606.67,8600,8557.33,8557.33,8595.33,8635.33,8674.33,8674.33,8674.33,8674.33,8714.33,8714.33,8798.33,8839.67,8882.33,8926,9014.67,9057.33,9147.33,9240.33,9334.67,9286.67,9240.33,9196.67,9148.67,9106,8969.67,8926,8798.33,8757,8635.33,8635.33,8597.33,8638.67,8681.33,8644.33,8681.33,8724,8811.33,8894.33,9024.67,9119,9267.33,9359.67,9498,9692.33,9796.33,9844.33,9844.33,9737.33,9689.33,9484.33,9340.67,8976,8758.33,8362,7964.33,5039,2415,4612.67,6622,6393,0,0,0,0,0,0,0,0,0,0,0,0,0,1199.33,1197.33,1195,1190.33,1187,1181.33,1175,1170.33,1164,1159.33,1153,1147,1143.67,1140,1136.67,1130.67,1126.67,1120.67,1115.33,1109.33,1104,1097.33,1091.33,1084,1078.33,1066.67,700,1035.67,678.333,1001.33,987,976,961,949.667,942,933.667,927,919.333,914.333,908.667,904,898.667,893.667,886.667,879,872.667,865,858,852.333,846.333,840,279.333,0,0,0,0,0,0,209.333,415,619.333,617.667,616.333,614.333,612.333,610,607.333,605,604,602,601,599.667,598.667,597.667,596.667,596,595.333,595,594.333,593.667,593,592.333,592,591.333,590.667,590.333,590,589.667,589.333,589.667,589.667,590.333,591,591.667,592,593.333,594.333,595.333,597.667,598.667,601,602.667,605,607,609.667,611.667,613.667,615.667,618,620.667,622.667,625,628.333,632.333,637,641,646.333,651.667,657.667,664.333,671,677,683,689,692.667,698,702,706.667,710.333,714.667,718.667,722.333,727.333,732.333,735.667,740.667,745.333,749.667,754.333,758.667,763.333,766.333,769.333,772,775,777.667,779.667,780.667,781.667,522,260.333,0,0,0,0,954.667,2784.67,2789,2793,2802.33,2810.67,2820.33,2829.67,2835.67,2836.33,2841.33,2842.33,2842.33,2838,2829,2824,2814,2804.33,2795.67,2781.67,2776.33,2771.33,2766.67,2762.33,2753.67,2753.33,2741.33,2733.33,2729.33,2721,2701.33,2685.67,2670,2643,2624.33
0,1682.67,0,0,3689.33,3675.67,3695,3715,5714.67,5756.67,5778.33,5778.33,5756.67,5811.33,5797.67,5797.67,5845,5867,5901.67,5901.67,5938.33,5967.67,5982,3908.67,5982,3894.33,3857,3834.67,3834.67,3812.67,2116.33,3756,3701.33,1669,0,0,0,0,0,0,0,0,0,0,0,0,0,0,0,0,0,0,0,0,0,0,0,207,207,207,207,425,424.333,628.667,626.333,412.667,624,624.667,626.333,627,629.333,632.333,636.667,641.333,646.333,651,655,658.667,662,665,668.333,671.667,675.333,451.333,453.667,456.333,696,704,478.667,245.667,248.333,252.333,517,528,269,271,279.667,568.667,0,293.333,602.333,610,616.667,623.333,627,947,949,949.667,951.333,952.667,953.333,955.667,0,4947,4918.33,4949.33,4949.33,4921.33,4925.33,4931,4931,4938,7073,7107.33,7105.33,7105.33,7129,7119.67,7143.67,7193.67,7186.67,7154.33,7179.33,7118.33,7088,0,0,0,0,0,0,0,0,0,0,0,0,939.667,938.667,935.333,1402,1399,1394.33,1390.33,1387,1382,1376.67,1372.67,1366,1359,1355,1352,1350,1348,1348,1348.67,1348.67,1349.33,1352,1354,1360,1364,1371.67,1379,1383,1387,1393,1400.67,0,2774,9165.67,9129.67,9084.67,9030.33,8978,8927,8751,8662,8617,8532,8408,8290,8177,8104,8033,8000.33,7933,7870.33,7936.33,7905.33,8009.33,8009.33,8079,8111.33,8183.67,8366,8524.33,8608.33,8697,8799.33,8963.33,9096,9193.33,9193.33,9153.33,9088,8932.33,8821.67,8718.33,8658,8611.67,8523,8480.33,8477,8477,8515,8554,8594,8633,8633,8633,8674.33,8674.33,8714.33,8714.33,8839.67,8839.67,8926,9057.33,9057.33,9192.33,9285.33,9381,9384,9384,9340.33,9200.33,9248.33,9106,8973.33,8842,8800.67,8717,8678,8635.33,8676.67,8597.33,8597.33,8640,8640,8808,8854.33,8945,9077,9173,9265.33,9447.33,9595,9689.33,9747,9643,9643,9439.33,9343.33,9154,8889.67,8635.33,8326,7898.67,2443.67,0,6867.67,6551,0,0,0,0,0,0,0,0,0,0,0,0,0,1199.33,1198,1195,1192.33,1188.33,1185,1179.67,1173.67,1169.33,1163.33,1157.67,1151.67,1147,1142,1139.33,1134.67,1130.67,1124.67,1120.67,1114,1109.33,1103.33,1097.33,1091.33,1084,1079,1067.33,700,1033.67,676.333,999.667,984.667,973,959.333,948.333,941,933.667,926.333,920,913,908.667,904.333,900,894.333,888,880,874,866,858.667,853,847,560.667,279.333,0,0,0,0,0,0,0,0,205,614.333,613.333,611.333,609.667,607.333,604.667,603,601.667,600.333,598.667,598,596.333,596,595.333,594.333,593.333,592.667,592.333,591.333,591,590.333,589.667,589.333,588.667,588.333,588,587.667,587.667,587.667,587.667,588,588.333,589,590,590.667,591.667,593,594.333,596.333,598.333,600.333,602.667,605,606.667,609,611.667,613.667,616,618.333,620.333,623.333,626.333,630.667,634.667,639.667,644.667,650.333,656.333,663,669,675.667,681,686.333,690.667,695.333,700,704,708,712.667,717,721.333,725.667,730.667,734.667,739,743.667,747.667,752.333,756.667,760.667,765,768,770.667,773.667,776.333,778.333,780,781.333,521.667,260.667,0,0,0,0,959.333,1868,1872.67,2810.33,2814.33,2827.33,2837,2846.67,2847.67,2852.67,2857.67,2854.33,2854.33,2854.33,2841,2832,2822,2812.33,2802.67,2793.67,2785,2775.33,2775,2762.33,2753.67,2753.67,2745.33,2737.33,2729,2721,2701,2681.33,2665.67,2646.67,2628
0,0,1669,1682.67,3681.33,3715,3715,3728.67,5743,5784,5819.67,5819.67,5819.67,5853.33,5862,5882.33,5896,5909.67,5944.67,6003.33,6003.33,6027,3947,6063.33,3947,3932.33,3908.67,3908.67,3863.33,3863.33,3841.33,3819.67,0,0,0,0,0,0,0,0,0,0,0,0,0,0,0,0,0,0,0,0,0,0,0,0,0,0,206.667,206.667,207,207,425.333,423.333,626.333,412,412.667,413.667,625.667,626.667,628.667,632,636.333,640,645.333,649.667,654,657.333,661.333,665,668.333,672,675.667,680.333,685,689.333,694,700.667,707.333,244.333,246.667,250.667,255.667,260.333,0,274,283,0,592.667,298.333,610,616.333,944,627.333,951,951.333,952.333,953.333,954.333,955,956,958,317.333,4890.33,4862.67,4862.67,4893.67,4893.67,4867,4872.33,4904.67,6995.33,7003.67,6979.33,7001.33,7001.33,7023.67,7046.67,7070.33,7061.33,7078,7078,7046.33,6985,6955.67,4695.67,0,0,0,0,0,0,0,0,0,0,0,0,938.667,935.667,1401,1397,1393.33,1388.33,1385,1379.67,1375.67,1369.67,1365,1359,1355,1352,1348.67,1347,1347,1347,1348,1348,1349.33,1351,1357,1362,1369.33,1377,1381,1385,1391,1398.67,1406,0,0,9129.67,9094.67,9040.33,8892,8799,8674,8586.33,8464.33,8415,8333.67,8142.67,8104,7963.67,7930.33,7898,7770.67,7770.67,7770.67,7775.67,7875,7911,7948,7978.33,8079,8179,8402,8403,8484.33,8615.67,8710,8823.67,8878,8914,8969.33,8876,8681.33,8633,8538.67,8493.67,8415,8407.33,8326,8362,8399,8437,8515,8554,8593,8514,8633,8593,8633,8673,8714.33,8797,8839.67,8882.33,9012.33,9057.33,9237.33,9331.67,9379.67,9429,9433.33,9384,9340.33,9348.67,9249.67,9162,8976,8887,8800.67,8800.67,8758.33,8758.33,8719.33,8678,8721.67,8681.67,8766.67,8813,8900,9041.67,9176.67,9175.33,9316,9506.33,9554.33,9554.33,9455.33,9311.67,9219.33,9122,8940.67,8774.33,8524.33,8217.67,7867,0,4858.67,6868.33,0,0,0,0,0,0,0,0,0,0,0,0,0,399.333,1197.33,1196,1193,1190.33,1188.33,1183.33,1178.33,1173,1167.33,1162,1157,1151,1145.67,1142,1138,1134,1128.67,1124,1119.33,1113.33,1109.33,1103.33,1098,1091.33,1084.67,1080,1069.67,1050,1033.33,339.333,997.667,982.333,970,956.333,948,941,933.667,927.333,920.333,914.333,909.667,905.333,900.667,896,888.667,882,875,868,860,853.667,565.333,280.667,0,0,0,0,0,0,204.667,0,204,203.667,406.333,609.333,608.333,606.667,604.333,602.333,600.667,599.333,597.667,596,595.333,594.333,593.333,592.667,592,591.333,591,590,589,588.333,588,587.333,587,586.333,586.333,586,586,586.333,586,586.333,586.333,586.667,587.333,588,588.667,590,591,592.333,594,596,598.333,599.667,602.333,604.333,606.667,609,611.667,613.667,615.667,618.667,621.333,624.333,629,633.667,638.333,643.667,650,655.333,441.333,667.667,674,679.333,684,688.333,693,698,702.333,706.667,711,715.333,719.667,724,729,733.667,737.333,742.333,746.333,750.667,755,758.667,762.333,766.333,769,772.667,775.333,777.667,260,781,522,260.667,261,0,0,0,0,963.667,2813.67,2818,2826.33,2840.33,2849.33,2859,2864,2864.67,2869.67,2874.67,2870.67,2857.33,2856.33,2843,2834,2824.33,2806.67,2797.67,2788.33,2779.33,2775,2762.33,2757.67,2753.67,2745.33,2737,2733,2717,2701,2677.33,2662,2643,2627.67
0,0,0,1669,1669,5713.67,5747.67,1655.33,3750,3785.33,5848.33,5885,5862,5919,5939.67,5953.33,5998.33,6012.67,6034.33,6085.33,6109.33,3985.67,6146.33,3985.67,3985.67,3961.67,3961.67,3938,6340.33,6351.67,3923.33,1769.67,0,0,0,0,0,0,0,0,0,0,0,0,0,0,0,0,0,0,0,0,0,0,0,0,0,0,0,0,206.667,206.667,426.333,424.333,421.667,624.667,412.333,624,625.333,626.333,628.333,631.333,634.667,639.333,644,649,653,657,661,665,668,671.667,675.667,680,684.333,688,691.667,697.667,703,241.667,245,249,0,0,263.667,277.333,0,0,602.667,612.333,618.333,946.667,950,952.333,954.667,955,955.333,956,957.333,957.667,959,960.333,961.667,2332.67,4805.67,4832.33,4836,4809.67,4840.67,4872.33,4846.67,6916.33,6927.33,6903,6957.67,6900.33,6922,6911.67,6958,6981,6997.33,6997.33,6911.67,6882.33,6877.67,6825.67,4590.67,2306.33,0,0,0,0,0,0,0,0,0,0,0,935.667,1400,928,1389.33,1386.33,1380.67,1376.67,1370.67,1366.33,1363,1356,1352,1349.33,1347.67,1345,1344,1344,1345,1345,1348,1350,1353,1358,1365,1374,1379,1383,1387,929.667,0,0,0,9030.33,8995.33,8943,8848.33,8722,8553,8468,8424.33,8301.33,8146.33,8069.67,7963.67,7861.67,7863.67,7733.33,7670.67,7675.67,7647,7679.33,7712.67,7747,7810.67,7875,7972.33,8109.33,8179,8250,8325,8366,8529.67,8621,8755.33,8769.33,8682.33,8598,8588,8462.33,8462.33,8338,8376,8296.67,8291,8326,8326,8437,8515,8515,8593,8514,8553,8554,8593,8633,8673,8755.67,8797,8882.33,9012.33,9146,9237.33,9331.67,9379.67,9484.33,9433.33,9440.67,9398,9450.33,9401,9259.33,9117,9024,9017.33,8928.33,8883.33,8798.33,8841,8842,8845.67,8805.67,8813,8902.33,8951.67,8990.67,9041.67,9136.67,9220.33,9271.67,9359.67,9319.67,9180.33,9083,8958.67,8829.67,8704.67,8582.67,8373.67,8115,5367,2566,0,0,0,0,0,0,0,0,0,0,0,0,0,0,0,797.333,1196,1193,1190.33,1188.33,1183.33,1180.67,1174.33,1170.33,1165.33,1160.67,1154.33,1149.67,1145,1140,1136.67,1132.67,1128.67,1122.67,1118,1112.67,1108.67,1103.33,1098,1092.67,1086.67,1081.33,1071.67,1052,1034,338.333,995,980,967.333,954.333,946.667,939.667,933.333,927.667,921,914.667,910,906,901.667,896.667,890.333,883.333,877.333,869.667,862,855.333,283.667,0,0,0,0,0,0,0,0,0,203,607.667,607,606,604.667,603,601.333,599.667,597.667,596.667,595,593.667,592.333,591.667,591,590,589.333,588.333,588,587.333,586.667,586.333,586,585.333,584.667,584.333,584.667,584,584,584,584.333,584.667,584.667,584.667,585.667,586.333,586.667,587.667,588.333,590.333,591.667,593.667,595.667,597.333,599.333,602,604.333,606.667,609.333,611.333,613.667,616.333,619.667,623.333,627.667,633,637.667,643.333,648.667,654.333,660.333,666.333,672,677,681,686,690.333,695,699.333,704.667,709,713.667,718,723.333,728.333,732.667,736.333,741,745.333,748.667,753.667,757,760.667,764,767.333,770.667,774,776.333,519.333,520.333,521.333,522.333,523.333,261.333,0,0,0,0,968.333,2830.33,2839,2848,2862,2871.67,2876.67,2881.67,2886.67,2882.33,2878,2869,2864.67,2855.33,2841.33,2823.67,2814.67,2801.67,2792.33,2783.67,2775,2766.33,2757.67,2753.33,2741,2737,2729,2717,2697,2677.33,2658,2643.33,2624
0,1655.33,1642,3648.33,5680,5713.67,5700,5741,5761,5826,5905.33,5942.67,5956.33,5977,5991.33,6036.67,6058.33,6087.33,6100,6139.33,6161.67,6201.33,4016.33,4032,4032,3992.33,4008,6399.33,6428,6421,3993.33,1816.67,1832.67,1832.67,0,0,0,0,0,0,0,0,0,0,0,0,0,0,0,0,0,0,0,0,0,0,0,0,0,0,206.667,206.667,206.667,206.667,206.333,420,412.333,624.667,625.667,626.333,628,631,634.333,638,642.667,647.667,652,656,660,663.667,667.667,671.333,675.667,679.667,683.333,686.667,690.333,695,462,233.667,234,0,0,0,0,0,0,0,307.333,313,952.667,954.333,955.333,957,958,958.333,958.333,959.333,960.333,961.667,962.333,963.333,965.333,318.333,4750,4750,4779.33,4779.33,4809.67,4784,4815,4821.67,4821.67,6870.67,6870.67,6846.67,6846.67,4773.33,4773.33,6902.33,6949.33,6894.33,6858.33,6782.33,6778,6727.33,4471,2306.33,0,0,0,0,0,0,0,0,0,0,0,935.667,931.333,928,1386,920.333,1377.67,1371.67,1367.67,1363,1358,1353,1349.33,1347.67,1346,1343,1341,1342,1343,1343,1345,1348,1350,1356,1362,1369.33,1375,1378,1383,0,0,0,0,8951.67,9006,8822.33,8771.33,8632.67,8468,8468,8342.67,8223.33,8109.33,7965.33,7861.67,7796,7796,7669.33,7576.33,7516.67,7553,7581,7584.67,7584.67,7645,7708,7805.67,7901.33,7933,7965.33,8139,8212,8329,8413,8538.67,8550,8469.33,8474,8315,8315,8231,8231,8231,8223.33,8217.67,8252,8326,8362,8477,8515,8554,8514,8554,8554,8633,8673,8673,8755.67,8839.67,8968.67,9012.33,9146,9283.67,9378,9478.33,9433.33,9491.67,9491.67,9501.33,9501.33,9450.33,9307.33,9249.67,9154,9148.67,9057.33,9056,9012.33,8926,8929.67,8936,8897,8945,8864.33,8876.67,8964.67,8964.67,8927.67,9059.67,9096,9142.33,9059,8922.67,8794.67,8680.67,8559.67,8441.67,8357.67,8166.33,5474,2631.67,0,0,0,0,0,0,0,0,0,0,0,0,0,0,0,1198,797.333,1193,1190.33,1187.67,1184,1181.33,1176.33,1172.33,1167,1162.67,1158.67,1153,1149,1143.67,1138,1135.33,1132,1126.67,1122,1116.67,1112,1108.67,1104,1099.33,1093.33,1086.67,1083.33,1073,1052.67,1034,0,995.667,978.333,965.333,952,945.333,939.667,934.333,928,922.333,916,911.667,907.667,902.333,898,892.333,589.333,293.667,0,287.333,285.333,0,0,0,0,0,0,0,0,0,201.333,603.667,603,602.333,601.667,600.667,600,598.667,597,595.333,594,593,591.667,590.667,589,588.333,587.667,587,586.333,585.667,584.667,584.333,584,583.667,583.667,583,583,582.667,582.333,582.333,582.667,582.667,582.667,583,583.333,583.667,584.333,585,586,586.667,588.333,589.333,591.667,593.333,595.333,597.333,599.333,602,604.333,606.667,609.333,611.333,614,617,621,626,631.333,636.333,641.667,647.667,653.333,659,664.667,670,674.667,678.333,682.667,687.333,691.667,696.667,702,707,711.667,717,722,727.667,732.333,736,740.667,744.667,748,751.667,755.667,758.667,762.333,765.667,769.333,772.667,775,777.667,779.667,521,522.333,523.333,262.667,0,0,0,1901,1910,2843.33,2852,2861,2875,2879.67,2884.67,2894,2894.67,2886,2881.67,2876.67,2872.33,2863,2853.67,2840.33,2818.33,2809.33,2796.33,2787.67,2774.67,2770.33,2757.67,2753.33,2737,2729,2721,2713,2693,2673.67,2654.33,2635.33,2616.67
0,0,3615.67,3648.33,5660.67,5660.67,5680,5706.67,5740.33,5796,5860,5924,5967.67,6005.67,6027,6048.67,6087.33,6124,6154.67,6168.67,6231.67,6231.67,4064,4040,4064,6372.67,6443.67,6448,6506,6522.67,6540,4044,1900.67,4061.33,0,0,0,0,0,0,0,0,0,0,0,0,0,0,0,0,0,0,0,0,0,0,0,0,0,0,0,206.667,206.667,206.667,423.667,420.667,419,207,415.333,627.333,629,631.333,633.667,637.333,641.667,646,650.333,654.333,658.667,662.667,666.333,670.667,674.333,678.333,682.333,685.667,689,692.667,233.333,234,0,0,0,0,0,0,0,620.333,311.333,955.667,959,959.333,959.667,961.333,961.667,962.667,962.667,962.667,962.667,964,964.667,966,967,643.333,4721.33,4776.33,4750,4750,4779.33,4809.67,4809.67,4815,4815,6884.67,6916.33,4765.67,4765.67,4741.67,4710.67,4710.67,4710.67,6840.33,6811,6755,6705,6656.33,4422.67,2280.67,0,0,0,0,0,0,0,0,0,0,0,457.333,930,1386,1380.67,1374.67,1373.67,1366.33,1363,1359,1356,1350.33,1347.67,1347,1345,1342,1341,1341,1341,1342,1344,1346,1348.67,1353,1358,1366,1369.33,1374,1378,0,0,0,0,8874.67,8833.33,8730,8647.33,8559.33,8468,8310.33,8231,8152,8072.33,7930.33,7795,7730.33,7698.67,7574.67,7516.67,7430.67,7430.67,7430.67,7430.67,7430.67,7430.67,7464,7584.33,7673.33,7735.33,7766.33,7865.33,7965.33,5368.67,5368.67,5368.67,5368.67,8267.67,8231,8199.33,8131.33,8159.33,8128.33,8197.33,8120.33,8152,8256.67,8291,8402,8477,8515,8554,8514,8554,8593,8674.33,8673,8714.33,8797,8882.33,9012.33,9102.33,9237.33,9378,9426,9529.33,9580.33,9640,9596.33,9608,9608,9553.67,9501.33,9450.33,9297.67,9200.33,9195,9192.33,9102.33,9057.33,9061,8897,8859,8907,8827.33,8876.67,8835.33,8840.67,8840.67,8934.33,8883.33,8877.67,8877.67,8716.67,8594.33,8441.67,8369.33,8296.33,8145.67,5586,5367,0,0,0,0,0,0,0,0,0,0,0,0,0,0,0,1198.67,1196.67,1194,1191,1189,1185,1182,1178,1173.67,1169.67,1165.33,1161.33,1158,1151.67,1147,1143,1138,1133.33,1129.33,1124.67,1120,1115.33,1110.67,1106.67,1102.67,1098.67,1092.67,1087.33,1083.33,1075.67,1054.33,1034.33,676.667,995.333,977.333,963,950.667,945.333,940.333,934.333,929.333,922.667,917,912.667,908.667,904.333,898.667,893,0,0,0,0,0,0,0,0,0,0,0,0,0,201,600.667,599.667,599.667,599,598.667,598,597,596.333,594.333,593,591.667,590.333,589.333,588,587,586,585,584.333,583.667,583,582.667,582,582,581.333,581,580.667,580.333,580.333,580.333,580.333,580.667,581,581,581.333,581.667,582.333,583,583.667,583.667,585,586.333,587.333,589.667,591.667,593,595.667,597.667,600,602.333,604,606.667,609,612,615.667,619,624,629.667,635,640,645.667,651.333,657.333,662,667.667,672,675.667,679.667,684.667,689.333,694.333,700,705.333,710.667,715.667,721,726.333,731,735.667,739.333,743.667,746.667,750.333,754,757.667,761,764.333,768.333,771.333,774.333,777,779.667,260.667,261,523.667,525.333,0,0,0,0,1923,2852.33,2856.67,2874.33,2875,2884,2888.67,2893.67,2894,2894,2894,2884.67,2884.67,2871,2862,2848,2826.33,2817.33,2800.33,2795.67,2778.67,2762,2753.67,2745.33,2733,2729,2713,2705,2685.33,2665.67,2647,2627.67,2616.67
0,0,5570.67,5589.33,5628,5647.33,5680.67,5667.33,5706.67,5795,5864.33,5922.33,5980.33,6003.33,6039.67,6085.33,6139.33,6177,6208.67,6247.67,6312,6312,6353,6378,6430,6450,6505.67,6505.67,6551.67,6581,6647.33,6629,6617,4162.33,0,0,0,0,0,0,0,0,0,0,0,0,0,0,0,0,0,0,0,0,0,0,0,0,0,0,0,0,0,206.333,423,206.333,419,418.333,626.667,627.333,629.667,631.333,633.667,637.333,641.333,645.667,650,653.667,657.667,661.333,665.333,669.333,673.667,677,680.667,683.333,687,458.333,693.667,234.333,0,0,0,0,0,0,0,0,315.667,962,965,965,965.333,966,965.667,966.333,967.333,967.333,968,968,969.333,970,972.333,973,0,4774.33,4803,4776.33,4805.67,4805.67,4805.67,4836,4809.67,6970.33,4759,4759,4734.67,4734.67,4710.67,4680.33,4656.67,4604.33,6760.67,6729,6702.33,6658.67,6608.33,2280.67,0,0,0,0,0,0,0,0,0,0,0,456,1391.33,921.667,1374.67,1371.67,1367.33,1363,1360,1356,1353,1349.33,1347.67,1346,1344,1343,1341,1341,1341,1342,1345,1346,1348.67,1351,1357,1361,1365,1369.33,1373,1378,0,0,2891,8833.33,8833.33,8690,8640.67,8520.33,8391,8267.67,8226.33,8111.33,8001.33,7896,7828.33,7763.67,7669.33,7545.33,7488.67,7458.33,7401.33,7346,7346,7313.67,7313.67,7372.67,7369,7390.67,7390.67,7449.33,0,0,0,0,0,0,0,700.667,700.667,2092.33,2089.67,2089.67,2092.33,1394,0,0,0,8402,8477,8515,8554,8514,8554,8633,8633,8714.33,8755.67,8797,8882.33,8968.67,9057.33,9283.67,9426,9523.33,9575.67,9632.67,9685,9694.33,9705,9662.33,9662.33,9553.67,9501.33,9347,9347,9340.33,9243,9192.33,9147.33,9102.33,9061,8979.67,8940.67,8950.67,8870,8870,8791.33,8756.33,8756.33,8764.67,8760.33,8716.67,8517,8369.33,8225.67,8198.33,8050,7907.33,5402,0,0,0,0,0,0,0,0,0,0,0,0,0,0,0,400,1196.67,1195,1192.33,1189.67,1186,1183.33,1179,1174.33,1171,1166,1162,1159.33,1154.33,1149.67,1145.67,1140.33,1136,1132,1128,1123.33,1118.67,1114.67,1110.67,1106.67,1102.67,1098.67,1093.33,1088.67,1084.67,1077.33,1056,1035.67,0,996.667,977,962.667,950.333,946,940.333,935.667,930.667,924.667,918.667,915.667,911.667,906,901.333,296.667,0,0,0,0,0,0,0,0,0,0,0,0,398.333,599,599,598.667,598,597,596.333,596.333,595,593.667,592.333,590.667,589.333,588.333,586.667,585.667,584.667,583.667,582.333,582,581.333,580.667,580.333,579,579,578.667,578.667,578.333,578,578.333,578.333,579,578.667,578.667,579.333,579.333,580,580.667,581,582,582.333,583.333,584.333,585.667,588,589.333,591.667,593.667,595.667,598,600,602.667,604,606.667,609.333,613,616.333,622,627.333,632.667,638.667,644,650.333,655.333,660.667,665.667,669,673.333,677.667,682.333,686.667,692.333,698,704.333,710,715.333,720.333,726,730.333,735.333,738.667,742.667,746,749.667,753.333,756.333,760.333,763,767,770.667,774,776.667,779,782.333,522.667,524,526,264.333,0,0,0,0,0,977.333,2874.33,2888.67,2893.33,2893.33,2897.67,2898,2898,2898,2893.67,2884,2875,2866,2852.33,2835,2821.67,2808.67,2795.67,2778.67,2762,2757.67,2737.33,2721,2717,2705,2693.33,2673.33,2654.33,2639.33,2624,2605.67
0,5547,5539.33,5570.67,5590,5590,5661.33,5648,5714.67,5768.33,5836.67,5907.67,5943.67,6002.33,6039.67,6061.67,6099.67,6154,6216.67,6257,6298.33,6298.33,6363.67,6406.33,6458.33,6485,6540.67,6564.67,6587.67,6611.67,6702.33,6702.33,6708.33,6732.67,0,0,0,0,0,0,0,0,0,0,0,0,0,0,0,0,0,0,0,0,0,0,0,0,0,0,0,0,0,206.333,206.333,206.667,206.667,207.667,419.667,628.667,630,632.333,634.333,637,640.667,644.333,648.667,652.333,656,660,664,668,671.667,675.333,679.333,681.333,684.667,457.333,690.667,234,234.667,0,0,0,0,0,0,318.667,319.333,970.333,972.333,973,971.333,971.667,972.333,973.333,973,973.333,974,974,975.333,977,978.667,981,0,2443.67,4803,4803,4832.33,4832.33,4862.67,4836,7019.67,6993.33,6998.67,4784,4784,4759,2473,2443.67,2443.67,4575.67,4525.33,6753.33,6678.33,6678.33,6631,6606.67,2231.33,0,0,0,0,0,0,0,0,0,0,0,453,453,453,907,1364.33,1360,1357,1353,1352,1349.33,1346,1346,1343,1342,1341,1340,1341,1342,1344,1346,1349.33,1352,1356,1362,1365,1368,1370.67,1376,0,0,6312.33,8887.67,8847.67,8741,8690,8563.67,8445.33,8310.33,8231.67,8115.33,8038.33,7964.33,7829.33,7764.33,7669.33,7545.33,7486.33,7401.33,7372.67,7318,7290.33,7231.67,7231.67,7237.33,7258,7249.67,7219.33,2415,0,0,0,0,0,0,0,2102,2097.33,2097.33,2095,2092.33,2095,2095,2097.33,0,0,5665,8477,8475,8514,8437,8514,8514,8593,8673,8714.33,8798.33,8839.67,8926,9014.67,9192.33,9283.67,9331.67,9429,9529.33,9535.33,9544,9608,9662.33,9566.67,9566.67,9512.33,9407.67,9305.67,9256.33,9200.33,9196.67,9148.67,9147.33,9014.67,9018.33,8933.33,8850.67,8897,8812.67,8739.67,8662,8670.33,8637,8592,8517,8380.33,8185.67,8089,7995.67,7854.33,7729.67,2231.33,0,0,0,0,0,0,0,0,0,0,0,0,0,0,802.667,1199.33,1196,1193,1190.33,1188.33,1185,1180.67,1176.33,1171.67,1169,1164,1160.67,1158,1153,1149,1144.33,1139.33,1135.33,1131.33,1127.33,1122.67,1118,1114,1110,1106.67,1104,1099.33,1094,1089.33,1085.33,1077.67,1058,1037.33,340,664,651.333,962.333,950,946.333,941.333,935.667,932.667,926.333,921,917,913,909,902,297,0,0,0,0,0,0,0,0,0,0,0,398.333,597.667,597.667,597,597.333,596.667,595.667,595.333,594.333,592.667,591.667,590,588.667,587,585.667,584,583,582,581,580,579,578.667,578,577.333,577,576,576.333,576,576,576.333,576,576.333,577,577.333,577.667,578,578,578.333,579,579.333,579.667,581,581.667,583,584.333,586,588,589.667,592,593.333,596,598,600,602.667,604.333,607,610.333,409,619.667,625.333,630.667,636.667,642.333,648.333,654,658.667,664,668,671.667,675.667,680.667,685.667,690.667,697,703,708.667,714,719.333,725,729.667,734.333,738.333,742,745.333,748.667,752,755.333,759.667,763,766.667,770.333,773.667,776.667,779,782.333,523.333,525.667,262.667,265.333,0,0,0,0,973,2879.33,2888,2888,2897.67,2893.67,2893,2897.67,2893.33,2893,2888.33,2888.33,2874.67,2866,2848,2835,2813,2800.33,2787.33,2770.67,2754,2737.33,2725,2713,2705,2693.33,2673.33,2654.33,2643,2627.67,2609.33,2598.33
1936.67,3573.67,5515.33,5547.33,5585,5585,5604.33,5611,5676.67,5777,5846.67,5896.67,5938.67,5954,5996.67,6033.67,6093.67,6126.33,6205.33,6246.33,6288,6328.67,6376,6450.33,6476.67,6545.67,6601.33,6601.33,6673,6702.33,6721.67,6771.33,6771.33,6771.33,4268,0,0,0,0,0,0,0,0,0,0,0,0,0,0,0,0,0,0,0,0,0,0,0,0,0,0,0,0,0,0,0,207,208,208.667,420.667,631.667,632.667,634.667,637.333,640,644,647.667,651,654.333,658,661.667,666.333,669.667,672.667,451.333,679,681.667,683.667,461.667,233.333,0,0,0,0,0,0,0,327,327.333,986.667,988,987,986,984.333,985.333,985.667,985.667,986,984,984.333,985.667,987,990,991,326.333,0,2359.33,4832.33,7088,7094,7101,7101,7050.67,6993.33,7024.33,6991.33,6991.33,4759,0,0,0,2183.67,4547.67,6774,6725.33,6703.33,6631,4350.33,4329,2073.33,0,0,0,0,0,0,0,0,0,0,0,0,911.333,1363.33,1361,1358,1354,1353,1350.33,1347.67,1346,1344,1344,1342,1341,1342,1342,1343,1345,1347,1350,1352,1357,1362,1365,1368,1372,1377,0,0,9043,8944,8887.67,8833.33,8741,8651,8482.33,8436,8354,8190.33,8076.33,7967,7896,7796,7732,7574.67,7457,7457,7372.33,7284.67,7231.33,7173.33,7147.67,7090.33,6999.67,4564,2306.33,2332.67,0,0,0,698.333,695.667,698.333,698.333,2104.33,2104.33,2099.67,2097.33,2097.33,2094.67,2102,2102,2099.67,0,0,8516,8516,8476,8398,8437,8475,8553,8593,8593,8634.33,8757,8757,8884.67,8971,9102.33,9146,9237.33,9334.67,9340.33,9440.67,9501.33,9512.33,9460,9420,9356.67,9267.33,9259.33,9208.33,9208.33,9154,9106,9151.67,9060,8971,8928.33,8844.67,8850.67,8812.67,8687,8617,8541.33,8549.33,8473.33,8400.33,8215,8011,5118.33,2280.67,4968.33,2666,0,0,0,0,0,0,0,0,0,0,0,0,0,0,0,1202.67,1197.33,1196,1191.67,1190.33,1187.67,1182.67,1180,1174.33,1171,1167,1163.33,1160,1155,1153,1148.33,1144.33,1139.33,1135.33,1131.33,1127.33,1122.67,1118,1114,1110,1106,1104,1100,1095.33,1089.33,1087.33,1080,1059.33,1039,1018.33,997.667,980,963,950.333,946.667,941.667,938,934,928.667,924.667,920.333,916.667,911.333,302,0,0,0,0,0,0,0,0,0,0,0,0,199,199,596.667,596.667,596,595.333,594.333,593,592.333,591,589.333,587.667,586,584.333,583.333,582,580.667,579.333,578,577.333,576.667,576,575,574.667,574,573.667,573.667,573.667,573.667,574,574.333,574.667,574.667,575.667,576,576,577,577,577.667,578,578.667,579,580,581.333,582.667,584.333,585.667,588,589.667,592,594,596.333,598,600,602,605,608.333,612,617,622.667,628.333,634.667,640.333,646.333,652,657.333,663,666.667,671,675,679.333,684.333,689.667,695.667,702,707,713,719,724,729,734,738,742,745,748.333,751.333,755,758.667,762.667,766,769.667,773,776.667,779.667,783,262.333,262.667,263.667,266.333,0,0,0,0,0,1950.33,2879,2888.67,2893,2889,2893,2892.67,2893,2893,2893,2874.33,2874.33,2856.67,2843.67,2826.33,2809,2791.67,2771,2762.33,2733.33,2721.33,2701,2689.33,2677.33,2665.67,2654.33,2639.33,2627.67,2616.67,2601.67,2587.67
0,5488,5493.67,5543.33,5561,5580.33,5599.67,5619.67,5647,5753.33,5822.67,5894.33,5894.33,5929.33,5971.33,6007.67,6046,6117.33,6202.67,6220.33,6302.67,6324.67,6349,6440.67,6509.33,6559.67,6658.67,6658.67,6711.67,6711.67,6731.67,6761,6781.33,6786,6786,0,0,2012.33,0,0,0,0,0,0,0,0,0,0,0,0,0,0,0,0,0,0,0,0,0,0,0,0,0,0,0,0,0,419.667,421,421,632.667,634,635.333,637.667,640,643.333,646.333,649.333,652.667,656.333,659.667,663.333,667,670,673.667,451.667,453.667,455,456.333,232.333,233,233.667,234.333,0,0,0,0,0,334.333,998.667,999.333,998.667,998,998.333,998.667,999.333,999.667,999,996.667,995.667,996.333,997,998.667,329.333,330,0,2473,2473,4832.33,7094,7070,7070,7070,7043.33,7043.33,6986.67,4779.33,2473,2443.67,0,0,0,0,2332.67,6722,6674.67,4394,4372,4397,0,0,0,0,0,0,0,0,0,0,0,0,451,450,1359,1357,1356,1353,1350.33,1349.67,1346.67,1344,1343,1342,1342,1342,1342,1343,1344,1346,1348,1350,1353,1357,1363,1366,1370.67,1373,1377,0,0,9009.67,8968.33,8854.33,8760,8707.67,8651,8482.33,8399,8310.33,8190.33,8076.33,7967,7862.67,7796,7636,7542.33,7453.33,7396,7312.33,7199.67,7173.33,7090.33,7085.67,6926.33,4587,4394,2255.67,0,0,0,0,0,700.667,1421,2109.33,2111.67,2109,2106.67,2102,2102,2104.33,2099.67,2102,2102,2095,0,5586,5586,8399,8323,8323,8361,8398,8437,8475,8515,8595.33,8677,8802,8842,8971,9014.67,9057.33,9103.67,9196.67,9249.67,9300.67,9356.67,9369,9319.67,9319.67,9180.33,9134,9168.33,9208.33,9111,9064.67,9106,9014.67,9014.67,9013.67,8926,8884.67,8801,8724,8565.67,8532,8496.33,8348,8276.33,2443.67,0,0,0,0,0,0,0,0,0,0,0,0,0,0,0,0,0,0,1210.67,1207.33,1202,1197.33,1194,1191,1189,1186,1182,1177,1172.33,1169.67,1164.67,1162,1158.67,1155,1151.67,1147.67,1143.67,1139.33,1135.33,1131.33,1127.33,1123.33,1118,1114,1110,1107.33,1104,1100,1095.33,1090.67,1087.33,1082,1063,1041.33,0,333.333,982.333,965.667,950.667,947.333,944,940,935.667,932,927.333,615.667,0,0,0,0,0,0,0,0,0,0,0,0,0,0,0,198.667,198.667,595.333,594.333,594,593.333,592.333,591,589.667,588,586.333,584.667,583.333,581.667,580,578.333,577.667,576.333,575.333,574,573.333,573,572.333,571.333,571.333,571.333,571.667,571.333,571.667,572,572,572.667,573.333,573.333,573.667,574.333,575.333,575.667,576,576.667,577.333,577.667,578.667,579.667,581.333,582.667,584.333,585.333,588,590,592,594,596.333,597.667,600,602.667,606,610,615,620.667,626.333,632.667,638.667,645,650.667,656,661.333,665.667,669.667,674,678.667,684.333,688.667,695.333,701.333,707.333,713,718.333,724,728.667,733,737.667,741,744.667,747.667,751,754.667,758,761.333,765.667,769.333,773.333,776.667,780,783.333,524.667,790.667,530,532.333,268.667,0,0,0,1955.33,1960,1960,2880,2885,2880.33,2880.33,2879.67,2879.33,2879.67,2870.33,2861.33,2853,2844,2826.67,2809.33,2792,2771,2754.33,2737.67,2713.33,2693.33,2681.33,2669.67,2654.33,2650.67,2635.33,2624,2613,2602,2591.33,2576.67
1696.33,5484.33,5521,5557,5557,5576.33,5584.67,5618.67,5684.67,5752.67,5838,5878.33,5916.33,5951,5993.33,6009.33,6085.67,6140.33,6202.33,6284,6302.67,6343.33,6409.33,6479.33,6548.67,6599,6650.67,6699,6699,6752,6797.67,6797.67,6827,6852.67,6806.33,4476,2032.33,2012.33,0,0,0,0,0,0,0,0,0,0,0,0,0,0,0,0,0,0,0,0,0,0,0,0,0,0,0,0,0,0,0,422,634,635,636.333,638,640,643,645.667,648.667,651,654.333,657,661,664.333,667,670.333,673,675.667,678.333,454.667,231.333,232.333,232.667,233.667,0,0,0,0,0,344,343.333,678.333,1013.67,1015,677.667,1015.33,1015,341.667,340,672,677,1009.67,1008,340,339.333,331,0,2473,2503.33,4893.67,7125,7128.67,7101,7101,7101,7101,7067.33,4564,2231.33,2280.67,2280.67,2306.33,2306.33,2306.33,4490,4467,4419,4394,4372,2116.33,0,0,0,0,0,0,0,0,0,0,0,0,0,1360,1355,1355,1351.33,1350.33,1348.67,1348.67,1345,1343,1343,1342,1342,1342,1342,1344,1345,1348,1349.33,1352,1354,1359,1365,1368,1370.67,1374,1377,0,0,8936,8870.67,8814.33,8721,8668.67,8613,8482.33,8399,8274.33,8190.33,8044,7967,7897.67,7796,7666.33,7510.67,7422.33,7364.33,7253,7226.33,7116.67,7060,4536.33,2231.33,0,0,0,0,1134,0,0,1469,1403.67,1401.33,2119,2116.33,2111.33,2111.33,2109,2097.33,2104.33,2102,2104.33,2104.33,0,0,0,0,5511,8287,8249,8249,8323,8323,8325,8439,8402,8518.33,8557.33,8678,8802,8844.67,8884.67,8968.67,8971,9065.33,9067.67,9159,9168.33,9122,9077,9038,8994.33,9038,9027.67,8979.67,9064.67,9019.67,8973.33,9014.67,8968.67,8926,8801,8758.33,8640,8567,8455,8340.33,8269,8128.33,5161,0,0,0,0,0,0,0,0,0,0,0,0,0,0,0,0,0,1210.67,1210,1206,1201.33,1196.67,1192.33,1189.67,1187.67,1183.33,1180.67,1175.67,1171.67,1168,1164.67,1162,1158.67,1155,1151.67,1149,1145,1140.33,1136,1132,1128,1123.33,1119.33,1114.67,1110.67,1108,1104.67,1101.33,1097.33,1091.33,1088.67,1084,1066.67,1045.67,0,334.333,986.667,969.667,953.667,949,945,942,938,934.667,930.333,0,0,0,0,0,0,0,0,0,0,0,0,0,0,0,198.667,396.667,593.667,593.667,592.667,592.333,591,589.667,588.333,586.667,585.333,583.333,581.667,579.667,578,576.667,575.667,574.333,573.333,572.333,571.333,571,570.667,570.333,569.333,569.333,569.667,569.333,570,570,570,571,571,571.667,571.667,572.333,573,573.667,574,574.667,575.333,576,576.333,577.333,578,579.333,581,582.667,584,585.333,588,590.333,592.333,594.333,596,598,601,604.333,608,613,618.333,623.667,630.667,636.667,643,649,655,660,664.667,669,674,678.333,683.333,688.667,694,701,706.667,712,717.667,723,728.667,733,737,740.667,744.333,747.667,750.667,754.667,758,761.667,765,769.667,773.333,776.667,780,784.333,787.667,0,0,797.333,266,0,0,0,0,0,1946.33,1950.67,2866,2866.67,2858,2858.33,2853.67,2857.67,2849,2840.67,2827.33,2814,2801.33,2779.67,2767,2746.67,2729.67,2709.67,2689.67,2670,2650.67,2643,2635.67,2624,2616.67,2609.33,2598.67,2591.33,2576.67,2569.33
1710.67,5495,5531.67,5550.33,5569.67,5609,5646.67,5653,5703,5793.33,5846.33,5926.33,5966.33,5984.67,6019,6060,6095.33,6167,6229.67,6266.67,6331.67,6366.33,6433.33,6475.33,6523.67,6589.67,6640,6691.67,6744,6765.33,6819,6819,6819,6797.67,6777,4476,1993,1973.67,0,0,0,0,0,0,0,0,0,0,0,0,0,0,0,0,0,0,0,0,0,0,0,0,0,0,0,0,0,210,210.667,422.667,423,636,637,638,639.667,642,644.667,646.667,649.667,652.667,655.333,658.667,661.667,665,446,670,673,675.667,454.667,457.333,231.333,232.333,233,0,0,0,0,0,0,0,353.333,1037,1037,1037,1036.33,689.333,684.667,684.333,682,1021.67,1014.33,332,338.667,665.333,0,0,0,4921.33,4921.33,7184.33,7184.33,7184.33,7184.33,7160.33,7184.33,4590.67,4618.33,4618.33,4640,4639,4639,4613.33,4588.33,4564,4516.33,4467,4441.33,2138.33,2116.33,0,0,0,0,0,0,0,0,0,0,0,0,0,454,452,1355,1351,1350,1347,1347,1345,1343,1342,1342,1342,1342,1342,1344,1345,1348,1349.33,1352,1354,1360,1367,1369.33,1372,1375,1378,461.333,0,5378,8793.67,8683,8716.33,8630.67,8579.67,8515.67,8399,8310.33,8231.67,8083,8004,7967,7796,7666.33,7510.67,7390.67,7305.33,7219.33,7169,7005.67,6952.67,6875,4416.33,0,0,0,0,0,0,1513.33,1408.33,1403.67,2129.33,2119,2116.33,2116,2111.33,2104.33,2104.33,2106.67,2109,2109,2109,700.667,0,0,0,0,0,2774,5440,8250,8250,8289,8365,8365,8366,8410.33,8527,8608.33,8644.33,8563,8560.33,8565.67,8567,8640,8760.67,8721.67,5869.67,8687.67,8831.33,8744,8864.33,8902.33,8936,8979.67,8979.67,8936,8933.33,8884.67,8883.33,8798.33,8638,8561,8443.33,8366,8294,5299.33,0,0,0,0,0,0,0,0,0,0,0,0,0,0,0,0,0,1210.67,1209.67,1208,1207.33,1205,1199.67,1194.67,1192.33,1188.33,1186,1182,1178,1175,1171.67,1167,1164.67,1160.67,1158.67,1155.33,1152.33,1148.33,1145,1140.33,1136,1133.33,1130,1126,1120.67,1117.33,1113.33,1110,1106,1103.33,1098.67,1093.33,1090.67,1086,1069.67,1049.33,0,336,989.667,973,956.333,951,946.333,943.667,940.667,937.333,932.667,0,0,0,0,0,0,0,0,0,0,0,0,0,0,198.667,396.333,593.667,592.667,592,591,589.667,588.667,587,585.667,584,582,579.333,578.333,576.667,575,573.667,572.667,571.667,570.667,569.667,569.333,569,568,568,567.667,567.667,567.333,567.333,567.667,568.333,568.667,569,569.333,570.333,570.667,571,571.667,572.333,573,574,574,574.333,575.333,575.667,577,578.333,579.333,581.333,582.667,584.333,586.333,588.667,591,592.667,594.333,596.667,599.667,602.667,606.333,611.667,616.667,622.333,628.667,635,641.333,648,653.333,659.333,663.667,668.333,673,678,682.667,688.333,693.667,699.667,705.667,711.667,717,722.333,728,732,737,740.667,744,747,750.333,754.333,758,762,765.667,769.667,773.333,777.667,780.667,784.333,788.667,792.333,528.667,799.333,537.667,272.333,0,0,0,0,987,982,1941,1932.33,1936.67,1932,1923,2818.67,2810.33,2802,2789.67,2780.67,2768,2755,2738.67,2718.33,2698,2690,2662,2650.67,2631.67,2616.33,2609,2601.67,2594.67,2591,2583.67,2576.67,2566,2559
3658,5542.33,5579.33,5598.67,5618,5658.33,5647.67,5690.67,5766.33,5858.33,5922.33,5939.67,6014,6066,6083.67,6100.33,6152.67,6232.67,6306.67,6326,6364.67,6404,6417.67,6479.33,6522.33,6588,6661.33,6689,6713,6787,6787,6815.67,6819,6797.67,6752,6683,4205,1955,4125.67,1832.67,0,0,0,0,0,0,0,0,0,0,0,0,0,0,0,0,0,0,0,0,0,0,0,0,0,0,0,210.667,211,211.333,211.333,424.667,637.667,638.667,640,641.667,643.667,646,648.333,650.667,653.333,656.333,659,662.333,665,667.667,448,672.667,675.667,678.333,457.333,459.333,0,0,0,0,0,0,0,364,715,1067.67,1066.33,1066,1062.67,706.667,699.333,351,1039.33,1028.33,1015,1005,0,0,0,0,0,0,4985.33,5013.33,7244.67,7244.67,7244.67,7244.67,4675,4699.33,4675,4699.33,4724.33,4721.33,4719.67,4718.67,4665.33,4639,4588.33,4564,2207.33,2183.67,2160.67,0,0,0,0,0,0,0,0,0,0,0,0,0,910,1362.33,1358,1355,1351,1349.33,1347,1344,1342,1342,1342,1343,1343,1343,1345,1346,1348.67,1349.33,1353,1356,1363,1368,1373,1376,1379,1383,464.333,0,2812,8775.33,8775.33,8754.33,8664,8754.33,8636,8515.67,8424.33,8343.67,5592,8044,2737,5197.67,2566,2473,0,0,0,0,0,0,0,0,0,0,0,1121.67,0,707.667,1413,1408.33,2161,2142,2124,2116.33,2118.33,2116,2109,2106.67,2109,2111.33,2113.67,2111.33,700.667,0,0,0,0,0,8177,8177,8212,8215,8253,8253,8293,8294,8338,8418.67,8532,8372.33,8231.67,8265,8132.67,8060.33,8083,8183.67,8179,8148.67,8385.33,8461,8377,8574.67,8688.67,8681.67,8719.33,8681.33,8681.33,8805.67,8758.33,8798.33,8755.67,2932.33,2932.33,0,0,5588,0,0,0,0,0,0,0,0,0,0,0,0,0,0,0,400,401.667,1205.67,1206.67,1207.33,1207.33,1206.67,1202.67,1196.33,1194,1190.33,1187.67,1184,1181.33,1177,1174.33,1170.33,1167,1163.33,1161.33,1158.67,1155.33,1152.33,1149.67,1145.67,1142,1138,1135.33,1131.33,1127.33,1122.67,1119.33,1115.33,1112,1109.33,1105.33,1101.33,1095.33,1092.67,1088,1072.33,1051.33,0,337,994.333,975.667,959,953.667,949.667,945.667,942,0,0,0,0,0,0,0,0,0,0,0,0,0,0,0,199.333,0,593,592,591,589.667,588.333,587.333,585.667,584.333,583,580.333,578.333,577,575,573,572,571,570,569,568.333,567.667,567.333,567,566,565.333,565.333,565.333,565,565,565.667,566,566.667,567.333,567.667,568.333,569,569.333,570.333,570.667,571.667,572,572.667,573.667,574,574.667,576.333,577,578.333,580,581.333,583.333,585.333,587,589.667,592,593.667,595.667,598.333,601.667,605.333,610.333,615,620.667,626.667,633,639.333,646.667,652,658.333,663.333,668,673,678,683,688,693.667,699.333,705.333,711.333,716.667,722.333,728,732.333,737,740,744,747,750.333,754.333,757.667,762,765.667,770,774,777.667,780.667,785,790,792.667,796,800.667,538.667,0,547,0,0,0,0,0,0,1923,1918.67,1914,1909.67,2794,2785.67,1901,1892,1879,2747.67,2730.67,2714.33,2698.33,2674.67,2662.67,2643.33,2628,2613,2601.67,2591,2583.67,2583.67,2580.33,2576.67,2569.67,2559,2555.33
