0,0,0,0,0,0,0,0,0,0,0,0,0,0,0,0,0,0,1481.25,1487.93,1482.37,1478.07,1475.11,1471.86,1466.85,1462.4,1459.21,1457.79,1457.39,1457.67,1457.95,1458.68,1459.32,1459.68,1459.76,1459.33,1458.49,1457.6,1457.05,1455.72,1455.27,1454.93,1455.17,1455.85,1457.02,1459.42,1461.29,1463.75,1466.17,1469.42,1472.24,1476.06,1480.07,1484.13,1487.67,1490.76,1493.48,1494.89,1495.33,1495.49,1494.47,1492.37,1490.43,1488.53,1486.89,1485.6,1484.51,1484.2,1483.96,1484.58,1485.33,1486.55,1487.44,1487.82,1488.95,1489.63,1489.92,1489.56,1489.45,1488.93,1488.28,1487.52,1487.12,1486.16,1485.48,1484.89,1484.56,1483.99,1483.8,1483.51,1483.01,1482.73,1482.61,1481.81,1480.98,1480.08,1479.51,1478.53,1478.1,1477.33,1477.44,1477.15,1477.59,1478.17,1478.3,1478.12,1478.09,1477.72,1476.81,1476.1,1475.59,1474.77,1474.34,1473.69,1473.48,1473.69,1474.87,1477.86,1481.28,1484.72,1488.07,1492.04,1495.87,1498.85,1500.77,1501.15,1500.42,1498.85,1497.34,1496.06,1494.94,1493.72,1492.54,1491.86,1491.9,1491.91,1491.58,1491.99,1492.46,1492.15,1491.89,1491.94,1491.42,1491.08,1490.32,1488.99,1486.94,1484.3,1481.63,1479.59,1477.56,1476.29,1475.01,1473.08,1472.4,1471.98,1472.1,1472.17,1472.4,1472.09,1471.08,1471.06,1471.07,1471.14,1471.11,1471.22,1471.2,1471.53,1472.23,1473.34,1474.72,1475.99,1477.39,1479.1,1481.3,1483.46,1485.49,1487.99,1491.61,1494.34,1497.61,1499.77,1501.27,1501.15,1500.62,1500.08,1498.18,1495.24,1492.95,1490.73,1488.65,1487.29,1486.36,1485.75,1484.16,1483.36,1482.73,1481.8,1480.21,1478.54,1477.36,1475.93,1474.46,1473.59,1472.67,1471.93,1470.65,1469.95,1469.98,1470.6,1471.3,1472.58,1474.22,1476.01,1477.63,1479.52,1481.55,1483.09,1484,1484.83,1486.8,1487.19,1486.13,1484.82,1483.45,1481.57,1480.09,1478.01,1476.19,1473.68,1472.15,1471.59,1471.66,1471.67,1471.61,1471.56,1471.32,1471.16,1471.11,1471.52,1471.08,1469.53,1467.82,1467.31,1467.63,1467.8,1467.7,1466.49,1465.22,1464.18,1464.36,1463.95,1463.25,1461.53,1460.91,1461.14,1461.61,1463.28,1465.24,1466.9,1469.26,1471.7,1474.14,1477.07,1479.03,1480.7,1481.77,1482.09,1481.94,1481.52,1480.24,1478.54,1475.62,1473.78,1472.21,1470.19,1467.2,1464.33,1461.64,1459.43,1458.11,1456.66,1454.88,1453.05,1451.27,1450.77,1450.58,1450.78,1451.48,1451.61,1451.75,1452.05,1452.69,1453.5,1454.02,1454.77,1456.18,1457.88,1460.14,1462.71,1465.26,1468.46,1472.12,1476.24,1480.43,1483.68,1485.42,1487.02,1488.78,1489.71,1490.22,1490.08,1489.11,1487.7,1486.18,1484.9,1484.21,1483.12,1483.18,1483.45,1484.26,1484.83,1483.97,1483.01,1483.25,1483.52,1483.93,1483.85,1484.02,1482.61,1481.28,1480.85,1480.53,1479.33,1477.61,1475.25,1472.99,1470.35,1469.1,1468.29,1467.51,1466.09,1463.98,1461.95,1459.69,1457.25,1454.24,1451.48,1448.85,1446.43,1444.78,1444.33,1444.37,1445.16,1446.3,1446.34,1446.21,1444.78,1442.33,1436.63,1428.6,1419.96,1410.85,1402.12,1394.42,1387.88,1379.39,1368.69,1336.81,1300.16,1265.5,1229.73,1197.23,1166.78,1148.27,1133.81,1126.91,1119.39,1111.65,1104.36,1096.83,1091.37,1085.99,1081.77,1077.28,1073.22,1062.51,1057.12,1051.83,1045.77,1038.47,1031.16,1022.91,1014.78,1005.65,1000,0,0,0,0,0,0,0,0,0,0,0,0,0,0,0,0,0,0,0,0,0,0,0,0,0,0,0,0,0,0,0,0,0,0,0,0,0,0,0,0,0,0,0,0,0,0,0,0,0,0,0,0,0,0,0,0,0,0,0,0,0,0,0,0,0,0,0,0,0,0,0,0,0,0,0,0,0,0,0,0,0,0,0,0,0,0,0,0,0,0,0,0,0,0,0,0,0,0,0,0,0,0,0,0,0,0,0,0,0,0,0,0,0,0,0,0,0,0,0,0,0,0,0,0,0,0,0,0,0,0,0,0,0,0,0,0,0,0,0,0,0,0,0,0,0,0,0,0,0,0,0,0,0,0,0,0,0,0,0,0,0,0,0,0,0,0,0,0,0,0,0,0,0,0,0,0,0,0,0,0,0,0,0,0,0,0,0,0,0,0,0,0,0,0,0,0,0,0,0,0,0,0,0,0,0,0,0,0,0,0,0,0,0,0,0,0,0,0,0,0,0,0,0,0,0,0,0,0,0,0,0,0,0,0,0,0,0,0,0,0,0,0,0,0
0,0,0,0,0,0,0,0,0,0,0,0,0,0,0,0,0,0,1482,1485,1476.15,1470.96,1467.01,1464.4,1459.19,1453.73,1451.22,1448.95,1448.41,1447.9,1447.7,1447.77,1447.63,1447.05,1446.85,1446.07,1444.62,1442.96,1441.77,1440.28,1439.65,1439.08,1439.5,1440.08,1441.17,1443.45,1445.72,1448.25,1450.89,1454.19,1457.41,1461.7,1466.46,1470.48,1474.4,1477.73,1480.02,1481.7,1482.46,1483.11,1482.02,1480.18,1478.16,1476.61,1474.81,1473.71,1472.62,1471.9,1471.85,1472.25,1472.87,1473.78,1474.71,1474.92,1475.06,1475.51,1475.63,1475.04,1474.24,1473.55,1472.7,1471.97,1471.2,1470.5,1470.12,1469.86,1469.58,1469.08,1469.36,1469.23,1469.42,1469.38,1469.19,1468.73,1467.83,1467.18,1466.7,1465.76,1465.13,1464.67,1463.92,1463.71,1463.98,1463.82,1463.45,1462.67,1462.22,1460.97,1460.2,1459.1,1457.7,1456.67,1455.96,1455.55,1455.27,1456.31,1458.06,1461.49,1465.85,1469.42,1473.13,1477.1,1481.07,1484.57,1486.54,1486.9,1486.57,1485.27,1484,1482.72,1481.76,1480.68,1479.93,1479.19,1479.01,1479.2,1479.28,1479.97,1480.31,1480.79,1480.59,1480.34,1480.07,1479.96,1479.53,1477.99,1476.02,1473.4,1470.97,1469.16,1467.38,1466.08,1463.91,1461.79,1461.19,1460.33,1459.81,1459.69,1459.13,1458.82,1458.18,1457.48,1457.49,1456.94,1456.79,1456.89,1456.47,1456.99,1457.52,1458.39,1459.27,1460.89,1462.4,1464.01,1466.5,1468.79,1470.93,1474.06,1477.79,1481.37,1484.66,1487.29,1488.93,1489.41,1489.52,1489.5,1487.92,1485.65,1483.49,1481.71,1479.6,1478.19,1476.91,1475.96,1474.16,1472.82,1471.76,1470.37,1468.73,1467.39,1466.4,1465,1463.95,1463.19,1463.01,1462.31,1461.6,1460.81,1460.57,1461.34,1462.22,1462.9,1464.29,1465.85,1467.11,1468.65,1469.94,1470.93,1471.43,1472.08,1473.38,1473.34,1472.22,1471.27,1469.63,1468.09,1466.15,1464.15,1462.44,1459.96,1458.17,1457.32,1456.97,1456.74,1456.44,1456.42,1456.1,1455.68,1455.79,1455.87,1455.49,1454.14,1452.86,1452.61,1453.34,1453.47,1453,1451.67,1450.34,1449.4,1449.77,1449.47,1448.82,1447.72,1447.57,1448.5,1449.89,1451.88,1454.25,1456.22,1458.4,1461.03,1463.16,1465.45,1466.99,1468.48,1469.19,1469.38,1469.03,1468.44,1467.55,1465.87,1464.02,1462.59,1461.37,1459.8,1457.53,1455.17,1452.71,1450.85,1449.55,1448.44,1447,1444.65,1442.51,1441.7,1441.42,1440.36,1440.21,1439.65,1438.71,1438.63,1438.95,1439.8,1440.46,1441.3,1442.77,1444.69,1447.03,1450.27,1453.16,1455.96,1459.76,1463.38,1467.39,1470.87,1472.9,1474.61,1476.25,1477.98,1478.84,1479.15,1478.61,1477.4,1475.85,1474.49,1473.15,1472.64,1472.15,1472.23,1472.54,1473.11,1472.35,1471.37,1471.81,1472.17,1472.45,1472.38,1472.99,1471.75,1470.44,1469.65,1469.21,1468.13,1466.5,1463.99,1461.77,1458.59,1457.17,1456.74,1455.47,1453.84,1451.69,1449.84,1447.77,1445.68,1442.97,1440.66,1438,1436.57,1435.84,1436.24,1436.98,1438.3,1439.52,1439.99,1439.55,1438.54,1436.6,1430.57,1422.6,1413.75,1404.32,1395.49,1388.75,1381.87,1373.38,1360.38,1326.54,1279.56,1248,1211.23,1186.41,1155.85,1138.98,1128.1,1122.2,1115.67,1108.18,1101.07,1094.3,1088.56,1083.83,1079.61,1075.62,1069.29,1062.8,1056.1,1050.77,1044.7,1037.51,1030.53,1022.51,1014.72,1005.63,1000,0,0,0,0,0,0,0,0,0,0,0,0,0,0,0,0,0,0,0,0,0,0,0,0,0,0,0,0,0,0,0,0,0,0,0,0,0,0,0,0,0,0,0,0,0,0,0,0,0,0,0,0,0,0,0,0,0,0,0,0,0,0,0,0,0,0,0,0,0,0,0,0,0,0,0,0,0,0,0,0,0,0,0,0,0,0,0,0,0,0,0,0,0,0,0,0,0,0,0,0,0,0,0,0,0,0,0,0,0,0,0,0,0,0,0,0,0,0,0,0,0,0,0,0,0,0,0,0,0,0,0,0,0,0,0,0,0,0,0,0,0,0,0,0,0,0,0,0,0,0,0,0,0,0,0,0,0,0,0,0,0,0,0,0,0,0,0,0,0,0,0,0,0,0,0,0,0,0,0,0,0,0,0,0,0,0,0,0,0,0,0,0,0,0,0,0,0,0,0,0,0,0,0,0,0,0,0,0,0,0,0,0,0,0,0,0,0,0,0,0,0,0,0,0,0,0,0,0,0,0,0,0,0,0,0,0,0,0,0,0,0,0,0,0
0,0,0,0,0,0,0,0,0,0,0,0,0,0,0,0,0,0,1484,1481.2,1469.16,1464.88,1458.22,1455.5,1450.82,1445.88,1443.07,1440.89,1440.22,1439.28,1439.08,1438.2,1437.65,1436.83,1435.83,1434.55,1432.88,1430.95,1429.48,1428.26,1427.28,1426.74,1426.69,1427.25,1428.67,1430.39,1432.82,1435.17,1437.72,1440.89,1444.48,1448.42,1452.95,1457.23,1460.52,1464.27,1466.83,1468.42,1469.64,1470.33,1469.56,1468.05,1466.34,1464.8,1463.35,1462.35,1460.89,1459.97,1459.69,1459.76,1460.41,1461.09,1461.81,1462.02,1461.78,1461.99,1461.64,1460.08,1459.28,1458.53,1457.48,1456.15,1455.44,1455.09,1454.66,1454.62,1454.89,1454.71,1455.33,1455.61,1455.66,1455.85,1456.18,1455.89,1455.21,1454.85,1454.42,1453.37,1452.87,1452.35,1451.12,1450.78,1450.61,1449.83,1448.78,1447.59,1446.37,1445.25,1443.42,1441.57,1440,1438.76,1438.01,1437.98,1438.18,1439.98,1442.28,1446.56,1451.45,1455.62,1459.27,1463.72,1467.83,1471.01,1472.96,1473.9,1472.79,1471.26,1469.69,1468.25,1467.48,1466.85,1465.74,1465.26,1465.55,1465.72,1466.18,1466.98,1467.53,1467.7,1467.63,1467.6,1467.23,1467.16,1466.98,1465.63,1463.57,1461.53,1459.23,1457.49,1455.77,1454.03,1452.16,1450.18,1448.99,1447.94,1447.2,1446.95,1446.34,1445.78,1444.95,1444.42,1444.07,1443.22,1443.27,1442.75,1442.49,1442.58,1443.19,1443.58,1444.51,1445.72,1447.16,1448.8,1451.3,1453.53,1456.18,1458.74,1462.68,1466.29,1469.37,1472.59,1474.41,1475.45,1476.28,1477.12,1476.4,1474.71,1473.22,1471.61,1469.54,1468.43,1466.98,1465.57,1463.39,1461.68,1460.45,1459.43,1457.97,1456.84,1455.88,1454.68,1453.72,1453.24,1453.21,1453.05,1452.64,1452.44,1452.4,1452.92,1453.3,1454.1,1455.15,1455.88,1456.88,1457.6,1458.44,1458.87,1458.32,1458.39,1459.09,1458.49,1457.52,1456.44,1455.22,1453.24,1451.68,1449.89,1448.12,1445.94,1444.32,1443.39,1442.68,1442.08,1441.49,1441.45,1441.28,1440.79,1440.56,1440.62,1440.52,1439.51,1438.85,1439,1439.34,1439.73,1439.27,1438.26,1437.16,1436.54,1436.37,1436.16,1436.03,1435.66,1436.15,1437.08,1439.01,1441.51,1444.38,1446.93,1449.32,1451.55,1453.64,1455.21,1456.82,1458.16,1458.61,1458.67,1458.11,1457.21,1456.38,1454.88,1452.96,1451.69,1450.54,1449.23,1447.55,1445.82,1443.95,1442.51,1441.02,1440.24,1438.46,1435.61,1433.5,1431.92,1431.03,1429.91,1428.91,1428.38,1427.04,1426.75,1427.02,1427.81,1428.68,1429.6,1431.44,1433.86,1436.22,1438.87,1441.61,1444.22,1446.8,1450.23,1454.17,1457.71,1460.25,1461.82,1463.9,1465.44,1467.09,1468.1,1467.78,1466.54,1464.48,1463.04,1461.91,1460.79,1460.26,1459.96,1459.81,1459.85,1459.62,1458.34,1458.55,1458.77,1459.17,1459.15,1459.88,1458.76,1457.24,1456.88,1456.55,1455.97,1453.85,1451.53,1449.33,1446.6,1445.48,1444.79,1443.83,1441.63,1439.83,1437.8,1436.03,1433.86,1431.65,1429.85,1428.22,1426.64,1426.47,1427.13,1428.13,1429.67,1430.83,1431.18,1430.74,1429.36,1427.68,1421.96,1414.13,1405.7,1396.18,1387.58,1381.28,1375.1,1367.89,1350.96,1315.25,1242,1203,1209.68,1174.67,1145.28,1131.62,1123.86,1118.35,1112.7,1105.36,1098.37,1091.71,1086.84,1082.47,1077.4,1073.86,1070.6,1060.43,1055.37,1050.09,1044.14,1037.16,1030.26,1022.68,1014.79,1006.19,1000.33,0,0,0,0,0,0,0,0,0,0,0,0,0,0,0,0,0,0,0,0,0,0,0,0,0,0,0,0,0,0,0,0,0,0,0,0,0,0,0,0,0,0,0,0,0,0,0,0,0,0,0,0,0,0,0,0,0,0,0,0,0,0,0,0,0,0,0,0,0,0,0,0,0,0,0,0,0,0,0,0,0,0,0,0,0,0,0,0,0,0,0,0,0,0,0,0,0,0,0,0,0,0,0,0,0,0,0,0,0,0,0,0,0,0,0,0,0,0,0,0,0,0,0,0,0,0,0,0,0,0,0,0,0,0,0,0,0,0,0,0,0,0,0,0,0,0,0,0,0,0,0,0,0,0,0,0,0,0,0,0,0,0,0,0,0,0,0,0,0,0,0,0,0,0,0,0,0,0,0,0,0,0,0,0,0,0,0,0,0,0,0,0,0,0,0,0,0,0,0,0,0,0,0,0,0,0,0,0,0,0,0,0,0,0,0,0,0,0,0,0,0,0,0,0,0,0,0,0,0,0,0,0,0,0,0,0,0,0,0,0,0,0,0,0
0,0,0,0,0,0,0,0,0,0,0,0,0,0,0,0,0,0,0,0,1471,1461.4,1450.02,1445.7,1442.2,1437.92,1435.33,1433.73,1432.44,1431.83,1431.07,1430.39,1429.1,1427.97,1426.32,1424.62,1422.75,1419.94,1418.14,1417.07,1415.84,1414.96,1414.78,1415.13,1416.13,1418.19,1420.25,1422.88,1424.99,1427.98,1431.19,1435.13,1439.43,1443.17,1446.64,1449.62,1452.63,1454.39,1455.92,1456.89,1456.66,1455.5,1454.28,1453.21,1452.1,1451.01,1450.21,1449.2,1448.53,1448.6,1448.88,1449.29,1449.69,1449.17,1449.1,1448.67,1447.5,1446.09,1444.98,1443.48,1442.13,1440.77,1440.3,1439.83,1439.72,1439.81,1440.33,1440.61,1441.29,1441.86,1442.39,1443.04,1443.43,1443.28,1443.21,1442.66,1442.5,1441.73,1440.97,1440.04,1439.14,1437.82,1437.38,1436.25,1434.59,1432.89,1430.99,1429.09,1427.38,1425.55,1423.78,1422.22,1421.44,1421.28,1421.81,1423.58,1426.38,1430.75,1435.75,1440.33,1444.73,1449.27,1453.23,1456.35,1457.98,1458.38,1457.89,1456.61,1455.01,1453.72,1452.27,1451.25,1450.6,1450.45,1450.89,1451.13,1451.72,1452.67,1453.62,1453.74,1453.62,1453.6,1453.65,1453.53,1453.22,1451.8,1450.33,1448.65,1446.76,1445.29,1443.41,1441.97,1439.96,1437.63,1436.93,1436.02,1435.24,1435.12,1434.35,1433.7,1432.59,1431.89,1431.51,1430.39,1429.84,1429.33,1428.81,1428.54,1428.94,1429.22,1429.95,1431.01,1432.23,1433.73,1436.26,1438.99,1441.11,1444.26,1447.7,1451.11,1454.35,1457.63,1459.8,1461.15,1462.82,1464.23,1464.47,1463.33,1462.15,1460.81,1459.48,1458.32,1457.07,1455.41,1453.06,1451.09,1449.94,1448.97,1447.71,1446.78,1445.96,1444.93,1444.2,1444.31,1444.59,1444.66,1444.52,1444.3,1444.14,1444.62,1445.02,1445.54,1445.64,1445.7,1445.6,1445.45,1445.5,1445.03,1444.11,1443.66,1443.45,1442.65,1441.9,1440.95,1439.81,1438.46,1436.92,1435.42,1434.17,1432.05,1430.87,1429.72,1428.97,1427.99,1427.4,1427.17,1426.86,1426.66,1426.04,1425.76,1425.53,1425.37,1424.63,1424.81,1425.03,1425.48,1425.28,1425.07,1424.05,1423.79,1423.31,1423.48,1423.51,1423.98,1424.73,1426.08,1428.33,1431,1434.25,1437.46,1440.22,1442.48,1444.33,1445.9,1447.5,1448.54,1449.04,1449.07,1448.23,1447.37,1446.41,1444.73,1442.74,1441.04,1440.14,1438.69,1437.68,1435.91,1434.55,1433.09,1431.7,1431.17,1429.67,1427.14,1424.22,1422.43,1420.72,1418.9,1417.91,1417,1415.78,1415.15,1415.23,1416.25,1417.22,1418.61,1420.19,1422.37,1424.55,1426.74,1429.12,1431.69,1434.11,1437.34,1441.1,1445.12,1447.34,1449.21,1451.48,1453.52,1454.89,1456.97,1456.89,1455.32,1453.16,1451.56,1450.75,1449.7,1449.06,1448.46,1447.54,1447.36,1446.64,1445.36,1445.2,1445.28,1445.7,1446.1,1446.98,1445.84,1444.41,1444.02,1443.79,1442.88,1440.95,1438.78,1436.25,1433.64,1432.9,1432.09,1431.18,1429.35,1427.39,1425.58,1423.94,1422.17,1420.35,1418.92,1417.64,1416.32,1416.28,1416.76,1418.1,1419.77,1420.71,1420.91,1419.93,1418.96,1416.71,1411.19,1403.91,1395.23,1386.14,1377.82,1371.33,1364.7,1357.4,1341.88,1304.1,1268.22,1220.33,1187.25,1167.23,1139.35,1126.91,1120.56,1115.61,1109.91,1103.03,1095.98,1089.48,1084.6,1079.33,1075.53,1072.09,1069.18,1060.39,1055.42,1049.1,1043.29,1036.61,1030.05,1022.79,1015.36,1007.39,1000.59,0,0,0,0,0,0,0,0,0,0,0,0,0,0,0,0,0,0,0,0,0,0,0,0,0,0,0,0,0,0,0,0,0,0,0,0,0,0,0,0,0,0,0,0,0,0,0,0,0,0,0,0,0,0,0,0,0,0,0,0,0,0,0,0,0,0,0,0,0,0,0,0,0,0,0,0,0,0,0,0,0,0,0,0,0,0,0,0,0,0,0,0,0,0,0,0,0,0,0,0,0,0,0,0,0,0,0,0,0,0,0,0,0,0,0,0,0,0,0,0,0,0,0,0,0,0,0,0,0,0,0,0,0,0,0,0,0,0,0,0,0,0,0,0,0,0,0,0,0,0,0,0,0,0,0,0,0,0,0,0,0,0,0,0,0,0,0,0,0,0,0,0,0,0,0,0,0,0,0,0,0,0,0,0,0,0,0,0,0,0,0,0,0,0,0,0,0,0,0,0,0,0,0,0,0,0,0,0,0,0,0,0,0,0,0,0,0,0,0,0,0,0,0,0,0,0,0,0,0,0,0,0,0,0,0,0,0,0,0,0,0,0,0,0
0,0,0,0,0,0,0,0,0,0,0,0,0,0,0,0,0,0,0,0,1459,1442.5,1438,1435.55,1433.53,1430.78,1428.61,1427.05,1425.46,1424.84,1423.57,1422.68,1421.31,1419.66,1417.6,1415.19,1412.87,1410.07,1408.02,1406.13,1405.19,1404.24,1404.06,1404.06,1405.13,1406.48,1408.54,1410.59,1412.58,1415.15,1417.99,1421.37,1425.7,1428.96,1431.78,1434.96,1437.52,1439.28,1441.08,1442.14,1442.32,1441.35,1440.48,1439.54,1439.07,1438.72,1438.11,1437.24,1436.88,1436.87,1437.3,1437.94,1438.13,1437,1436.24,1435.17,1433.96,1431.99,1430.36,1428.71,1426.74,1425.43,1424.82,1424.74,1424.95,1425.53,1426.38,1426.88,1427.67,1428.65,1429.4,1430.08,1430.82,1431.07,1431.45,1431.21,1430.98,1430.67,1429.65,1428.72,1427.22,1425.18,1424.09,1422.24,1420.1,1418.04,1415.3,1413.14,1410.74,1408.37,1406.47,1404.68,1403.65,1403.41,1403.56,1405.44,1408.06,1412.52,1417.42,1422.31,1426.77,1432.13,1436.13,1438.88,1440.89,1441.6,1441.34,1440.33,1438.95,1437.87,1436.49,1435.51,1435.09,1435.07,1435.52,1436.32,1436.84,1438.04,1439,1439.28,1439.29,1439.05,1439.24,1439.27,1439.1,1437.64,1436.24,1434.97,1433.13,1431.73,1430.4,1428.99,1427.13,1425.61,1425.19,1424.83,1423.97,1423.74,1423.01,1422.5,1421.53,1420.9,1420.04,1419.02,1418.2,1417.48,1416.73,1416.29,1416.05,1416.46,1416.68,1417.48,1418.63,1420.08,1422.06,1424.44,1426.63,1429.68,1432.76,1436.24,1439.56,1442.87,1445.28,1447.27,1449.44,1451.14,1451.92,1451.53,1450.94,1450.35,1449.41,1448.46,1447.13,1445.61,1443.11,1441.36,1440.37,1439.22,1438.06,1437.03,1436.43,1435.98,1435.64,1435.76,1436.05,1436.23,1436.71,1436.85,1436.67,1436.68,1436.2,1436.14,1435.5,1434.4,1433.3,1432.06,1431.03,1430.24,1428.88,1428.26,1427.91,1427.08,1426.29,1425.54,1424.54,1423.64,1422.69,1421.6,1420.63,1418.94,1417.64,1416.41,1415.44,1414.31,1413.46,1413.21,1412.7,1412.01,1411.25,1410.72,1410.51,1410.08,1409.86,1409.74,1410.11,1410.78,1410.91,1411.42,1411.03,1411,1411.04,1411.25,1412.05,1412.88,1413.84,1415.55,1417.98,1420.73,1424.04,1427.73,1430.36,1432.77,1434.67,1436.17,1437.65,1438.55,1439.09,1438.53,1437.58,1437.01,1435.85,1434.22,1432.26,1430.4,1429.42,1428.4,1427.47,1425.84,1424.68,1423.09,1421.85,1421.13,1419.64,1416.7,1413.96,1411.54,1409.73,1408.03,1406.59,1405.77,1404.35,1403.86,1404.03,1405.03,1405.85,1407.14,1409.04,1410.62,1412.63,1414.62,1416.93,1418.98,1420.96,1423.89,1427.47,1431.28,1433.73,1435.84,1437.87,1440.28,1442.39,1444.64,1444.99,1443.89,1441.51,1440.5,1439.69,1438.7,1437.07,1436.2,1434.75,1433.77,1432.85,1431.39,1431.45,1431.48,1432.1,1432.72,1433.95,1433.5,1432.28,1431.41,1431.13,1430.15,1428.21,1425.43,1423.75,1421,1420.27,1419.65,1418.62,1416.92,1415.28,1413.7,1412.02,1410.59,1408.89,1407.36,1406.52,1405.49,1405.58,1405.79,1407.72,1409.39,1410.1,1409.62,1408.78,1407.63,1405.58,1400.34,1393.35,1384.93,1375.68,1367.33,1360.91,1354.56,1347.5,1333.19,1297.18,1258.28,1226.42,1189.33,1168.35,1139.78,1126.32,1119.43,1113.96,1108.01,1101.48,1094.08,1088.1,1082.99,1077.45,1073.4,1070.47,1066.29,1058.78,1052.98,1048.03,1041.99,1035.47,1028.91,1022.34,1016.06,1008.84,1001.28,1000,0,0,0,0,0,0,0,0,0,0,0,0,0,0,0,0,0,0,0,0,0,0,0,0,0,0,0,0,0,0,0,0,0,0,0,0,0,0,0,0,0,0,0,0,0,0,0,0,0,0,0,0,0,0,0,0,0,0,0,0,0,0,0,0,0,0,0,0,0,0,0,0,0,0,0,0,0,0,0,0,0,0,0,0,0,0,0,0,0,0,0,0,0,0,0,0,0,0,0,0,0,0,0,0,0,0,0,0,0,0,0,0,0,0,0,0,0,0,0,0,0,0,0,0,0,0,0,0,0,0,0,0,0,0,0,0,0,0,0,0,0,0,0,0,0,0,0,0,0,0,0,0,0,0,0,0,0,0,0,0,0,0,0,0,0,0,0,0,0,0,0,0,0,0,0,0,0,0,0,0,0,0,0,0,0,0,0,0,0,0,0,0,0,0,0,0,0,0,0,0,0,0,0,0,0,0,0,0,0,0,0,0,0,0,0,0,0,0,0,0,0,0,0,0,0,0,0,0,0,0,0,0,0,0,0,0,0,0,0,0,0,0,0
0,0,0,0,0,0,0,0,0,0,0,0,0,0,0,0,0,0,0,0,1449,1454.5,1429,1422.83,1423.77,1422.67,1421.01,1419.63,1418.14,1417.46,1416.66,1415.46,1413.56,1411.95,1409.87,1407.1,1404.71,1401.63,1399.19,1397.81,1396.02,1395.02,1394.97,1394.94,1395.64,1396.74,1398.33,1399.99,1401.82,1403.85,1405.93,1408.79,1411.95,1414.62,1417.21,1419.35,1421.69,1423.51,1425.28,1426.33,1426.47,1426.12,1425.62,1425.59,1425.57,1425.56,1425.48,1425.12,1425.06,1425.18,1425.49,1425.92,1425.94,1425.05,1423.55,1422.28,1420.55,1418.81,1416.55,1414.76,1413.11,1411.59,1411.19,1411.49,1411.68,1412.44,1413.47,1414.46,1415.76,1416.68,1417.77,1418.44,1419.54,1420.11,1420.56,1420.6,1420.15,1419.71,1419.08,1417.73,1415.87,1413.95,1412.15,1409.78,1407.27,1404.2,1401.28,1398.5,1395.94,1393.62,1391.89,1389.82,1388.46,1387.63,1387.92,1389.73,1391.7,1395.21,1399.74,1404.01,1408.69,1413.24,1417.32,1420.25,1422.56,1423.62,1423.53,1422.97,1422.44,1421.59,1420.25,1419.53,1419.16,1419.17,1419.7,1420.49,1421.48,1422.63,1423.49,1424.19,1424.25,1424.46,1424.62,1424.71,1424.26,1423.22,1422.15,1421.11,1419.84,1419.17,1417.72,1416.71,1415.22,1414.44,1414.2,1413.88,1413.13,1412.92,1412.55,1412.2,1411.28,1410.36,1409.17,1408,1406.89,1405.8,1405.03,1404.59,1404.31,1404.53,1404.64,1405.43,1406.33,1407.61,1409.38,1411.09,1413.52,1416.15,1419.18,1422.2,1425.02,1428.14,1431.17,1434.2,1436.86,1438.86,1440.56,1440.74,1440.87,1441.18,1440.33,1439.49,1437.88,1436.05,1434.08,1432.53,1431.44,1430.7,1429.48,1428.63,1427.76,1427.66,1427.61,1428.02,1428.22,1428.59,1429.13,1429.24,1428.8,1428.44,1427.1,1426.11,1424.78,1422.94,1420.7,1418.91,1417.37,1416.12,1415.14,1414.25,1413.45,1412.63,1411.87,1411.23,1410.16,1409.62,1408.84,1408.13,1407.25,1405.84,1404.81,1403.29,1402.46,1401.17,1400.52,1400.19,1399.58,1398.83,1397.68,1397.11,1396.55,1396.16,1395.86,1395.85,1395.99,1396.79,1397.62,1398.14,1398.72,1399.31,1399.35,1400.14,1401.14,1402.53,1404.25,1406.02,1408.22,1411.02,1414.29,1417.99,1420.73,1423.14,1424.99,1426.36,1427.44,1428.36,1429.34,1428.55,1427.74,1426.85,1425.33,1423.54,1421.32,1419.59,1418.73,1417.18,1416.64,1415.12,1413.56,1412.28,1411.06,1410.25,1408.93,1405.95,1403.02,1400.46,1398.81,1397.05,1395.93,1394.54,1392.92,1392.34,1392.35,1393.02,1393.95,1394.67,1396.56,1398.01,1399.77,1401.58,1403.68,1405.47,1407.26,1410.12,1413.37,1416.72,1418.89,1420.75,1423.65,1425.92,1427.88,1430.87,1431.25,1430.65,1429.24,1428.16,1426.96,1425.48,1424.22,1422.55,1420.82,1419.69,1418.05,1417.38,1417.2,1417.27,1417.6,1418.51,1419.71,1419.44,1418.27,1417.86,1417.5,1416.66,1414.84,1413.25,1411.24,1408.66,1407.88,1407.47,1406.25,1404.75,1403.32,1401.66,1400.12,1398.91,1397.26,1395.96,1395.08,1394.22,1394.62,1395.08,1397.35,1399.94,1400.42,1399.94,1399.03,1397.46,1395.29,1390.34,1384.17,1375.73,1365.83,1358.23,1352.66,1346.44,1339.74,1325.74,1295.61,1265.48,1227.54,1203.67,1175.48,1146.56,1131.02,1121.5,1114.46,1106.59,1099.11,1092.27,1085.56,1080.91,1075.56,1072.1,1068.72,1065.24,1061.43,1051.3,1046.63,1040.46,1034.29,1028.2,1022.18,1016.77,1010.29,1002.77,1000.52,1000,0,0,0,0,0,0,0,0,0,0,0,0,0,0,0,0,0,0,0,0,0,0,0,0,0,0,0,0,0,0,0,0,0,0,0,0,0,0,0,0,0,0,0,0,0,0,0,0,0,0,0,0,0,0,0,0,0,0,0,0,0,0,0,0,0,0,0,0,0,0,0,0,0,0,0,0,0,0,0,0,0,0,0,0,0,0,0,0,0,0,0,0,0,0,0,0,0,0,0,0,0,0,0,0,0,0,0,0,0,0,0,0,0,0,0,0,0,0,0,0,0,0,0,0,0,0,0,0,0,0,0,0,0,0,0,0,0,0,0,0,0,0,0,0,0,0,0,0,0,0,0,0,0,0,0,0,0,0,0,0,0,0,0,0,0,0,0,0,0,0,0,0,0,0,0,0,0,0,0,0,0,0,0,0,0,0,0,0,0,0,0,0,0,0,0,0,0,0,0,0,0,0,0,0,0,0,0,0,0,0,0,0,0,0,0,0,0,0,0,0,0,0,0,0,0,0,0,0,0,0,0,0,0,0,0,0,0,0,0,0,0,0
0,0,0,0,0,0,0,0,0,0,0,0,0,0,0,0,0,0,0,0,0,1435,1409.62,1408.09,1413.23,1413.64,1412.49,1411.37,1410.24,1409.63,1409.06,1408.26,1406.59,1404.8,1402.77,1400.18,1397.95,1394.91,1392.84,1390.83,1389.01,1388.25,1387.91,1387.71,1388.26,1388.81,1389.91,1390.98,1391.96,1393.24,1394.73,1396.42,1398.53,1400,1401.88,1403.98,1405.11,1407,1408.43,1409.46,1409.98,1410.03,1410.4,1411.19,1412.08,1413.08,1413.27,1413.35,1413.44,1413.97,1414.33,1414.5,1414.95,1413.42,1411.66,1410.2,1408.32,1406.57,1404.26,1402.45,1400.57,1399.18,1399.13,1399.37,1399.85,1401.25,1402.08,1403.12,1404.71,1405.77,1407.2,1407.96,1408.89,1409.48,1410.07,1410.25,1410.34,1409.87,1409.1,1407.58,1405.9,1403.69,1401.42,1398.9,1396.02,1392.86,1389.42,1386.04,1382.98,1380.19,1377.59,1375.62,1373.87,1372.86,1372.72,1374.29,1376.19,1379.31,1383.22,1386.91,1390.92,1395.28,1398.62,1401.32,1403.28,1404.4,1404.8,1404.89,1404.88,1404.36,1403.18,1402.82,1402.84,1403.26,1403.91,1404.72,1405.87,1406.96,1408.04,1408.76,1409.02,1409.49,1409.91,1410.01,1409.55,1408.69,1408.14,1407.63,1406.87,1406.24,1405.53,1404.4,1403.51,1402.92,1403,1402.92,1401.9,1401.2,1401.12,1400.56,1399.8,1398.65,1397.48,1396.11,1394.96,1394.23,1393.54,1393,1392.53,1392.87,1392.85,1393.61,1394.39,1395.41,1397,1398.6,1400.63,1403.02,1405.48,1408.44,1411.13,1414.27,1417.72,1420.95,1424.06,1426.82,1428.9,1430.08,1430.76,1431.52,1431.18,1430.7,1428.87,1427.42,1425.34,1424.08,1423.26,1422.28,1421.07,1420.1,1419.49,1419.64,1419.71,1419.93,1419.88,1420.5,1421.07,1420.91,1420.24,1419.14,1417.81,1416.17,1414.3,1411.85,1408.97,1406.53,1404.86,1403.52,1402.31,1401.16,1400.35,1399.13,1398.65,1398.01,1397.4,1396.87,1396.07,1395.14,1394.52,1393.51,1392.5,1391.45,1390.42,1389.97,1389.2,1389.17,1388.91,1388.01,1387.07,1387.05,1386.96,1386.89,1386.53,1386.43,1386.7,1386.73,1387.03,1387.9,1388.35,1388.88,1388.98,1389.82,1391.01,1392.68,1394.91,1396.72,1399.24,1401.92,1405.6,1408.87,1411.59,1414.1,1415.1,1416.47,1417.84,1418.22,1418.78,1417.76,1416.51,1415.69,1413.94,1411.76,1409.59,1407.67,1406.3,1405.45,1404.81,1403.48,1401.47,1400.41,1399.34,1398.54,1397.24,1394.45,1391.49,1389.39,1387.77,1386.02,1385.24,1383.99,1382.35,1381.63,1381.33,1381.84,1382.56,1383.13,1384.29,1385.46,1387,1388.57,1390.08,1391.95,1393.06,1395.64,1399,1402.27,1403.73,1405.95,1408.5,1410.49,1412.4,1414.92,1415.46,1414.64,1413.65,1412.52,1411.09,1409.78,1408.23,1406.84,1404.88,1403.64,1402.78,1401.9,1401.95,1402.58,1403,1403.78,1405.57,1405.48,1404.68,1404.06,1403.79,1403.33,1402.07,1400.69,1398.5,1396.54,1395.75,1395.46,1394.32,1392.84,1391.42,1389.17,1387.9,1386.76,1385.16,1384.23,1383.43,1383.4,1383.61,1384.48,1387.04,1390.06,1390.63,1390.27,1389.3,1388.08,1385.86,1381.06,1375.37,1366.32,1357.28,1350.35,1345.05,1338.66,1332.02,1319.96,1295.59,1267.36,1228.43,1214.78,1187.79,1159.15,1139.93,1126.77,1117.21,1107.06,1098.18,1090.72,1084.27,1079.55,1074.47,1069.66,1066.04,1063.07,1058.52,1049.37,1044.3,1038.35,1032.85,1027.29,1021.8,1017.19,1011.48,1004.57,1001.57,1000.31,0,0,0,0,0,0,0,0,0,0,0,0,0,0,0,0,0,0,0,0,0,0,0,0,0,0,0,0,0,0,0,0,0,0,0,0,0,0,0,0,0,0,0,0,0,0,0,0,0,0,0,0,0,0,0,0,0,0,0,0,0,0,0,0,0,0,0,0,0,0,0,0,0,0,0,0,0,0,0,0,0,0,0,0,0,0,0,0,0,0,0,0,0,0,0,0,0,0,0,0,0,0,0,0,0,0,0,0,0,0,0,0,0,0,0,0,0,0,0,0,0,0,0,0,0,0,0,0,0,0,0,0,0,0,0,0,0,0,0,0,0,0,0,0,0,0,0,0,0,0,0,0,0,0,0,0,0,0,0,0,0,0,0,0,0,0,0,0,0,0,0,0,0,0,0,0,0,0,0,0,0,0,0,0,0,0,0,0,0,0,0,0,0,0,0,0,0,0,0,0,0,0,0,0,0,0,0,0,0,0,0,0,0,0,0,0,0,0,0,0,0,0,0,0,0,0,0,0,0,0,0,0,0,0,0,0,0,0,0,0,0,0
0,0,0,0,0,0,0,0,0,0,0,0,0,0,0,0,0,0,0,0,0,1415.5,1400.5,1396.59,1402.66,1402.85,1402.12,1401.27,1400.5,1400.12,1399.71,1398.92,1397.38,1395.74,1393.5,1391.41,1389.13,1386.44,1384.28,1382.17,1380.84,1379.97,1379.63,1379.42,1379.66,1379.78,1380.49,1380.87,1381.31,1381.68,1382.38,1383.37,1384.59,1385.47,1386.63,1387.96,1388.9,1390.12,1391.83,1392.99,1393.84,1394.66,1395.8,1397.34,1399.35,1401.02,1402.15,1402.55,1402.85,1403.63,1403.81,1403.66,1403.06,1401.61,1399.41,1397.84,1396.16,1394.43,1392.37,1390.65,1389.43,1388.33,1388.48,1389,1389.7,1390.95,1392.2,1393.81,1395.61,1396.94,1398.28,1399.31,1400.85,1401.42,1402.04,1402.53,1402.28,1401.85,1400.75,1398.98,1397.06,1394.4,1392.08,1389.48,1385.93,1382.55,1378.95,1374.97,1371.55,1368.11,1365.01,1362.65,1360.78,1359.35,1358.89,1360.17,1362,1364.62,1368.11,1371.37,1374.98,1378.67,1381.45,1383.68,1385.37,1386.51,1387.39,1387.79,1387.68,1387.56,1387.04,1387,1387.24,1387.66,1388.37,1389.37,1390.34,1391.45,1392.65,1393.41,1393.89,1394.54,1395,1395.28,1395.25,1394.69,1394.17,1394.2,1393.85,1393.36,1393.01,1392.32,1391.5,1391.02,1391.57,1391.19,1390.21,1389.61,1389.36,1389.09,1388.35,1387.62,1386.36,1385.39,1384.58,1383.77,1383.44,1382.99,1382.66,1383.01,1383.25,1383.92,1384.13,1384.88,1386.02,1387.22,1388.75,1390.7,1392.92,1395.66,1398.02,1401.57,1404.76,1408.09,1411.67,1414.84,1417.44,1419.09,1420.53,1421.9,1422.01,1421.54,1420.52,1419.38,1417.87,1416.87,1416.38,1415.37,1414.01,1412.8,1412.38,1412.27,1411.78,1411.43,1411.26,1411.41,1411.52,1410.79,1409.77,1408.71,1406.48,1404.63,1402.4,1399.58,1396.49,1393.85,1392.13,1390.92,1389.6,1388.21,1387.33,1386.31,1385.9,1384.96,1384.47,1383.84,1383.08,1382.48,1382.09,1381.44,1380.43,1379.69,1378.8,1378.67,1378.19,1378.16,1379.2,1378.66,1378.22,1378.36,1378.44,1378.46,1378.32,1378.5,1378.27,1377.1,1377.33,1377.97,1377.95,1378.44,1378.85,1379.36,1380.23,1382.27,1384.25,1385.91,1388.15,1390.88,1394.16,1396.97,1399.49,1401.36,1402.74,1403.37,1404.15,1404.52,1404.63,1403.31,1402.01,1400.81,1398.88,1396.78,1394.36,1392.79,1391.4,1390.51,1390.08,1389.32,1388.05,1387.24,1386.1,1385.8,1384.57,1382.71,1380.01,1378.02,1376.65,1375.04,1374.04,1372.81,1371.24,1370.14,1369.56,1369.74,1369.84,1370.33,1371.53,1372.85,1374.11,1375.44,1377.31,1378.67,1379.88,1382.68,1385.72,1387.97,1389.53,1391.44,1393.45,1395.16,1396.88,1399.27,1399.61,1398.54,1396.95,1395.78,1394.69,1393.66,1392.28,1390.92,1389.18,1388.32,1387.63,1387.19,1387.54,1389.04,1389.57,1390.92,1392.38,1392.44,1392.14,1391.83,1391.7,1391.53,1390.89,1389.99,1389.09,1387.99,1387.3,1386.81,1386.04,1384.97,1383.25,1381.54,1378.88,1377.69,1376.5,1375.06,1374.04,1373.71,1374.31,1375.08,1378.03,1381.41,1381.71,1381.13,1380.22,1379.02,1376.62,1372,1365.99,1357.91,1349.52,1343.17,1337.85,1331.65,1324.87,1313.84,1291.31,1269.17,1242,1222.47,1199.95,1173.49,1152.38,1135.42,1122.79,1109.95,1099.12,1090.29,1083.13,1077.07,1072.26,1068.13,1063.64,1059.93,1051.33,1047.22,1042.12,1036.62,1031.43,1026.05,1021.31,1017.32,1012.35,1006.52,1002.59,1000.77,1000,0,0,0,0,0,0,0,0,0,0,0,0,0,0,0,0,0,0,0,0,0,0,0,0,0,0,0,0,0,0,0,0,0,0,0,0,0,0,0,0,0,0,0,0,0,0,0,0,0,0,0,0,0,0,0,0,0,0,0,0,0,0,0,0,0,0,0,0,0,0,0,0,0,0,0,0,0,0,0,0,0,0,0,0,0,0,0,0,0,0,0,0,0,0,0,0,0,0,0,0,0,0,0,0,0,0,0,0,0,0,0,0,0,0,0,0,0,0,0,0,0,0,0,0,0,0,0,0,0,0,0,0,0,0,0,0,0,0,0,0,0,0,0,0,0,0,0,0,0,0,0,0,0,0,0,0,0,0,0,0,0,0,0,0,0,0,0,0,0,0,0,0,0,0,0,0,0,0,0,0,0,0,0,0,0,0,0,0,0,0,0,0,0,0,0,0,0,0,0,0,0,0,0,0,0,0,0,0,0,0,0,0,0,0,0,0,0,0,0,0,0,0,0,0,0,0,0,0,0,0,0,0,0,0,0,0,0,0,0,0,0
0,0,0,0,0,0,0,0,0,0,0,0,0,0,0,0,0,0,0,0,0,1399,1392.62,1387.85,1391.59,1391.39,1391.34,1390.55,1389.73,1388.83,1388.65,1387.54,1386.22,1384.61,1382.23,1380.23,1378.29,1375.18,1373.16,1371.43,1370.02,1368.8,1368.39,1368.05,1367.88,1367.81,1367.99,1368.11,1368.02,1368.25,1368.8,1369.83,1370.81,1371.01,1372.12,1372.93,1373.9,1374.92,1376.57,1378.12,1379.5,1380.72,1382.58,1384.88,1387.07,1389.28,1390.39,1391.14,1391.49,1391.77,1391.97,1391.5,1390.92,1389.47,1387.32,1385.96,1384.6,1383.2,1381.71,1380.55,1379.65,1379.13,1379.54,1380.63,1381.53,1382.93,1384.2,1385.55,1387.84,1389.29,1390.52,1391.8,1392.79,1393.34,1394.03,1394.61,1394.53,1393.73,1392.49,1390.34,1388.07,1385.25,1383.42,1380.21,1376.43,1372.93,1368.34,1364.05,1360.14,1356.67,1353.78,1350.89,1348.6,1347.18,1346.26,1347.14,1348.79,1350.82,1353.16,1355.73,1358.82,1361.52,1364.26,1366.33,1368.12,1369.52,1370.56,1371.05,1371.61,1371.64,1371.36,1371.73,1371.96,1372.65,1373.6,1374.25,1375.64,1376.9,1378.22,1379.33,1379.84,1380.35,1381.06,1381.51,1381.59,1381.62,1381.41,1381.43,1381.46,1381.6,1381.42,1380.86,1380.35,1380.1,1380.36,1380,1379.36,1378.76,1378.96,1378.39,1378.15,1377.6,1376.53,1375.84,1375.13,1374.56,1374.3,1373.88,1373.66,1373.89,1374.2,1374.65,1375.23,1375.73,1376.43,1377.61,1378.98,1380.27,1382.02,1384.18,1386.01,1388.93,1391.88,1395.45,1398.98,1402.18,1405.06,1407.34,1409.02,1411.15,1412.06,1412.39,1411.91,1411.4,1410.49,1409.55,1408.79,1407.92,1407.01,1405.53,1404.45,1404.12,1403.1,1402.29,1401.72,1401.03,1400.72,1399.89,1398.42,1397,1394.74,1392.29,1390.06,1387.3,1384.48,1382.04,1380.25,1379.16,1377.78,1376.35,1375.36,1374.01,1373.44,1372.8,1372.28,1371.42,1370.61,1370.1,1370.03,1369.42,1368.89,1368.16,1367.46,1367.12,1366.84,1367.03,1368.14,1368.17,1367.65,1368.16,1368.45,1368.76,1368.53,1368.87,1368.56,1366.93,1367.1,1367.52,1367.19,1367.43,1367.84,1368.26,1369.19,1371.49,1373.37,1375.26,1377.35,1380.06,1383.57,1386,1387.68,1389.26,1389.84,1390.52,1391.3,1391.34,1390.46,1388.21,1386.5,1385.42,1383.61,1381.49,1379.83,1377.84,1376.83,1376.32,1376.27,1375.84,1374.74,1374.3,1373.44,1373.26,1372.35,1370.4,1368.22,1366.5,1365.2,1363.69,1362.84,1361.53,1360.02,1358.98,1358.61,1358.28,1358.34,1358.52,1359.43,1360.63,1361.95,1363.27,1364.77,1365.9,1367.43,1370.24,1373.2,1375.5,1376.84,1378.52,1380.08,1381.45,1383.17,1385.15,1385.06,1383.95,1383.01,1381.83,1381.07,1380.36,1379.07,1378.02,1376.57,1375.81,1375.46,1375.25,1375.47,1376.87,1377.79,1378.69,1380.27,1380.72,1380.72,1380.67,1380.73,1381.17,1380.93,1380.61,1380.05,1379.38,1379.1,1378.83,1378.01,1377.02,1375.52,1373.26,1370.36,1369.06,1367.81,1366.35,1364.76,1363.99,1364.14,1364.98,1367.89,1371.87,1372.51,1371.75,1370.4,1369.44,1366.97,1362.76,1357.58,1350.28,1341.76,1335.59,1330.72,1325.05,1318.67,1308.33,1289.2,1271.36,1256.6,1238.14,1210.95,1186.67,1167.38,1148.08,1131.62,1117.43,1104.17,1093.95,1084.49,1077.41,1070.86,1066.87,1062.24,1059.08,1052.3,1046.49,1041.14,1035.89,1030.61,1025.23,1021.01,1017.12,1012.19,1006.54,1002.57,1000.93,1000.3,0,0,0,0,0,0,0,0,0,0,0,0,0,0,0,0,0,0,0,0,0,0,0,0,0,0,0,0,0,0,0,0,0,0,0,0,0,0,0,0,0,0,0,0,0,0,0,0,0,0,0,0,0,0,0,0,0,0,0,0,0,0,0,0,0,0,0,0,0,0,0,0,0,0,0,0,0,0,0,0,0,0,0,0,0,0,0,0,0,0,0,0,0,0,0,0,0,0,0,0,0,0,0,0,0,0,0,0,0,0,0,0,0,0,0,0,0,0,0,0,0,0,0,0,0,0,0,0,0,0,0,0,0,0,0,0,0,0,0,0,0,0,0,0,0,0,0,0,0,0,0,0,0,0,0,0,0,0,0,0,0,0,0,0,0,0,0,0,0,0,0,0,0,0,0,0,0,0,0,0,0,0,0,0,0,0,0,0,0,0,0,0,0,0,0,0,0,0,0,0,0,0,0,0,0,0,0,0,0,0,0,0,0,0,0,0,0,0,0,0,0,0,0,0,0,0,0,0,0,0,0,0,0,0,0,0,0,0,0,0,0
0,0,0,0,0,0,0,0,0,0,0,0,0,0,0,0,0,0,0,0,0,1401,1384,1376.6,1379.45,1378.92,1378.61,1377.92,1377.17,1376.76,1376.57,1375.83,1374.69,1373.1,1371.27,1369.02,1367.23,1364.51,1362.33,1360.61,1359.11,1357.96,1357.34,1356.69,1356.42,1355.95,1355.91,1355.66,1355.52,1355.76,1356.22,1356.78,1357.08,1357.51,1358.35,1359.33,1360.2,1361.42,1363.14,1364.82,1366.43,1368.45,1370.84,1373.09,1375.54,1377.74,1378.99,1379.36,1379.39,1379.51,1379.45,1378.88,1378.54,1377.35,1375.44,1374.12,1373.28,1372.41,1371.32,1370.42,1370.15,1370.14,1370.91,1372.06,1373.34,1374.6,1376.11,1377.75,1379.61,1380.95,1382.43,1383.28,1384.18,1384.69,1384.92,1385.42,1385.09,1383.75,1382.66,1380.62,1378.03,1375.39,1373.03,1369.95,1366.51,1362.42,1358.37,1353.98,1349.95,1346.49,1343.98,1341.1,1338.63,1337.01,1336.23,1336.43,1337.4,1338.68,1340.32,1341.94,1344.28,1346.12,1348.27,1350.23,1351.63,1352.88,1354.19,1355.12,1356.06,1356.12,1356.07,1356.5,1357.04,1357.78,1358.63,1359.46,1360.64,1361.69,1363.24,1364.28,1365.18,1366.07,1366.6,1367.51,1367.94,1368.08,1368.52,1368.76,1369.46,1369.71,1369.9,1369.57,1368.99,1369.08,1369.07,1368.74,1368.38,1368.25,1367.98,1367.82,1368.06,1367.96,1367.29,1366.28,1365.81,1365.44,1365.66,1365.34,1365.2,1365.16,1365.29,1365.88,1365.98,1366.51,1366.99,1367.74,1368.7,1369.55,1370.8,1372.42,1374.15,1376.54,1379.22,1382.44,1385.45,1388.81,1391.98,1394.56,1396.69,1399.34,1401.17,1402.11,1402.7,1402.93,1402.23,1401.53,1400.85,1399.83,1398.19,1396.55,1394.85,1393.81,1392.3,1391.2,1390.29,1389.33,1388.33,1387.43,1385.99,1384.28,1382.05,1379.92,1377.72,1374.76,1371.94,1369.39,1367.41,1366.65,1365.28,1363.78,1362.11,1361.26,1360.72,1360.26,1359.65,1359.17,1358.6,1358.09,1358.08,1358.21,1357.89,1357.66,1357.34,1356.55,1356.31,1356.87,1357.89,1357.86,1357.62,1358.08,1358.62,1358.86,1359.25,1359.5,1359.36,1357.72,1357.84,1358.05,1358.11,1357.93,1358.05,1358.41,1359.1,1361.16,1362.75,1364.28,1366.22,1368.53,1372.02,1373.83,1374.96,1376.05,1376.36,1376.3,1376.43,1376.24,1375.28,1372.97,1371.42,1370.15,1368.07,1366.31,1364.38,1362.83,1361.68,1361.32,1361.18,1361.16,1360.47,1360.14,1359.63,1359.72,1359.21,1357.63,1356.27,1354.92,1353.9,1352.6,1351.87,1350.96,1349.75,1348.76,1348.27,1348.09,1347.77,1348.07,1349,1349.9,1351.01,1352.05,1353.39,1354.23,1355.53,1357.78,1360.55,1361.99,1363.4,1364.64,1365.98,1367.02,1368.17,1370.21,1369.95,1369.38,1368.56,1367.6,1367.06,1366.5,1365.87,1365.36,1364.16,1363.72,1363.41,1363.11,1363.26,1364.3,1365.22,1365.98,1367.63,1368,1368.27,1368.51,1368.98,1369.77,1370.72,1370.8,1370.98,1370.79,1370.7,1370.51,1369.8,1368.27,1366.84,1364.51,1361.49,1360.11,1358.72,1357.11,1355.38,1354.25,1354.13,1354.47,1357.18,1361.38,1361.83,1361.11,1360.2,1359.64,1357.48,1353.86,1349.83,1342.94,1333.81,1327.67,1322.92,1317.9,1312.06,1303.09,1287.92,1273.76,1259.33,1245.09,1225.35,1203.71,1182.6,1163.31,1166.83,1129.08,1114.15,1101.83,1090.65,1080.93,1072.48,1066.87,1061.71,1057.69,1050.43,1045.98,1040.98,1035.34,1030.04,1024.97,1020.65,1016.91,1012.53,1007.95,1004.07,1001.5,1000.48,0,0,0,0,0,0,0,0,0,0,0,0,0,0,0,0,0,0,0,0,0,0,0,0,0,0,0,0,0,0,0,0,0,0,0,0,0,0,0,0,0,0,0,0,0,0,0,0,0,0,0,0,0,0,0,0,0,0,0,0,0,0,0,0,0,0,0,0,0,0,0,0,0,0,0,0,0,0,0,0,0,0,0,0,0,0,0,0,0,0,0,0,0,0,0,0,0,0,0,0,0,0,0,0,0,0,0,0,0,0,0,0,0,0,0,0,0,0,0,0,0,0,0,0,0,0,0,0,0,0,0,0,0,0,0,0,0,0,0,0,0,0,0,0,0,0,0,0,0,0,0,0,0,0,0,0,0,0,0,0,0,0,0,0,0,0,0,0,0,0,0,0,0,0,0,0,0,0,0,0,0,0,0,0,0,0,0,0,0,0,0,0,0,0,0,0,0,0,0,0,0,0,0,0,0,0,0,0,0,0,0,0,0,0,0,0,0,0,0,0,0,0,0,0,0,0,0,0,0,0,0,0,0,0,0,0,0,0,0,0,0
0,0,0,0,0,0,0,0,0,0,0,0,0,0,0,0,0,0,0,0,0,0,1370.77,1365.36,1366.38,1365.79,1365.48,1365.1,1364.81,1364.55,1364.53,1364.06,1362.95,1361.72,1360.22,1358.43,1356.43,1354.5,1352.48,1350.64,1349.6,1348.29,1347.38,1346.2,1345.75,1345.08,1344.58,1344.42,1344.11,1344.13,1344.33,1344.89,1345.26,1345.85,1346.59,1347.77,1348.77,1349.96,1351.88,1353.39,1355.25,1357,1358.93,1360.99,1362.97,1364.69,1365.48,1365.5,1365.33,1365.58,1365.52,1364.78,1364.54,1363.4,1362.19,1361.28,1360.92,1360.45,1360.06,1359.67,1359.83,1360.24,1361.16,1362.7,1363.86,1365.37,1366.83,1368.26,1370.3,1371.97,1373.27,1373.92,1374.74,1374.88,1374.85,1374.95,1374.39,1373.25,1371.46,1369.28,1366.49,1363.78,1361.44,1358.52,1355.2,1351.31,1347.43,1343.59,1340.01,1336.6,1333.41,1330.84,1329.08,1327.39,1326.24,1326.18,1326.8,1327.63,1328.64,1329.86,1331.73,1333.55,1335.34,1337.26,1338.32,1339.75,1341.06,1342.18,1342.78,1342.78,1342.48,1342.92,1343.33,1344.2,1344.9,1345.98,1347.26,1348.53,1349.68,1350.66,1351.87,1352.79,1353.65,1354.75,1355.32,1356.18,1356.7,1357.2,1358.07,1358.4,1358.71,1358.4,1358.22,1358.48,1358.85,1358.64,1358.43,1358.27,1358.36,1358.63,1358.68,1358.95,1358.19,1357.58,1357.06,1356.79,1356.76,1356.26,1356,1355.85,1355.84,1356.1,1356.12,1356.47,1356.7,1356.93,1357.79,1358.55,1359.15,1360.29,1361.48,1363.81,1366.21,1368.96,1371.9,1375.03,1378.19,1380.94,1383.16,1386.26,1388.43,1389.98,1390.77,1390.78,1390.08,1389.36,1388.74,1387.93,1385.94,1383.96,1382.38,1381.39,1380.2,1378.9,1377.98,1377.25,1376.39,1375.05,1373.6,1371.53,1368.85,1366.79,1364.48,1361.44,1358.64,1356.6,1355.3,1354.32,1353.53,1352.17,1350.93,1349.94,1350.07,1349.8,1349.25,1348.8,1348.25,1347.9,1348.05,1348.7,1348.61,1348.35,1347.77,1347.77,1347.67,1348.33,1349.18,1349.06,1348.98,1349.38,1349.75,1349.96,1350.25,1350.62,1350.4,1349.46,1349.68,1349.93,1349.86,1350.15,1350.27,1350.29,1350.9,1352.58,1354.18,1354.99,1356.75,1358.21,1360.72,1362.14,1362.66,1363,1362.52,1362.18,1361.99,1361.46,1359.86,1357.72,1356.2,1355,1353.31,1351.9,1350.36,1348.74,1347.88,1347.96,1347.59,1347.81,1347.81,1347.73,1347.33,1347.48,1347.45,1346.65,1345.86,1345.05,1344.03,1342.85,1342.18,1341.68,1340.47,1338.97,1338.55,1337.71,1337.47,1337.56,1338.43,1339.51,1340.28,1341.44,1342.44,1343.63,1344.81,1347.38,1349.36,1350.42,1351.35,1352.37,1353.07,1353.62,1354.42,1355.48,1355.33,1354.66,1354.42,1353.96,1353.69,1353.71,1353.25,1353.16,1352.62,1352.11,1351.91,1351.64,1351.73,1352.37,1352.95,1353.67,1354.78,1355.21,1355.66,1356.12,1357.45,1358.25,1360.05,1360.58,1361.45,1361.57,1361.9,1361.63,1361.03,1359.25,1357.88,1355.95,1353.09,1351.8,1350.27,1348.37,1346.58,1345.26,1344.88,1344.96,1347.02,1351.3,1351.58,1351.62,1350.76,1350.26,1348.56,1345.26,1341.33,1334.53,1325.65,1320.56,1316.22,1310.92,1306.17,1299.45,1287.6,1276.03,1265.34,1253.47,1237.68,1218.89,1200.69,1181.06,1164.57,1170.83,1129.5,1115.37,1102.22,1089.4,1078.5,1069.52,1062.85,1057.18,1049.17,1044.56,1039.63,1034.36,1028.72,1023.91,1019.93,1016.48,1012.84,1009.69,1006.69,1004.62,1005,0,0,0,0,0,0,0,0,0,0,0,0,0,0,0,0,0,0,0,0,0,0,0,0,0,0,0,0,0,0,0,0,0,0,0,0,0,0,0,0,0,0,0,0,0,0,0,0,0,0,0,0,0,0,0,0,0,0,0,0,0,0,0,0,0,0,0,0,0,0,0,0,0,0,0,0,0,0,0,0,0,0,0,0,0,0,0,0,0,0,0,0,0,0,0,0,0,0,0,0,0,0,0,0,0,0,0,0,0,0,0,0,0,0,0,0,0,0,0,0,0,0,0,0,0,0,0,0,0,0,0,0,0,0,0,0,0,0,0,0,0,0,0,0,0,0,0,0,0,0,0,0,0,0,0,0,0,0,0,0,0,0,0,0,0,0,0,0,0,0,0,0,0,0,0,0,0,0,0,0,0,0,0,0,0,0,0,0,0,0,0,0,0,0,0,0,0,0,0,0,0,0,0,0,0,0,0,0,0,0,0,0,0,0,0,0,0,0,0,0,0,0,0,0,0,0,0,0,0,0,0,0,0,0,0,0,0,0,0,0,0
0,0,0,0,0,0,0,0,0,0,0,0,0,0,0,0,0,0,0,0,0,1350,1358.62,1357.41,1353.7,1352.07,1351.91,1351.44,1351.93,1352.01,1352.34,1352.08,1351.55,1350.6,1349.41,1348.3,1346.84,1344.61,1342.84,1341.36,1339.85,1338.46,1337.27,1335.82,1334.83,1333.87,1333.07,1332.48,1332.06,1331.84,1332.11,1332.71,1333.11,1333.65,1334.84,1336.17,1337.28,1338.82,1340.56,1342.1,1343.7,1345.36,1347.06,1348.59,1350.03,1351.25,1351.81,1351.52,1351.39,1351.14,1351.19,1350.56,1350.35,1349.53,1348.78,1348.52,1348.48,1348.73,1348.81,1349.25,1349.84,1350.43,1351.87,1353.36,1354.79,1356.03,1357.36,1358.76,1360.35,1361.35,1362.7,1363.21,1363.35,1363.21,1362.71,1362.63,1361.52,1359.98,1358.34,1356.05,1353.53,1350.96,1349.01,1346.36,1343.11,1339.9,1336.31,1332.47,1328.95,1326.08,1323.28,1321.03,1319.18,1317.82,1316.88,1316.28,1317.02,1317.57,1318.37,1319.37,1321.01,1321.97,1323.19,1324.72,1326.08,1327.06,1327.92,1329.02,1329.16,1329.32,1329.34,1329.52,1330.06,1330.76,1331.65,1332.64,1334,1335.63,1337.19,1338.44,1339.77,1340.96,1342.29,1343.34,1344.13,1345.46,1346.49,1347.38,1348.07,1348.59,1348.89,1348.93,1349.01,1349.14,1349.27,1349.16,1348.86,1348.95,1349.18,1349.56,1349.7,1349.76,1349.44,1349.03,1348.78,1348.65,1348.65,1347.94,1347.57,1347.17,1347.21,1347.16,1346.93,1347.1,1346.92,1347.1,1347.74,1348.39,1349.34,1350.2,1351.78,1353.27,1355.19,1357.45,1359.92,1362.75,1365.37,1367.6,1370.43,1372.92,1375.21,1376.39,1376.71,1376.87,1376.54,1375.96,1375.36,1373.94,1371.77,1369.84,1369.01,1368.15,1367.07,1366.18,1364.92,1364.12,1363.33,1362.08,1360.45,1358.27,1355.83,1353.78,1351.8,1349.44,1347.21,1345.03,1343.8,1343.32,1342.45,1341.92,1340.53,1339.81,1339.75,1339.72,1339.66,1339.42,1339,1339.01,1339.19,1339.36,1339.16,1339.13,1339.08,1339.2,1339.62,1340.04,1340.63,1340.54,1340.43,1341.19,1341.72,1341.69,1341.98,1342.05,1342.14,1341.22,1341.93,1342.41,1342.43,1342.47,1342.95,1343.19,1343.88,1345.45,1346.59,1347.18,1348.13,1349.74,1351.1,1351.83,1351.5,1351.52,1350.56,1349.44,1349.32,1348.24,1346.73,1344.51,1342.76,1341.53,1340.03,1338.76,1337.22,1335.89,1335.08,1335.05,1334.74,1334.96,1335.13,1335.07,1335.01,1334.96,1335.4,1334.89,1334.29,1334.08,1333.49,1332.56,1332.02,1331.39,1330.58,1329.18,1328.67,1327.99,1327.24,1327.23,1328.1,1328.68,1329.46,1330.64,1331.81,1332.62,1334.2,1336.42,1338.37,1338.79,1339.33,1340.29,1340.65,1340.97,1341.11,1341.72,1341.68,1341.28,1341.46,1341.51,1341.44,1341.6,1341.23,1341.01,1340.65,1340.45,1340.4,1340.04,1340.05,1340.39,1340.88,1341.58,1342.78,1343.29,1343.63,1344.78,1346.4,1347.61,1349.7,1350.73,1351.78,1352.32,1352.5,1352.55,1351.91,1350.15,1348.29,1346.74,1343.85,1342.15,1340.42,1338.32,1336.02,1334.31,1334.08,1334.32,1336.8,1340.82,1341.13,1341.58,1341.67,1341.36,1339.62,1336.59,1332.67,1326.1,1318.22,1313.81,1309.52,1304.9,1299.8,1295.75,1287.04,1278.25,1270.68,1261.75,1248.92,1233.66,1217.75,1200.35,1183.2,1166,1147.5,1130.22,1116.75,1102.64,1088.05,1076.73,1066.93,1057.72,1048.03,1042.97,1037.49,1031.72,1026.36,1021.81,1018,1014.93,1011.66,1009.09,1006.78,1005.15,1006,0,0,0,0,0,0,0,0,0,0,0,0,0,0,0,0,0,0,0,0,0,0,0,0,0,0,0,0,0,0,0,0,0,0,0,0,0,0,0,0,0,0,0,0,0,0,0,0,0,0,0,0,0,0,0,0,0,0,0,0,0,0,0,0,0,0,0,0,0,0,0,0,0,0,0,0,0,0,0,0,0,0,0,0,0,0,0,0,0,0,0,0,0,0,0,0,0,0,0,0,0,0,0,0,0,0,0,0,0,0,0,0,0,0,0,0,0,0,0,0,0,0,0,0,0,0,0,0,0,0,0,0,0,0,0,0,0,0,0,0,0,0,0,0,0,0,0,0,0,0,0,0,0,0,0,0,0,0,0,0,0,0,0,0,0,0,0,0,0,0,0,0,0,0,0,0,0,0,0,0,0,0,0,0,0,0,0,0,0,0,0,0,0,0,0,0,0,0,0,0,0,0,0,0,0,0,0,0,0,0,0,0,0,0,0,0,0,0,0,0,0,0,0,0,0,0,0,0,0,0,0,0,0,0,0,0,0,0,0,0,0
0,0,0,0,0,0,0,0,0,0,0,0,0,0,0,0,0,0,0,0,0,0,1349,1340.52,1338.37,1337.79,1337.78,1338.05,1338.92,1339.65,1340.21,1340.35,1340.18,1339.93,1339.31,1338.34,1337.02,1334.89,1333.31,1331.45,1329.95,1328.2,1326.32,1324.93,1323.4,1322.51,1321.65,1320.9,1320.32,1320.13,1320.46,1321.29,1321.83,1322.18,1323.42,1324.5,1325.88,1327.2,1328.51,1330.22,1331.63,1332.77,1334.27,1335.74,1336.45,1337.58,1337.65,1337.08,1336.72,1336.49,1336.22,1335.82,1335.85,1335.26,1334.68,1334.64,1335.24,1335.99,1336.61,1337.62,1338.91,1340.03,1341.8,1343.45,1345.02,1346.56,1347.52,1348.6,1349.77,1350.29,1351.19,1351.7,1351.35,1350.79,1350.04,1349.81,1348.64,1347.04,1345.83,1343.58,1341.24,1339.03,1336.73,1334.11,1331.55,1328.38,1325.65,1322.03,1318.95,1316.34,1313.98,1311.9,1310.08,1308.64,1307.4,1306.64,1306.49,1306.91,1307.56,1308.56,1309.56,1310.25,1311.43,1312.68,1313.66,1314.63,1315.58,1316.21,1316.54,1316.83,1316.79,1317.36,1317.87,1318.79,1319.5,1320.53,1321.74,1323.15,1324.87,1326.24,1327.77,1328.95,1330.18,1331.7,1333.07,1334.62,1336.01,1336.93,1337.8,1338.54,1339.16,1339.52,1339.83,1339.95,1340.04,1339.71,1339.53,1339.72,1339.86,1339.97,1340.21,1340.51,1339.89,1339.53,1339.65,1339.93,1339.98,1339.57,1339.06,1338.85,1338.49,1338.46,1337.95,1337.71,1337.58,1337.37,1337.93,1338.85,1339.86,1341.36,1342.48,1343.96,1345.46,1347.62,1349.52,1351.56,1353.4,1355.2,1357.24,1359.42,1361.31,1362.62,1362.93,1363.1,1362.6,1362.15,1361.44,1360.17,1358.33,1356.46,1355.42,1354.82,1353.94,1353.19,1352.47,1351.66,1350.96,1349.75,1348.17,1345.95,1344.25,1342.39,1340.69,1338.31,1336.15,1334.12,1333.04,1332.32,1332.31,1331.62,1330.96,1330.06,1330.06,1329.99,1330.2,1330.2,1329.98,1329.95,1330.29,1330.11,1330.06,1330.27,1330.52,1330.91,1330.91,1331.36,1332.16,1331.44,1331.14,1331.77,1332.28,1331.86,1331.77,1331.86,1331.83,1331.53,1332.61,1333.27,1333.72,1334.16,1335.09,1335.66,1336.59,1338.18,1339.26,1339.71,1340.6,1341.24,1342.37,1342.38,1341.58,1340.87,1339.39,1337.83,1337.25,1336.06,1334.31,1332.06,1330.39,1328.93,1327.6,1326.41,1325.37,1324.21,1323.53,1323.24,1322.62,1322.76,1322.6,1322.77,1322.82,1322.62,1323.06,1322.79,1322.71,1323.06,1322.91,1322.66,1322.45,1321.97,1321.1,1319.97,1319.46,1318.4,1317.61,1317.52,1318.05,1318.4,1318.94,1320.05,1321.25,1322.13,1323.78,1325.45,1326.62,1326.6,1326.74,1327.04,1326.76,1326.81,1326.82,1326.98,1326.73,1326.81,1327.34,1327.36,1327.41,1327.59,1327.49,1327.2,1326.92,1326.93,1326.82,1326.55,1326.2,1326.31,1326.64,1327.2,1328.47,1329,1329.92,1331.3,1333.76,1335.68,1338.15,1339.46,1340.86,1341.64,1342.47,1342.63,1342.06,1339.47,1337.75,1336.13,1333.06,1331.35,1329.41,1327.22,1324.82,1322.97,1322.85,1323.18,1325.42,1329.63,1330.47,1331.01,1331.82,1331.79,1330.66,1327.69,1324.05,1318.83,1310.93,1306.52,1302.79,1298.57,1293.95,1290.42,1283.74,1277.29,1271.04,1264.52,1255.02,1243.49,1231.12,1216.45,1201.35,1184.45,1175.5,1156.67,1139.83,1119.76,1102.58,1087.55,1074.79,1061.81,1050.02,1041.52,1034.43,1028.12,1022.87,1018.27,1014.86,1011.43,1008.52,1006.39,1004.8,1003.15,1001,0,0,0,0,0,0,0,0,0,0,0,0,0,0,0,0,0,0,0,0,0,0,0,0,0,0,0,0,0,0,0,0,0,0,0,0,0,0,0,0,0,0,0,0,0,0,0,0,0,0,0,0,0,0,0,0,0,0,0,0,0,0,0,0,0,0,0,0,0,0,0,0,0,0,0,0,0,0,0,0,0,0,0,0,0,0,0,0,0,0,0,0,0,0,0,0,0,0,0,0,0,0,0,0,0,0,0,0,0,0,0,0,0,0,0,0,0,0,0,0,0,0,0,0,0,0,0,0,0,0,0,0,0,0,0,0,0,0,0,0,0,0,0,0,0,0,0,0,0,0,0,0,0,0,0,0,0,0,0,0,0,0,0,0,0,0,0,0,0,0,0,0,0,0,0,0,0,0,0,0,0,0,0,0,0,0,0,0,0,0,0,0,0,0,0,0,0,0,0,0,0,0,0,0,0,0,0,0,0,0,0,0,0,0,0,0,0,0,0,0,0,0,0,0,0,0,0,0,0,0,0,0,0,0,0,0,0,0,0,0,0
0,0,0,0,0,0,0,0,0,0,0,0,0,0,0,0,0,0,0,0,0,0,1326.5,1325.06,1325.46,1325.73,1325.08,1325.81,1326.36,1327.38,1328.23,1328.67,1328.95,1328.68,1328.52,1328.02,1326.62,1324.59,1323.04,1321.54,1319.64,1317.55,1315.75,1313.39,1312.02,1310.83,1310.17,1309.21,1308.72,1308.58,1308.82,1309.98,1310.58,1310.79,1312.1,1313.16,1314.28,1315.65,1317.04,1317.96,1319.09,1320.03,1321.25,1321.92,1322.51,1322.72,1322.52,1321.94,1321.32,1320.96,1320.79,1320.38,1320.41,1320.27,1320.38,1320.67,1321.89,1323.13,1324.51,1326.07,1327.52,1329.12,1331.04,1333.23,1334.82,1336.11,1337.01,1337.91,1338.68,1339.12,1339.89,1339.72,1338.82,1338.19,1336.92,1336.08,1334.8,1333.01,1332.08,1330.02,1327.77,1325.94,1324.07,1322.34,1320.06,1317.93,1315.43,1312.36,1309.6,1307.44,1305.22,1303.32,1301.61,1299.63,1298.46,1297.52,1297.41,1297.47,1297.53,1297.83,1298.34,1298.81,1299.8,1300.95,1302.01,1302.58,1303.31,1304.13,1304.56,1304.65,1305.14,1305.73,1306.53,1307.41,1308.3,1308.88,1310.14,1311.8,1313.43,1314.84,1316.27,1317.56,1318.53,1319.98,1321.63,1323.31,1324.76,1326.06,1326.74,1327.81,1328.59,1329.06,1329.26,1329.29,1328.96,1328.36,1328.24,1328.3,1328.65,1328.74,1328.78,1329.11,1329.34,1329.65,1329.9,1330.47,1331.02,1330.72,1330.75,1330.6,1330.51,1330.07,1329.25,1328.92,1328.33,1328.16,1328.41,1328.8,1329.96,1331.12,1332.41,1333.43,1334.69,1336.24,1337.74,1339.58,1341.11,1342.16,1343.75,1345.66,1347.35,1348.47,1348.92,1348.62,1348.57,1348.11,1347.59,1346.26,1344.66,1343.49,1342.24,1341.67,1341.01,1340.75,1339.94,1339.41,1338.3,1336.9,1335.58,1333.63,1332.29,1330.67,1329.18,1327.59,1325.77,1324.25,1323.63,1323.32,1322.94,1322.59,1321.71,1321.18,1321.02,1320.92,1321.58,1321.6,1321.61,1321.97,1322.46,1322.35,1322.28,1322.47,1322.89,1323.02,1323.42,1323.59,1323.96,1322.93,1322.38,1322.86,1323.16,1322.65,1322.44,1322.09,1322.13,1322.34,1323.43,1324.2,1324.6,1324.91,1325.56,1326.66,1327.68,1329.03,1330.28,1330.66,1331.47,1331.89,1332.58,1332.22,1331.56,1330.63,1329.34,1327.85,1326.69,1325.37,1323.92,1322.41,1320.62,1318.71,1317.32,1316.76,1315.88,1314.69,1313.86,1313.31,1312.16,1312.11,1312.11,1312.46,1312.34,1312.26,1312.73,1312.96,1313.5,1313.87,1313.81,1313.42,1313.1,1312.47,1311.62,1310.51,1309.95,1308.78,1308.13,1307.79,1307.86,1307.88,1308.42,1309.65,1310.43,1311.38,1313.07,1314.5,1315.13,1314.92,1314.85,1314.96,1314.48,1314.21,1313.6,1313.3,1312.9,1312.88,1313.5,1313.42,1313.52,1313.6,1313.55,1313.57,1313.63,1313.47,1313.45,1313.2,1312.89,1312.76,1312.58,1312.99,1313.86,1314.1,1315.17,1316.97,1320.34,1322.4,1324.28,1325.71,1327.43,1328.65,1329.66,1329.78,1329.27,1326.22,1324.71,1323.77,1321.32,1319.46,1317.94,1315.85,1313.76,1312,1312.35,1312.78,1315.37,1319.21,1320.09,1321.19,1322.02,1322.45,1321.2,1318.86,1315.53,1309.8,1303.38,1299.16,1295.1,1291.45,1287.41,1284.31,1279.58,1274.16,1268.98,1263.15,1256.21,1248.24,1239.41,1228.32,1216.23,1200.99,1186.44,1172.22,1157.92,1136.74,1152.25,1101.6,1086.32,1070.73,1056.28,1044.27,1034.75,1026.66,1020.03,1014.5,1011.21,1007.77,1004.73,1002.62,1001.49,1000,0,0,0,0,0,0,0,0,0,0,0,0,0,0,0,0,0,0,0,0,0,0,0,0,0,0,0,0,0,0,0,0,0,0,0,0,0,0,0,0,0,0,0,0,0,0,0,0,0,0,0,0,0,0,0,0,0,0,0,0,0,0,0,0,0,0,0,0,0,0,0,0,0,0,0,0,0,0,0,0,0,0,0,0,0,0,0,0,0,0,0,0,0,0,0,0,0,0,0,0,0,0,0,0,0,0,0,0,0,0,0,0,0,0,0,0,0,0,0,0,0,0,0,0,0,0,0,0,0,0,0,0,0,0,0,0,0,0,0,0,0,0,0,0,0,0,0,0,0,0,0,0,0,0,0,0,0,0,0,0,0,0,0,0,0,0,0,0,0,0,0,0,0,0,0,0,0,0,0,0,0,0,0,0,0,0,0,0,0,0,0,0,0,0,0,0,0,0,0,0,0,0,0,0,0,0,0,0,0,0,0,0,0,0,0,0,0,0,0,0,0,0,0,0,0,0,0,0,0,0,0,0,0,0,0,0,0,0,0,0,0,0
0,0,0,0,0,0,0,0,0,0,0,0,0,0,0,0,0,0,0,0,0,1348,1319,1316.07,1315.8,1315.85,1314.77,1315.19,1315.55,1316.35,1317.18,1317.59,1317.82,1317.72,1317.98,1317.39,1316.17,1314.3,1312.33,1310.61,1308.55,1306.51,1304.07,1301.51,1300.23,1298.94,1298.02,1297.35,1296.77,1296.88,1297.28,1298.06,1298.56,1299.19,1300.06,1301.16,1302.04,1303.3,1304.46,1305.36,1306.12,1306.62,1307.18,1307.81,1307.81,1307.72,1307.4,1306.55,1306.02,1305.68,1305.54,1305.5,1305.61,1305.85,1306.29,1307.38,1309.01,1311.02,1312.78,1314.75,1316.86,1318.65,1320.69,1322.65,1324.37,1325.52,1326.02,1326.53,1326.74,1326.86,1327.01,1326.51,1325.25,1324.02,1322.64,1321.41,1320.12,1318.68,1317.88,1316.21,1314.45,1313.17,1311.92,1310.66,1309.12,1307.17,1305.21,1302.77,1300.64,1298.6,1296.81,1295.05,1293.2,1291.52,1290.17,1289.1,1288.55,1288.19,1287.94,1288.08,1288.28,1288.45,1289.1,1289.99,1290.89,1291.45,1292.22,1292.77,1293.19,1293.64,1294.03,1294.72,1295.49,1296.5,1297.08,1298.07,1299.17,1300.66,1301.99,1303.51,1304.64,1305.57,1306.66,1308.42,1310.23,1312.22,1313.96,1315.07,1316.11,1317.41,1318.39,1319.07,1319,1318.75,1318.06,1317.45,1317.12,1317.16,1317.34,1317.24,1317.17,1318.1,1318.78,1319.78,1320.69,1321.77,1322.47,1322.96,1322.87,1322.53,1322.33,1321.87,1321.08,1320.3,1319.09,1318.63,1318.3,1318.34,1319.12,1319.96,1320.53,1321.5,1321.88,1323.15,1324.56,1326.14,1327.5,1328.42,1329.75,1331.4,1332.66,1333.91,1334.05,1333.93,1333.39,1333.12,1332.72,1331.62,1330.47,1329.4,1328.56,1328.11,1327.48,1327.38,1327.31,1326.6,1325.59,1324.36,1323.23,1322.44,1321.31,1320.51,1319.04,1317.6,1316.5,1315.28,1315.01,1314.29,1313.69,1313.6,1312.8,1312.46,1312.45,1312.43,1313.32,1314.01,1314.39,1314.91,1315.34,1315.39,1315.69,1315.84,1316.25,1316.75,1315.88,1316,1315.91,1314.97,1314.04,1313.78,1313.63,1312.89,1312.09,1311.53,1311.47,1311.75,1312.93,1313.63,1314.32,1315,1315.93,1317.28,1318.56,1319.61,1320.89,1321.73,1322.86,1323.53,1323.82,1323.94,1323.58,1322.99,1321.52,1320.21,1318.94,1317.91,1316.25,1314.72,1312.73,1311.12,1309.57,1308.73,1308.08,1306.95,1305.79,1304.88,1303.59,1303.31,1303.31,1303.37,1303.38,1303.44,1303.77,1304.11,1304.84,1305.46,1305.33,1304.82,1304.57,1303.96,1302.99,1301.71,1301.13,1300.02,1299.14,1298.75,1298.66,1298.87,1299.25,1300.3,1301.14,1301.69,1303.04,1304.38,1304.86,1304.6,1304.48,1304.28,1303.39,1302.83,1302.11,1301.22,1300.55,1300.3,1300.63,1300.72,1300.83,1300.93,1300.9,1301.24,1301.3,1300.97,1301.1,1300.82,1300.46,1299.92,1299.85,1300.2,1300.45,1300.58,1301.47,1303,1306.32,1308.18,1309.7,1310.92,1312.64,1314.02,1315.3,1315.88,1315.68,1313.15,1311.61,1310.85,1308.82,1307.26,1305.86,1303.92,1302.17,1300.87,1301.13,1302.04,1304.24,1308.04,1309.26,1310.58,1312.06,1312.76,1311.54,1309.37,1306.3,1301.76,1295.55,1291.9,1288.3,1284.68,1280.79,1277.87,1273.98,1269.32,1264.84,1259.69,1253.61,1247.5,1241.56,1234.21,1225.66,1214.21,1202.78,1190.04,1175.43,1156.91,0,1121.05,1100.62,1085.34,1068.36,1053.01,1040.35,1029.53,1020.54,1013.21,1008.19,1004.46,1001.09,1000.38,1000.27,1000.17,0,0,0,0,0,0,0,0,0,0,0,0,0,0,0,0,0,0,0,0,0,0,0,0,0,0,0,0,0,0,0,0,0,0,0,0,0,0,0,0,0,0,0,0,0,0,0,0,0,0,0,0,0,0,0,0,0,0,0,0,0,0,0,0,0,0,0,0,0,0,0,0,0,0,0,0,0,0,0,0,0,0,0,0,0,0,0,0,0,0,0,0,0,0,0,0,0,0,0,0,0,0,0,0,0,0,0,0,0,0,0,0,0,0,0,0,0,0,0,0,0,0,0,0,0,0,0,0,0,0,0,0,0,0,0,0,0,0,0,0,0,0,0,0,0,0,0,0,0,0,0,0,0,0,0,0,0,0,0,0,0,0,0,0,0,0,0,0,0,0,0,0,0,0,0,0,0,0,0,0,0,0,0,0,0,0,0,0,0,0,0,0,0,0,0,0,0,0,0,0,0,0,0,0,0,0,0,0,0,0,0,0,0,0,0,0,0,0,0,0,0,0,0,0,0,0,0,0,0,0,0,0,0,0,0,0,0,0,0,0,0,0
0,0,0,0,0,0,0,0,0,0,0,0,0,0,0,0,0,0,0,0,0,1307.75,1310.34,1309.2,1308.33,1307.77,1305.61,1305.63,1306.04,1306.48,1306.99,1306.98,1307.28,1307.1,1307.28,1306.09,1304.78,1303.1,1301.26,1299.04,1297.14,1294.66,1291.97,1289.75,1288.06,1286.92,1285.97,1285.45,1285.19,1285.38,1285.65,1286.23,1286.97,1287.54,1288.45,1289.38,1290.19,1291.18,1292,1292.84,1293.12,1293.24,1293.39,1293.48,1293.31,1292.91,1292.33,1291.52,1291.26,1291.05,1291.09,1291.17,1291.53,1292.21,1293.19,1294.47,1296.41,1298.74,1300.88,1303.08,1305.09,1307.56,1309.8,1311.58,1313.25,1314.11,1314.36,1314.76,1314.69,1314.22,1313.98,1312.94,1311.31,1309.33,1307.92,1306.27,1305.06,1303.79,1303.06,1301.69,1300.72,1300,1299.16,1298.29,1297.49,1296.26,1294.8,1292.62,1291.03,1289.63,1287.98,1286.54,1284.83,1283.27,1281.91,1280.71,1280.09,1279.58,1279.02,1278.98,1279.08,1279.1,1279.62,1280.3,1281.18,1281.79,1282.26,1282.9,1283.49,1283.96,1284.08,1284.75,1285.65,1286.45,1286.83,1287.52,1288.52,1289.71,1290.97,1292.03,1293.05,1293.95,1294.89,1296.42,1298.46,1300.56,1302.45,1303.54,1304.73,1306.4,1307.22,1308.24,1308.08,1307.39,1306.52,1305.66,1305.68,1305.63,1305.77,1305.65,1305.7,1306.5,1307.2,1308.48,1309.29,1310.51,1311.68,1311.81,1311.77,1311.85,1311.91,1311.34,1310.63,1309.43,1307.93,1306.87,1305.93,1305.64,1305.87,1306.05,1306.55,1306.96,1307.05,1308.39,1309.63,1310.95,1312.14,1312.95,1314.09,1315.41,1316.67,1317.63,1317.96,1317.8,1317.33,1317.11,1317.03,1316.23,1315.63,1314.93,1314.39,1313.94,1313.94,1314.2,1313.96,1313.35,1312.67,1311.79,1311.29,1310.29,1309.66,1309.03,1308.06,1307.11,1306.55,1305.87,1305.7,1305.09,1304.6,1304.85,1304.92,1305.01,1305.09,1305.49,1306.07,1306.7,1307.2,1308.01,1308.46,1308.63,1308.84,1308.86,1309.21,1309.42,1309.17,1308.26,1307.67,1306.62,1305.73,1304.98,1304.25,1302.81,1301.72,1301.09,1300.86,1301.2,1302.15,1302.58,1303.26,1303.93,1305.19,1306.43,1307.6,1308.69,1310.19,1311.22,1312.5,1313.53,1314,1314.22,1314.24,1313.97,1312.83,1311.91,1310.91,1309.77,1308.28,1307.18,1305.45,1303.82,1302.62,1302.02,1301.13,1299.71,1298.51,1297.36,1295.28,1294.98,1295.01,1294.96,1294.48,1294.93,1295.47,1295.85,1296.73,1297.49,1297.26,1296.68,1296.18,1295.52,1294.61,1293.11,1292.4,1291.17,1290.52,1290.16,1289.96,1290.08,1290.57,1291.24,1291.86,1292.38,1293.63,1294.37,1294.6,1294.67,1294.6,1294.27,1293.46,1292.65,1291.86,1290.86,1290.47,1290.05,1290.24,1289.91,1289.83,1289.93,1290.01,1290.07,1290.05,1289.64,1289.53,1289.46,1288.76,1288.18,1287.87,1287.86,1287.78,1287.73,1288.45,1289.8,1292.25,1293.78,1295.05,1295.93,1297.51,1299.14,1300.34,1300.9,1300.86,1298.86,1297.93,1297.44,1295.57,1294.32,1293.09,1291.72,1290.32,1289.26,1289.86,1290.55,1292.72,1296.21,1297.58,1299.24,1300.59,1301.51,1300.83,1298.98,1296.29,1292.59,1287.41,1284.48,1280.84,1277.52,1274.28,1270.65,1267.99,1264.28,1260.23,1255.85,1251,1245.66,1241.52,1237.1,1231.82,1223.57,1215.5,1205.38,1193.18,1177.85,1159.45,1153,1121.92,0,1081.94,1063.99,1048.57,1034.24,1022.26,1012.56,1005.62,1001.29,1000,0,0,0,0,0,0,0,0,0,0,0,0,0,0,0,0,0,0,0,0,0,0,0,0,0,0,0,0,0,0,0,0,0,0,0,0,0,0,0,0,0,0,0,0,0,0,0,0,0,0,0,0,0,0,0,0,0,0,0,0,0,0,0,0,0,0,0,0,0,0,0,0,0,0,0,0,0,0,0,0,0,0,0,0,0,0,0,0,0,0,0,0,0,0,0,0,0,0,0,0,0,0,0,0,0,0,0,0,0,0,0,0,0,0,0,0,0,0,0,0,0,0,0,0,0,0,0,0,0,0,0,0,0,0,0,0,0,0,0,0,0,0,0,0,0,0,0,0,0,0,0,0,0,0,0,0,0,0,0,0,0,0,0,0,0,0,0,0,0,0,0,0,0,0,0,0,0,0,0,0,0,0,0,0,0,0,0,0,0,0,0,0,0,0,0,0,0,0,0,0,0,0,0,0,0,0,0,0,0,0,0,0,0,0,0,0,0,0,0,0,0,0,0,0,0,0,0,0,0,0,0,0,0,0,0,0,0,0,0,0,0,0,0,0,0
0,0,0,0,0,0,0,0,0,0,0,0,0,0,0,0,0,0,0,1305,1307,1306.24,1305.45,1303.48,1302.52,1300.75,1298.38,1297.68,1297.63,1297.72,1297.71,1297.88,1297.81,1297.81,1297.54,1296.71,1294.97,1292.97,1291.4,1289.41,1287.24,1284.56,1281.98,1279.86,1278.3,1277.06,1276.21,1275.42,1275.17,1275.16,1275.63,1276.09,1276.41,1277.15,1277.94,1278.66,1279.39,1280.09,1280.77,1281.12,1281.18,1281.03,1280.78,1280.34,1280.01,1279.55,1279.12,1278.03,1277.5,1277.58,1277.78,1278.23,1279.11,1280.08,1281.16,1283.27,1285.51,1287.81,1290.08,1292.5,1294.73,1296.74,1298.8,1300.62,1301.91,1302.3,1302.31,1302.33,1301.66,1300.91,1300.3,1298.88,1297.31,1295.01,1293.15,1291.38,1290.24,1288.91,1288.49,1288.02,1287.24,1287.05,1286.63,1286.53,1286.11,1285.33,1284.39,1282.74,1281.64,1280.19,1279.36,1278.05,1276.43,1275.19,1273.75,1272.71,1272.08,1271.4,1270.73,1270.14,1270.05,1270.2,1270.43,1271.27,1271.83,1272.42,1273.18,1273.67,1274.27,1274.62,1274.96,1275.7,1275.93,1276.56,1276.96,1277.42,1278.13,1278.98,1279.87,1280.65,1281.45,1282.22,1283.28,1284.78,1286.84,1288.67,1290.72,1292.15,1293.44,1294.96,1296.12,1296.76,1296.94,1296.17,1295.22,1294.49,1294.19,1294.23,1294.1,1294.21,1294.42,1294.9,1295.5,1296.44,1297.11,1298.48,1299.28,1299.85,1299.91,1299.88,1300.24,1299.58,1298.57,1297.61,1295.75,1294.34,1292.94,1292.11,1291.91,1291.68,1291.66,1291.73,1292,1292.95,1293.94,1295,1296,1296.82,1297.52,1298.55,1299.27,1299.95,1300.16,1300.29,1299.95,1299.76,1299.98,1299.74,1300.17,1300.25,1300.66,1300.79,1301.16,1301.92,1302.07,1302.11,1302.17,1301.66,1301.5,1301.06,1300.41,1299.31,1298.73,1297.88,1297.42,1296.76,1296.37,1295.74,1295.1,1295.6,1296.04,1296.42,1296.91,1297.59,1298.71,1299.35,1300.33,1301.26,1301.82,1301.78,1301.48,1301.68,1301.97,1301.84,1301.74,1301.23,1300.12,1298.73,1297.52,1296.44,1295.13,1293.47,1292.23,1291.23,1290.63,1290.67,1291.46,1291.69,1292.2,1293.17,1294.16,1295.05,1296.56,1297.38,1298.57,1299.87,1301.38,1302.6,1303.25,1303.82,1304.21,1304.33,1303.83,1303.11,1302.52,1302.09,1300.9,1299.85,1298.18,1296.57,1295.31,1294.41,1293.28,1291.46,1289.82,1288.23,1286.6,1286.19,1286.01,1286.04,1285.98,1286.21,1287.24,1287.75,1288.57,1289.29,1289,1288.25,1287.76,1287.12,1286.07,1284.77,1283.9,1282.72,1282.13,1281.55,1281.08,1281.17,1281.26,1282.29,1282.41,1282.82,1283.67,1284.35,1284.75,1284.7,1284.5,1284.07,1283.47,1283.08,1282.28,1281.47,1281.12,1280.88,1280.74,1280.66,1280.46,1280.38,1280.12,1280.12,1279.93,1279.18,1278.97,1278.62,1278.2,1277.15,1276.84,1276.74,1276.24,1276.26,1276.6,1277.61,1279.97,1281.17,1282.13,1282.99,1284.21,1285.83,1287.13,1287.59,1287.68,1285.76,1284.82,1284.06,1283.09,1282.09,1281.24,1279.7,1278.54,1277.94,1278.56,1279.6,1281.45,1284.26,1286.05,1287.56,1289.27,1290.3,1289.94,1288.65,1286.51,1283.3,1279.16,1276.61,1273.74,1270.66,1268.08,1265.23,1262.85,1259.6,1256.18,1252.79,1248.75,1244.25,1240.55,1237.49,1234.68,1229.13,1223.74,1216.22,1206.69,1193.48,1177.13,1158.7,1142.84,1121.33,1100.4,1072.75,1054.22,1036.27,1021.77,1008.72,1001.72,0,0,0,0,0,0,0,0,0,0,0,0,0,0,0,0,0,0,0,0,0,0,0,0,0,0,0,0,0,0,0,0,0,0,0,0,0,0,0,0,0,0,0,0,0,0,0,0,0,0,0,0,0,0,0,0,0,0,0,0,0,0,0,0,0,0,0,0,0,0,0,0,0,0,0,0,0,0,0,0,0,0,0,0,0,0,0,0,0,0,0,0,0,0,0,0,0,0,0,0,0,0,0,0,0,0,0,0,0,0,0,0,0,0,0,0,0,0,0,0,0,0,0,0,0,0,0,0,0,0,0,0,0,0,0,0,0,0,0,0,0,0,0,0,0,0,0,0,0,0,0,0,0,0,0,0,0,0,0,0,0,0,0,0,0,0,0,0,0,0,0,0,0,0,0,0,0,0,0,0,0,0,0,0,0,0,0,0,0,0,0,0,0,0,0,0,0,0,0,0,0,0,0,0,0,0,0,0,0,0,0,0,0,0,0,0,0,0,0,0,0,0,0,0,0,0,0,0,0,0,0,0,0,0,0,0,0,0,0,0,0,0,0,0,0,0,0
0,0,0,0,0,0,0,0,0,0,0,0,0,0,0,0,0,0,1317,1310.8,1311.15,1303.98,1300.49,1298.79,1297.49,1295.01,1292.38,1290.79,1290.39,1290.17,1290.27,1290.12,1290.25,1290.07,1289.7,1288.91,1287.03,1285.24,1283.37,1281.47,1279.44,1276.99,1274.52,1272.56,1271.16,1270.08,1269.19,1268.42,1267.83,1267.76,1267.58,1267.9,1268.3,1268.61,1268.86,1269.08,1269.69,1270.2,1270.64,1270.7,1270.37,1269.84,1269.24,1268.91,1268.38,1267.96,1267.32,1266.52,1266.43,1266.56,1267.01,1267.71,1268.78,1270.19,1271.41,1273.38,1275.91,1278.29,1280.56,1282.76,1284.73,1286.44,1288.3,1289.72,1290.89,1291.02,1290.67,1290.36,1289.48,1288.48,1287.95,1286.34,1284.62,1282.32,1280.38,1278.54,1277.22,1276.34,1276.27,1275.64,1275.28,1275.37,1275.56,1275.72,1275.66,1275.29,1274.83,1273.68,1272.66,1272,1271.31,1270.1,1268.98,1267.58,1266.45,1265.23,1264.47,1263.7,1262.67,1262.17,1261.81,1261.95,1262.15,1262.57,1263.36,1263.8,1264.64,1265.19,1265.55,1266.08,1266.25,1266.83,1267.31,1267.36,1267.41,1267.58,1268.22,1268.63,1269.42,1270.35,1270.72,1271.26,1272.39,1273.69,1275.73,1277.8,1279.71,1281.38,1282.84,1284.53,1285.67,1286.21,1286.25,1285.64,1284.53,1283.79,1283.4,1283.29,1283.19,1283.21,1283.41,1283.64,1284.15,1284.95,1285.72,1286.75,1287.68,1288.16,1288.17,1288.32,1288.64,1287.95,1286.84,1285.39,1283.51,1281.88,1280.27,1279.31,1278.8,1277.99,1278.01,1277.89,1278.12,1278.99,1279.89,1280.6,1281.42,1281.65,1281.93,1282.45,1283.07,1283.12,1283.12,1283.2,1282.87,1282.87,1283.38,1283.74,1284.6,1285.11,1286.34,1286.88,1288.05,1289.59,1290.05,1290.19,1290.99,1291.21,1291.32,1290.92,1290.58,1289.97,1289.28,1288.62,1288.02,1287.63,1287.34,1286.42,1286.13,1286.6,1287.48,1287.96,1288.83,1289.8,1290.85,1291.77,1293.15,1294.3,1295.38,1295.23,1294.86,1294.73,1294.88,1294.99,1294.59,1293.39,1292.26,1290.65,1289.09,1287.48,1286,1284.09,1281.89,1280.63,1280.02,1280.16,1280.53,1280.9,1281.51,1282.17,1283.06,1284.15,1285.24,1286.29,1287.3,1288.95,1290.03,1291.19,1291.85,1292.76,1293.04,1293.11,1292.85,1292.25,1291.45,1291.11,1290.35,1289.93,1288.9,1287.33,1285.81,1285.03,1284,1282.17,1280.37,1278.95,1277.43,1277.05,1276.91,1276.94,1277.02,1277.6,1279.03,1279.6,1280.12,1280.64,1280.44,1280,1279.24,1278.51,1277.48,1275.69,1274.6,1273.41,1272.38,1271.3,1270.62,1270.61,1270.82,1271.4,1271.72,1272.28,1273.21,1273.74,1274.19,1274.47,1274.35,1274.03,1273.49,1273.17,1272.67,1271.8,1271.81,1271.68,1271.31,1270.8,1270.73,1270.38,1270.02,1269.63,1269.15,1268.12,1267.91,1267.57,1267.17,1266.21,1265.85,1265.66,1265.22,1264.82,1265.29,1265.81,1267.75,1268.27,1269.25,1269.98,1271.02,1272.37,1273.65,1274.05,1274.24,1272.72,1272.37,1272.15,1271.46,1270.65,1269.94,1269.01,1268.16,1267.64,1268.17,1268.97,1270.59,1272.56,1273.83,1275.63,1277.53,1278.68,1278.6,1277.72,1276.28,1273.73,1270.65,1268.84,1266.67,1264.3,1261.91,1259.58,1257.67,1255.37,1252.48,1249.65,1246.48,1243.12,1239.84,1237.22,1234.05,1230.4,1227.35,1222.01,1215.3,1204.51,1190.7,1175.43,1157.78,1134.62,1108.02,1083.25,1062.35,1038.66,1019.97,1004.46,1000.57,0,0,0,0,0,0,0,0,0,0,0,0,0,0,0,0,0,0,0,0,0,0,0,0,0,0,0,0,0,0,0,0,0,0,0,0,0,0,0,0,0,0,0,0,0,0,0,0,0,0,0,0,0,0,0,0,0,0,0,0,0,0,0,0,0,0,0,0,0,0,0,0,0,0,0,0,0,0,0,0,0,0,0,0,0,0,0,0,0,0,0,0,0,0,0,0,0,0,0,0,0,0,0,0,0,0,0,0,0,0,0,0,0,0,0,0,0,0,0,0,0,0,0,0,0,0,0,0,0,0,0,0,0,0,0,0,0,0,0,0,0,0,0,0,0,0,0,0,0,0,0,0,0,0,0,0,0,0,0,0,0,0,0,0,0,0,0,0,0,0,0,0,0,0,0,0,0,0,0,0,0,0,0,0,0,0,0,0,0,0,0,0,0,0,0,0,0,0,0,0,0,0,0,0,0,0,0,0,0,0,0,0,0,0,0,0,0,0,0,0,0,0,0,0,0,0,0,0,0,0,0,0,0,0,0,0,0,0,0,0,0,0,0,0,0,0,0
0,0,0,0,0,0,0,0,0,0,0,0,0,0,0,0,0,0,1311.5,1310.71,1305.33,1299.76,1296.02,1294.25,1292.5,1289.8,1286.55,1284.5,1283.79,1283.27,1283.17,1282.99,1282.76,1282.53,1282.03,1281.05,1279.17,1277.32,1275.53,1273.59,1271.27,1269,1266.86,1265.02,1263.9,1262.75,1261.8,1260.72,1260,1259.78,1259.61,1259.81,1259.79,1259.81,1259.78,1259.88,1260.18,1260.26,1260.43,1260.54,1259.85,1259.17,1258.58,1258.1,1257.45,1257.03,1256.27,1255.79,1255.83,1256.23,1257.06,1257.75,1259.07,1260.29,1261.65,1263.67,1266.12,1268.74,1270.74,1272.92,1274.71,1276.31,1277.8,1279.21,1280.06,1280.07,1279.66,1279.27,1278.1,1276.98,1276.33,1274.77,1272.88,1271.02,1269.49,1267.8,1266.9,1266.51,1266.49,1266.31,1265.9,1266.29,1266.57,1267.12,1267.46,1267.08,1266.73,1266.01,1265.47,1265,1264.42,1263,1261.83,1260.64,1259.5,1258.33,1257.33,1256.45,1255.36,1254.8,1254.68,1254.65,1254.9,1255.26,1255.7,1256.46,1257.24,1257.97,1258.33,1258.33,1258.44,1259.24,1259.36,1259.38,1258.75,1258.78,1258.82,1259.2,1259.63,1260.42,1260.51,1260.8,1261.68,1262.99,1264.8,1267.22,1269.23,1271.01,1272.51,1274.14,1275.14,1275.74,1275.82,1275.22,1274.18,1273.41,1272.62,1272.36,1272.27,1272.29,1272.45,1272.78,1273.28,1274.16,1274.72,1275.73,1276.65,1276.97,1276.98,1277.29,1277.48,1276.62,1275.15,1273.51,1271.43,1269.74,1268.14,1266.5,1265.76,1265,1264.86,1264.89,1265.05,1265.67,1266.69,1267.46,1267.9,1267.92,1267.83,1267.72,1267.72,1267.31,1266.96,1267.12,1266.82,1267.41,1268.28,1269.12,1270.79,1271.86,1273.34,1274.73,1276.56,1278.3,1279.54,1279.87,1280.73,1281.17,1281.93,1281.64,1281.15,1280.34,1279.27,1278.29,1277.78,1277.29,1276.64,1275.85,1275.51,1276.38,1277.46,1278.18,1278.94,1279.89,1281.11,1281.76,1283.27,1284.58,1284.76,1284.17,1283.86,1283.46,1283.72,1283.95,1283.4,1282.58,1281.48,1279.73,1278.36,1276.73,1275.11,1273.31,1271.25,1270.12,1269.6,1269.23,1269.56,1269.78,1270.51,1271.27,1271.99,1273.1,1273.9,1275.08,1276.46,1277.57,1279.13,1280.14,1281.01,1281.8,1282.31,1282.7,1282.51,1282.07,1281.53,1281.59,1280.76,1280.41,1279.45,1278.17,1276.74,1275.91,1274.54,1272.97,1271.54,1269.98,1268.45,1268.08,1268.09,1268.37,1268.16,1268.62,1269.76,1270.47,1271.2,1271.78,1271.59,1271.05,1270.34,1269.73,1268.84,1267.43,1266.25,1264.55,1263.5,1262.01,1260.57,1260.4,1260.37,1260.97,1261.07,1261.44,1262.46,1263.95,1264.44,1265.31,1265.45,1265.13,1264.58,1264.55,1264.53,1263.8,1262.81,1262.57,1262.14,1261.36,1260.84,1260.15,1259.73,1258.85,1258.24,1257.09,1256.87,1256.26,1256.11,1255.46,1254.96,1254.45,1254.2,1254.27,1254.38,1254.37,1255.73,1256.32,1256.59,1257.13,1258.34,1259.31,1260.68,1261.14,1261.72,1260.27,1260.29,1260.4,1260.23,1259.41,1259.04,1258.47,1257.93,1257.39,1258.07,1258.78,1260.04,1261.53,1262.67,1264.19,1266.11,1267.35,1267.42,1267.23,1266.1,1264.66,1262.56,1261.41,1259.47,1257.67,1256.19,1254.59,1253.29,1251.3,1248.96,1246.48,1243.84,1241.2,1238.57,1236.31,1233.36,1229.63,1226.84,1222.97,1217.72,1209.98,1199.38,1186.27,1170.76,1149.13,1123.06,1093.97,1066.81,1041.78,1020.3,1002.89,1000,0,0,0,0,0,0,0,0,0,0,0,0,0,0,0,0,0,0,0,0,0,0,0,0,0,0,0,0,0,0,0,0,0,0,0,0,0,0,0,0,0,0,0,0,0,0,0,0,0,0,0,0,0,0,0,0,0,0,0,0,0,0,0,0,0,0,0,0,0,0,0,0,0,0,0,0,0,0,0,0,0,0,0,0,0,0,0,0,0,0,0,0,0,0,0,0,0,0,0,0,0,0,0,0,0,0,0,0,0,0,0,0,0,0,0,0,0,0,0,0,0,0,0,0,0,0,0,0,0,0,0,0,0,0,0,0,0,0,0,0,0,0,0,0,0,0,0,0,0,0,0,0,0,0,0,0,0,0,0,0,0,0,0,0,0,0,0,0,0,0,0,0,0,0,0,0,0,0,0,0,0,0,0,0,0,0,0,0,0,0,0,0,0,0,0,0,0,0,0,0,0,0,0,0,0,0,0,0,0,0,0,0,0,0,0,0,0,0,0,0,0,0,0,0,0,0,0,0,0,0,0,0,0,0,0,0,0,0,0,0,0,0,0,0,0,0,0
0,0,0,0,0,0,0,0,0,0,0,0,0,0,0,0,0,0,1304.67,1304.71,1302.32,1294.27,1291.02,1289.49,1287.04,1284.23,1280.61,1278.29,1277.25,1276.13,1275.95,1275.42,1275.14,1274.65,1273.84,1272.75,1270.81,1268.95,1266.91,1264.9,1262.7,1260.51,1258.55,1257.04,1255.68,1254.67,1253.96,1252.72,1252.09,1251.69,1251.18,1250.99,1250.6,1250.12,1249.75,1249.76,1249.86,1249.95,1249.69,1249.65,1248.93,1248.17,1247.71,1246.86,1246.33,1246.06,1245.65,1245.37,1245.35,1245.8,1246.78,1247.83,1248.96,1250.6,1252.05,1253.83,1256.56,1258.76,1260.9,1262.99,1264.92,1266.55,1267.84,1268.9,1269.85,1269.53,1269.1,1268.43,1267.42,1266.02,1265.03,1263.49,1261.77,1260.03,1258.5,1257.27,1256.45,1255.95,1256.16,1256.17,1256.44,1256.8,1257.76,1258.45,1259.26,1259.84,1260.02,1259.73,1259.25,1258.8,1258.09,1256.6,1255.44,1253.69,1252.59,1250.92,1249.74,1248.81,1247.71,1247.33,1246.99,1246.9,1247.13,1247.79,1248.43,1249.01,1250.02,1250.74,1251.2,1251.39,1251.23,1252.11,1252.45,1252.12,1251.41,1250.78,1250.79,1250.61,1250.61,1251.41,1251.46,1250.89,1251.78,1252.8,1254.6,1256.64,1259.04,1260.74,1261.96,1263.59,1264.76,1265.34,1265.63,1264.68,1263.49,1262.84,1262.04,1261.76,1261.38,1261.38,1261.29,1261.64,1262.31,1263.2,1263.94,1264.92,1265.79,1266.26,1266.68,1267.05,1267.15,1266.22,1264.68,1262.97,1261.14,1259.08,1257.24,1255.67,1254.5,1253.66,1253.56,1253.55,1253.6,1254.17,1254.92,1255.48,1255.94,1255.83,1255.14,1254.87,1254.3,1254.16,1254.2,1254.46,1254.68,1255.5,1256.56,1258.66,1260.04,1261.71,1263.02,1264.34,1266.32,1267.95,1268.86,1269.41,1269.8,1270.05,1270.62,1270.8,1270.24,1269.01,1267.93,1266.9,1266.13,1265.76,1265.66,1265.02,1264.75,1265.95,1267.05,1268.08,1268.91,1269.7,1270.36,1270.81,1271.79,1272.84,1272.84,1271.97,1271.32,1271.17,1271.42,1271.51,1271.47,1270.71,1269.94,1268.29,1267.14,1265.63,1264.13,1262.39,1260.56,1259.45,1258.95,1258.24,1258.75,1258.7,1259.33,1260.09,1260.82,1261.82,1262.72,1263.82,1265.05,1266.49,1267.83,1269.15,1270.11,1270.8,1271.47,1272,1271.97,1271.75,1271.56,1271.63,1271.45,1271.06,1270.16,1269.47,1268.04,1267.15,1265.87,1264.31,1262.79,1261.24,1259.86,1259.41,1259.1,1259,1259,1259.92,1260.79,1261.72,1262.76,1263.46,1263.41,1263.02,1262.14,1261.37,1260.38,1259.18,1256.91,1255.35,1254.05,1252.22,1250.79,1250.72,1250.55,1250.77,1250.82,1251.11,1251.99,1253.47,1254.23,1255.34,1255.61,1255.62,1255.49,1255.85,1255.85,1255.26,1254.04,1253.75,1252.79,1252.04,1251.06,1249.99,1249.14,1247.73,1246.61,1245.56,1245.26,1244.92,1244.89,1244.76,1244.77,1244.29,1244.24,1244.26,1244.13,1243.72,1244.34,1244.28,1244.19,1244.72,1245.35,1246.38,1247.47,1248.25,1248.94,1247.76,1248.22,1248.96,1248.7,1248.3,1248.18,1247.67,1247.2,1247,1247.52,1248.25,1249.24,1250.44,1251.66,1252.95,1254.8,1255.98,1256.24,1256.58,1256.29,1255.66,1255.1,1254.16,1253.29,1252.11,1251.05,1250.06,1248.94,1247.52,1245.4,1243.33,1240.98,1238.93,1236.73,1234.41,1231.34,1227.61,1224.64,1220.53,1215.88,1210.17,1201.94,1191.39,1177.93,1159.16,1134.99,1104.15,1072.43,1042.22,1017.68,1000.25,0,0,0,0,0,0,0,0,0,0,0,0,0,0,0,0,0,0,0,0,0,0,0,0,0,0,0,0,0,0,0,0,0,0,0,0,0,0,0,0,0,0,0,0,0,0,0,0,0,0,0,0,0,0,0,0,0,0,0,0,0,0,0,0,0,0,0,0,0,0,0,0,0,0,0,0,0,0,0,0,0,0,0,0,0,0,0,0,0,0,0,0,0,0,0,0,0,0,0,0,0,0,0,0,0,0,0,0,0,0,0,0,0,0,0,0,0,0,0,0,0,0,0,0,0,0,0,0,0,0,0,0,0,0,0,0,0,0,0,0,0,0,0,0,0,0,0,0,0,0,0,0,0,0,0,0,0,0,0,0,0,0,0,0,0,0,0,0,0,0,0,0,0,0,0,0,0,0,0,0,0,0,0,0,0,0,0,0,0,0,0,0,0,0,0,0,0,0,0,0,0,0,0,0,0,0,0,0,0,0,0,0,0,0,0,0,0,0,0,0,0,0,0,0,0,0,0,0,0,0,0,0,0,0,0,0,0,0,0,0,0,0,0,0,0,0,0,0
0,0,0,0,0,0,0,0,0,0,0,0,0,0,0,0,0,1299,1301.8,1299.8,1293.26,1288.43,1285.64,1283.98,1281.37,1278.65,1274.96,1272.12,1270.69,1269.57,1268.96,1268.23,1267.66,1266.84,1265.79,1264.25,1262.33,1260.4,1258.33,1256.06,1254.12,1251.99,1250.07,1248.74,1247.79,1246.94,1246.07,1244.93,1244.02,1243.18,1242.6,1242.02,1241.17,1240.46,1239.89,1239.4,1239.46,1239.37,1239.05,1238.88,1238.21,1237.33,1236.82,1236.13,1235.66,1235.49,1235.12,1235.11,1235.29,1235.88,1237.06,1238.07,1239.65,1241.27,1242.96,1244.78,1247.41,1249.58,1251.83,1253.72,1255.43,1256.66,1257.73,1258.9,1259.42,1258.87,1258.42,1257.98,1256.62,1255.31,1254.44,1253.01,1251.67,1250.3,1249.11,1247.88,1247.6,1247.61,1247.92,1248.41,1248.7,1249.71,1250.69,1252.07,1253.23,1253.74,1254.06,1254.04,1253.62,1253.07,1252.08,1250.39,1248.6,1246.81,1245.16,1243.57,1242.42,1241.57,1240.73,1240.29,1240.09,1240.34,1240.92,1241.56,1242.07,1243.04,1243.73,1244.41,1244.98,1245.22,1245.25,1246.16,1246.28,1245.63,1244.72,1243.62,1242.87,1242.57,1242.67,1243.15,1242.81,1242.63,1242.74,1243.67,1245.2,1247.36,1249.3,1251.26,1252.41,1254.01,1255.19,1255.87,1255.82,1255.1,1253.73,1252.82,1251.91,1251.31,1250.67,1250.58,1250.33,1250.65,1251.16,1252.28,1253.03,1253.88,1254.89,1255.48,1255.98,1256.36,1256.95,1256.25,1254.68,1253.05,1251.5,1249.64,1247.84,1246.14,1244.74,1243.86,1243.4,1243.64,1243.73,1244.17,1244.79,1245.41,1245.86,1245.59,1244.62,1244.92,1244.24,1244.01,1244.3,1244.88,1245.29,1246.12,1247.42,1249.3,1250.52,1251.8,1252.79,1253.56,1254.57,1256.04,1256.43,1256.55,1256.42,1256.73,1257.26,1257.56,1257.09,1255.67,1255.08,1254.34,1253.84,1253.99,1254.03,1253.94,1253.88,1255.27,1256.89,1258.14,1258.92,1259.53,1259.73,1259.53,1260.09,1260.67,1260.3,1259.51,1258.82,1258.45,1258.72,1258.8,1259.22,1258.53,1257.8,1256.57,1255.52,1254.2,1252.78,1251.18,1249.66,1248.59,1248.08,1247.25,1247.55,1247.36,1247.62,1248.44,1249.22,1249.96,1250.86,1251.93,1253.33,1254.52,1256.02,1257.31,1258.33,1259.11,1259.79,1260.47,1260.71,1260.81,1260.76,1261.22,1261.11,1261.09,1260.56,1260.1,1258.82,1258.17,1257.06,1255.26,1253.71,1252.04,1250.86,1250.22,1250.11,1250.13,1250.24,1250.83,1252.1,1253.31,1254.6,1255.32,1255.41,1255.02,1254.24,1253.53,1252.19,1250.61,1248.93,1246.35,1244.61,1242.78,1241.08,1240.62,1240.32,1240.34,1240.23,1240.49,1241.46,1243.16,1244.15,1245.45,1245.91,1246.27,1246.65,1247.08,1247.65,1247,1245.57,1245.02,1244.16,1242.64,1241.63,1239.93,1238.58,1236.88,1235.47,1234.23,1234.17,1233.49,1233.35,1233.61,1234.03,1233.75,1233.75,1233.89,1234,1233.16,1233.23,1232.89,1232.16,1232.42,1232.87,1233.47,1234.61,1235.2,1236.05,1235.67,1236.47,1237.07,1237.33,1237.16,1237,1236.68,1237,1237.03,1237.41,1238.15,1239.01,1240.36,1241.7,1242.96,1244.99,1246.09,1246.96,1247.48,1247.92,1247.88,1247.71,1247.34,1247.03,1246.47,1245.81,1245.21,1244.48,1243.15,1241.2,1239.44,1237.62,1235.88,1233.78,1231.63,1228.23,1224.55,1221.52,1217.49,1212.92,1207.31,1200.86,1192.33,1181.46,1165.05,1144.01,1110.5,1075.38,1045.28,1015.3,1003,0,0,0,0,0,0,0,0,0,0,0,0,0,0,0,0,0,0,0,0,0,0,0,0,0,0,0,0,0,0,0,0,0,0,0,0,0,0,0,0,0,0,0,0,0,0,0,0,0,0,0,0,0,0,0,0,0,0,0,0,0,0,0,0,0,0,0,0,0,0,0,0,0,0,0,0,0,0,0,0,0,0,0,0,0,0,0,0,0,0,0,0,0,0,0,0,0,0,0,0,0,0,0,0,0,0,0,0,0,0,0,0,0,0,0,0,0,0,0,0,0,0,0,0,0,0,0,0,0,0,0,0,0,0,0,0,0,0,0,0,0,0,0,0,0,0,0,0,0,0,0,0,0,0,0,0,0,0,0,0,0,0,0,0,0,0,0,0,0,0,0,0,0,0,0,0,0,0,0,0,0,0,0,0,0,0,0,0,0,0,0,0,0,0,0,0,0,0,0,0,0,0,0,0,0,0,0,0,0,0,0,0,0,0,0,0,0,0,0,0,0,0,0,0,0,0,0,0,0,0,0,0,0,0,0,0,0,0,0,0,0,0,0,0,0,0,0,0
0,0,0,0,0,0,0,0,0,0,0,0,0,0,0,0,0,1289.5,1294.25,1289.61,1286.89,1282.92,1280.54,1278.36,1275.93,1273.12,1269.11,1266.03,1264.32,1262.8,1261.76,1260.96,1259.91,1258.52,1257.03,1255.31,1253.04,1250.97,1248.81,1246.65,1244.79,1242.77,1241.33,1240.29,1239.36,1238.52,1237.44,1236.71,1235.53,1234.8,1234.05,1233.13,1232.39,1231.26,1230.29,1229.72,1229.56,1229.17,1228.76,1228.37,1227.71,1227,1226.38,1225.92,1225.57,1225.42,1225.3,1225.16,1225.57,1226.37,1227.61,1228.98,1230.53,1232.31,1233.73,1235.9,1238.58,1240.69,1242.67,1244.44,1246.22,1247.59,1248.63,1249.51,1249.81,1249.4,1248.74,1248.08,1246.91,1245.77,1244.71,1243.28,1242.04,1240.92,1240.15,1239.44,1239.34,1239.55,1239.85,1240.43,1241.26,1242.28,1243.39,1244.61,1245.88,1246.38,1246.89,1246.92,1246.74,1246.12,1244.84,1243.43,1241.63,1239.79,1238.37,1237.05,1235.92,1235.3,1234.58,1234.43,1234.19,1234.37,1235.08,1235.55,1236.14,1236.77,1237.4,1238.04,1238.61,1238.81,1238.81,1239.16,1239.61,1238.75,1237.52,1236.46,1235.6,1235.04,1234.74,1235.16,1234.7,1234.37,1234.19,1235.02,1236.58,1238.48,1240.85,1242.49,1244.03,1245.51,1246.46,1247.04,1247.18,1245.84,1244.38,1243.14,1241.95,1240.81,1240.19,1239.92,1239.94,1240.22,1240.71,1241.99,1242.77,1243.4,1244.17,1244.94,1245.33,1246.14,1246.49,1245.94,1244.61,1243.27,1241.86,1240.06,1238.35,1236.95,1235.48,1234.3,1234.33,1234.3,1234.26,1234.55,1234.93,1235.43,1235.45,1235.27,1234.22,1234.51,1233.86,1233.93,1234.22,1235.08,1235.6,1236.62,1238.17,1239.91,1241.21,1242.54,1243.16,1243.64,1243.89,1244.92,1245.13,1244.66,1244.1,1244.04,1244.53,1244.74,1244.1,1243.04,1242.33,1242.16,1241.97,1242.41,1243.13,1243.27,1243.5,1245.13,1247.1,1248.32,1248.87,1249.2,1248.75,1247.96,1248.42,1248.42,1247.85,1247.14,1246.29,1246.05,1246.51,1246.8,1247.17,1246.58,1245.91,1245.08,1244.41,1243.59,1242.22,1240.94,1239.35,1238.62,1237.87,1236.97,1236.89,1236.49,1236.42,1237,1237.49,1237.98,1238.88,1239.7,1241.34,1242.56,1243.84,1245.03,1246.1,1247.13,1247.47,1248.32,1248.69,1248.85,1249.09,1249.57,1249.58,1249.53,1249.29,1249,1248.18,1247.53,1246.35,1244.98,1243.3,1241.38,1240.56,1240.21,1240.1,1240.04,1240.25,1241.43,1242.46,1244.02,1245.73,1246.45,1246.85,1246.28,1245.26,1244.33,1243.04,1241.39,1239.49,1236.89,1235.14,1232.84,1232.01,1231.92,1231.46,1231.31,1231.02,1231.03,1232.14,1233.41,1234.59,1235.93,1236.31,1236.88,1237.81,1238.84,1239.53,1238.97,1237.3,1236.49,1235.31,1233.7,1232.42,1230.48,1228.83,1226.46,1225.15,1224.14,1223.96,1223.18,1223.08,1223.32,1223.55,1223.14,1223.39,1223.69,1223.84,1222.77,1222.22,1221.53,1221.05,1221.03,1221.64,1222.06,1222.72,1222.8,1224.06,1224.2,1225.24,1226.04,1226.15,1226.23,1226.41,1226.29,1226.39,1227.14,1227.57,1228.45,1229.36,1230.83,1232.28,1233.83,1235.78,1237.12,1238.07,1239.31,1239.96,1240.25,1240.66,1240.44,1240.81,1240.68,1240.28,1240.15,1239.35,1238.06,1236.33,1234.74,1233.12,1231.39,1229.56,1227.46,1224.28,1221.05,1217.88,1214.2,1209.86,1204.66,1198.1,1191.4,1182.73,1170.14,1153.04,1119.25,1085.11,1055.04,1019.68,1002.67,0,0,0,0,0,0,0,0,0,0,0,0,0,0,0,0,0,0,0,0,0,0,0,0,0,0,0,0,0,0,0,0,0,0,0,0,0,0,0,0,0,0,0,0,0,0,0,0,0,0,0,0,0,0,0,0,0,0,0,0,0,0,0,0,0,0,0,0,0,0,0,0,0,0,0,0,0,0,0,0,0,0,0,0,0,0,0,0,0,0,0,0,0,0,0,0,0,0,0,0,0,0,0,0,0,0,0,0,0,0,0,0,0,0,0,0,0,0,0,0,0,0,0,0,0,0,0,0,0,0,0,0,0,0,0,0,0,0,0,0,0,0,0,0,0,0,0,0,0,0,0,0,0,0,0,0,0,0,0,0,0,0,0,0,0,0,0,0,0,0,0,0,0,0,0,0,0,0,0,0,0,0,0,0,0,0,0,0,0,0,0,0,0,0,0,0,0,0,0,0,0,0,0,0,0,0,0,0,0,0,0,0,0,0,0,0,0,0,0,0,0,0,0,0,0,0,0,0,0,0,0,0,0,0,0,0,0,0,0,0,0,0,0,0,0,0,0,0
0,0,0,0,0,0,0,0,0,0,0,0,0,0,0,0,0,1289.75,1288.4,1283.94,1280.81,1276.86,1273.98,1272.05,1269.3,1266.57,1262.47,1259.55,1257.37,1256.14,1254.98,1253.95,1252.54,1250.66,1248.67,1246.51,1244.54,1242.15,1239.75,1237.46,1235.29,1233.37,1232.05,1231.16,1230.35,1229.52,1228.88,1227.53,1226.73,1225.61,1224.93,1223.92,1222.79,1221.9,1220.8,1220.11,1219.91,1219.63,1219.29,1218.81,1218.08,1217.37,1217.13,1216.68,1216.48,1216.49,1216.44,1216.48,1216.98,1217.71,1219.02,1220.32,1221.67,1223.51,1224.86,1226.9,1229.31,1231.71,1233.45,1234.94,1236.68,1238.13,1239.26,1239.91,1240.25,1239.96,1239.3,1238.6,1237.8,1236.57,1235.31,1233.99,1232.89,1232.22,1231.48,1231.16,1231.15,1231.64,1231.83,1232.59,1233.35,1234.52,1235.49,1236.81,1237.71,1238.47,1238.98,1239.33,1239.18,1238.52,1237.43,1236.22,1234.77,1233.26,1231.97,1230.98,1230.18,1229.7,1228.79,1228.58,1228.5,1228.98,1229.61,1230.16,1230.39,1230.7,1232.13,1232.24,1232.69,1232.77,1232.17,1232.49,1232.2,1231.64,1230.51,1229.25,1228.8,1227.81,1227.84,1228.13,1227.47,1227.08,1227.03,1227.7,1229.04,1231.05,1232.92,1234.69,1235.87,1236.73,1237.81,1238.22,1237.96,1236.74,1235.09,1233.6,1232.45,1231.43,1230.44,1230.17,1229.9,1230.23,1230.62,1231.79,1232.31,1232.74,1233.42,1234.08,1234.54,1235.19,1235.77,1235.42,1234.3,1233.04,1231.82,1230.35,1228.88,1227.82,1226.51,1225.23,1225.02,1225.14,1224.8,1224.74,1224.97,1225.28,1225.19,1224.67,1223.98,1224.24,1223.64,1223.76,1224.69,1225.67,1226.17,1227.28,1228.69,1230.51,1231.67,1232.9,1233.73,1233.87,1233.53,1234.06,1233.57,1232.84,1232.44,1232.27,1232.38,1232.26,1231.6,1231.04,1230.5,1230.84,1230.96,1231.92,1232.82,1233.2,1233.75,1235.6,1236.79,1237.86,1238.22,1238.26,1237.63,1236.62,1236.11,1236.48,1235.55,1234.6,1234.06,1233.94,1234.07,1234.62,1235.12,1234.82,1234.46,1234.03,1233.9,1233.2,1232.13,1231.27,1229.49,1228.67,1228.18,1227.54,1227.26,1227,1226.65,1227.14,1227.72,1227.99,1228.79,1229.86,1230.97,1232.08,1232.83,1233.83,1234.95,1235.29,1235.59,1236.19,1236.24,1236.42,1236.64,1237.28,1237.33,1237.27,1237.08,1237.03,1236.36,1235.73,1235.83,1234.11,1232.35,1230.56,1229.57,1229.4,1229.66,1229.71,1229.55,1230.3,1231.25,1233.16,1234.93,1235.92,1236.31,1235.48,1234.29,1233.84,1232.42,1231.12,1229.36,1227.15,1225,1222.86,1222.12,1222.15,1221.51,1221.22,1220.92,1221.08,1221.9,1223.49,1224.8,1226.18,1226.91,1227.93,1228.91,1230.26,1230.98,1230.2,1229.07,1227.81,1226.53,1224.92,1223.39,1221.25,1219.4,1216.88,1215.58,1214.85,1214.68,1213.84,1214.07,1214.19,1214.52,1214.05,1214.5,1214.97,1214.94,1213.67,1212.98,1212.02,1211.47,1210.96,1211.44,1211.45,1211.89,1212.23,1213.02,1213.93,1215.16,1215.74,1215.82,1215.92,1216.07,1216.17,1216.87,1217.62,1218.23,1218.96,1220.1,1221.44,1222.96,1224.43,1226.5,1227.81,1229.51,1230.66,1231.64,1232.61,1233.09,1233.55,1233.95,1234.05,1234.24,1234.06,1233.44,1232.42,1230.74,1229.23,1228.09,1226.58,1224.87,1223.28,1220.64,1217.26,1214.15,1211.09,1207.09,1202.34,1196.51,1189.76,1181.73,1171.54,1158.68,1120.65,1096.7,1058,1024.25,1003.14,0,0,0,0,0,0,0,0,0,0,0,0,0,0,0,0,0,0,0,0,0,0,0,0,0,0,0,0,0,0,0,0,0,0,0,0,0,0,0,0,0,0,0,0,0,0,0,0,0,0,0,0,0,0,0,0,0,0,0,0,0,0,0,0,0,0,0,0,0,0,0,0,0,0,0,0,0,0,0,0,0,0,0,0,0,0,0,0,0,0,0,0,0,0,0,0,0,0,0,0,0,0,0,0,0,0,0,0,0,0,0,0,0,0,0,0,0,0,0,0,0,0,0,0,0,0,0,0,0,0,0,0,0,0,0,0,0,0,0,0,0,0,0,0,0,0,0,0,0,0,0,0,0,0,0,0,0,0,0,0,0,0,0,0,0,0,0,0,0,0,0,0,0,0,0,0,0,0,0,0,0,0,0,0,0,0,0,0,0,0,0,0,0,0,0,0,0,0,0,0,0,0,0,0,0,0,0,0,0,0,0,0,0,0,0,0,0,0,0,0,0,0,0,0,0,0,0,0,0,0,0,0,0,0,0,0,0,0,0,0,0,0,0,0,0,0,0,0
0,0,0,0,0,0,0,0,0,0,0,0,0,0,0,0,1291,1283,1282.25,1276.98,1272.74,1269.38,1267.45,1265.36,1263.5,1260.01,1256.37,1253.34,1251.6,1249.99,1248.96,1247.36,1245.68,1243.55,1241.3,1239.01,1236.54,1233.99,1231.43,1228.84,1226.67,1224.69,1223.34,1222.42,1221.6,1220.84,1220.01,1218.84,1217.84,1216.92,1216.1,1215.11,1214.04,1212.97,1211.98,1211.5,1211.24,1210.82,1210.62,1210.18,1209.74,1209.3,1209.08,1209.07,1208.89,1208.87,1208.88,1209.08,1209.49,1210.27,1211.59,1212.61,1213.97,1215.59,1216.83,1218.45,1220.74,1222.62,1224.23,1225.48,1227.12,1228.72,1229.72,1230.39,1230.54,1230.1,1229.63,1229.16,1228.1,1227.19,1225.83,1224.8,1223.81,1223.52,1223.04,1222.96,1223.17,1223.71,1224.21,1224.87,1225.81,1226.77,1227.61,1228.91,1229.94,1230.42,1231.21,1231.58,1231.52,1231.08,1230.53,1229.59,1228.26,1226.98,1225.71,1224.71,1223.99,1223.58,1223.09,1222.64,1222.48,1222.55,1223.07,1223.35,1223.49,1223.38,1224.2,1224.04,1224.55,1224.83,1224.4,1224.92,1224.85,1224.3,1223.49,1222.75,1222.69,1221.83,1221.67,1222.01,1221.49,1221.03,1221.12,1221.76,1222.68,1224.06,1225.84,1226.71,1227.59,1228.04,1228.1,1228.19,1227.88,1226.63,1224.85,1223.73,1222.58,1221.5,1220.53,1220.33,1220.27,1220.3,1220.55,1221.27,1221.89,1222,1222.4,1223.24,1223.57,1224.09,1224.45,1224.36,1223.42,1222.71,1222,1221.03,1219.81,1218.91,1217.52,1216.5,1216.15,1216.12,1215.61,1215.38,1215.46,1215.61,1215.5,1215.42,1214.5,1214.8,1214.29,1214.73,1215.6,1216.53,1217.17,1218.22,1219.65,1221.38,1222.52,1223.59,1224,1223.93,1223.39,1223.15,1222.92,1221.73,1221.12,1220.6,1220.44,1220.19,1219.78,1219.56,1219.69,1220.22,1220.83,1222.22,1223.84,1224.83,1225.42,1226.68,1227.88,1228.43,1228.34,1228.03,1226.96,1225.53,1224.67,1224.53,1223.81,1223.03,1222.44,1222.5,1223.02,1223.5,1223.98,1223.85,1223.8,1223.69,1223.7,1223.14,1222.18,1221.82,1220.36,1219.55,1218.77,1218.3,1217.77,1217.53,1217.43,1217.71,1218.22,1218.67,1219.26,1219.88,1220.65,1221.34,1221.63,1221.96,1222.49,1222.3,1222.25,1222.32,1222.06,1222.39,1222.68,1223.35,1223.54,1223.51,1223.66,1223.92,1223.62,1223.93,1223.51,1222.29,1220.61,1219.07,1218.24,1218.17,1218.22,1218.23,1218.04,1218.21,1218.8,1220.06,1221.59,1222.64,1222.93,1222.22,1221.35,1220.78,1220.06,1219.19,1217.87,1215.93,1214.28,1212.37,1211.62,1211.44,1210.85,1210.61,1210.14,1210.38,1211.4,1212.84,1214.48,1215.98,1216.88,1217.82,1218.99,1220.43,1221.3,1220.55,1219.04,1218.08,1216.59,1215.16,1213.74,1211.7,1209.49,1206.96,1205.95,1205.35,1205.37,1204.79,1204.82,1205,1205.34,1205.11,1205.88,1206.27,1206.18,1205.15,1204.38,1203.26,1202.85,1202.75,1203.41,1203.26,1203.32,1203.42,1203.9,1204.69,1205.44,1206.08,1206.05,1205.69,1206.21,1206.57,1207.48,1208.52,1209.12,1210.07,1211,1212.47,1214.11,1215.54,1217.16,1218.81,1220.55,1222.13,1223.37,1224.62,1225.24,1225.67,1226.67,1227.11,1227.39,1227.33,1226.96,1226.03,1224.34,1223.27,1222.53,1220.83,1220.55,1219.09,1216.66,1213.06,1210.21,1207.51,1203.92,1199.32,1194.23,1188.26,1180.19,1171.37,1158.59,1126.87,1094.19,1054.8,1018.44,1001.5,0,0,0,0,0,0,0,0,0,0,0,0,0,0,0,0,0,0,0,0,0,0,0,0,0,0,0,0,0,0,0,0,0,0,0,0,0,0,0,0,0,0,0,0,0,0,0,0,0,0,0,0,0,0,0,0,0,0,0,0,0,0,0,0,0,0,0,0,0,0,0,0,0,0,0,0,0,0,0,0,0,0,0,0,0,0,0,0,0,0,0,0,0,0,0,0,0,0,0,0,0,0,0,0,0,0,0,0,0,0,0,0,0,0,0,0,0,0,0,0,0,0,0,0,0,0,0,0,0,0,0,0,0,0,0,0,0,0,0,0,0,0,0,0,0,0,0,0,0,0,0,0,0,0,0,0,0,0,0,0,0,0,0,0,0,0,0,0,0,0,0,0,0,0,0,0,0,0,0,0,0,0,0,0,0,0,0,0,0,0,0,0,0,0,0,0,0,0,0,0,0,0,0,0,0,0,0,0,0,0,0,0,0,0,0,0,0,0,0,0,0,0,0,0,0,0,0,0,0,0,0,0,0,0,0,0,0,0,0,0,0,0,0,0,0,0,0,0
0,0,0,0,0,0,0,0,0,0,0,0,0,0,0,0,0,1288,1275.75,1271.71,1267.99,1263.92,1261.2,1259.43,1256.67,1253.83,1250.48,1247.07,1245.47,1244.2,1242.81,1241.1,1239.3,1237.04,1234.62,1231.75,1229.17,1226.48,1223.55,1221.11,1218.44,1216.39,1215.08,1213.92,1212.96,1212.19,1211.23,1209.72,1208.66,1208,1207.28,1206.37,1205.24,1204.23,1203.48,1202.98,1202.93,1202.69,1202.39,1202.31,1202.1,1201.72,1201.89,1201.99,1201.86,1202.02,1202.12,1202.51,1202.79,1203.65,1204.85,1205.69,1206.72,1208.27,1209.39,1210.96,1212.88,1214.57,1215.9,1216.84,1218.21,1219.47,1220.16,1220.81,1220.8,1220.42,1220.07,1219.6,1219,1218.12,1217.2,1216.11,1215.64,1215.28,1215.13,1214.93,1215.42,1215.94,1216.57,1217.45,1218.53,1219.27,1220.25,1221.31,1222.09,1222.94,1223.67,1224.38,1224.51,1224.13,1223.44,1222.85,1222.09,1220.55,1219.71,1218.66,1217.8,1217.26,1216.63,1215.97,1215.43,1215.26,1215.48,1215.62,1215.58,1215.2,1216.04,1215.72,1216.15,1216.16,1215.78,1216,1216.17,1215.68,1215.22,1214.64,1214.94,1214.5,1214.53,1214.96,1214.94,1214.88,1214.95,1215.34,1216.31,1217.48,1218.61,1219.05,1219.4,1219.21,1218.85,1218.7,1218.26,1217.33,1215.61,1214.66,1214.14,1213.14,1212.51,1212.65,1212.74,1213,1213.31,1214.18,1214.59,1214.33,1214.67,1215.44,1215.99,1216.18,1216.36,1216.3,1215.6,1215,1214.52,1213.65,1212.87,1212.13,1211.04,1210.25,1209.88,1209.49,1208.65,1208.06,1207.99,1207.89,1207.62,1207.21,1206.06,1206.08,1205.55,1205.61,1206.31,1207.24,1207.79,1208.51,1209.54,1211.7,1213.06,1213.94,1214.26,1214.08,1213.67,1213.61,1212.69,1211.83,1211.26,1210.19,1210.09,1210.42,1210.5,1210.7,1210.79,1211.74,1212.32,1213.8,1215.56,1216.76,1217.62,1218.15,1218.64,1218.71,1218.14,1217.46,1216.12,1214.78,1213.68,1213.29,1212.7,1212.18,1212.12,1211.78,1212.46,1212.89,1213.21,1213.09,1213.55,1213.55,1213.64,1213.48,1212.61,1212.55,1211.11,1210.42,1209.75,1209.13,1208.84,1208.83,1209.1,1209.47,1209.73,1210.22,1210.74,1211.35,1212,1212.22,1211.84,1211.79,1211.88,1211.22,1210.48,1210.09,1209.7,1209.43,1209.57,1210.03,1210.11,1209.73,1209.89,1210.2,1210,1210.66,1210.54,1209.59,1208.14,1206.55,1206.18,1206.26,1206.13,1206.2,1205.89,1205.73,1206.08,1206.76,1208.44,1209,1209.25,1209.01,1208.34,1208.24,1207.69,1207.23,1206.63,1204.86,1203.54,1201.87,1201.44,1200.95,1200.42,1200.21,1199.86,1200.13,1201,1202.78,1204.31,1205.62,1206.56,1207.67,1208.62,1210.08,1210.7,1209.77,1208.72,1207.26,1206.18,1204.89,1203.74,1201.99,1200.14,1197.81,1196.8,1196.69,1196.9,1196.47,1196.62,1197.02,1197.32,1197.11,1198.01,1198.52,1198.52,1197.53,1196.67,1195.84,1195.42,1195.42,1196,1195.56,1195.4,1195.38,1195.72,1196.3,1196.92,1197.27,1197.56,1197.17,1197.87,1198.24,1198.94,1200.09,1201.75,1202.59,1203.71,1204.87,1206.3,1208.01,1209.86,1211.38,1213.58,1213.66,1215.3,1216.7,1217.46,1217.7,1218.96,1220.53,1220.88,1220.63,1220.53,1219.68,1218.67,1217.6,1217.45,1216.2,1215.21,1214.34,1212.08,1209.49,1207.19,1204.87,1202.24,1198.22,1193.23,1187.8,1180.1,1170.33,1156.04,1113.5,1081.8,1045.91,1008.8,0,0,0,0,0,0,0,0,0,0,0,0,0,0,0,0,0,0,0,0,0,0,0,0,0,0,0,0,0,0,0,0,0,0,0,0,0,0,0,0,0,0,0,0,0,0,0,0,0,0,0,0,0,0,0,0,0,0,0,0,0,0,0,0,0,0,0,0,0,0,0,0,0,0,0,0,0,0,0,0,0,0,0,0,0,0,0,0,0,0,0,0,0,0,0,0,0,0,0,0,0,0,0,0,0,0,0,0,0,0,0,0,0,0,0,0,0,0,0,0,0,0,0,0,0,0,0,0,0,0,0,0,0,0,0,0,0,0,0,0,0,0,0,0,0,0,0,0,0,0,0,0,0,0,0,0,0,0,0,0,0,0,0,0,0,0,0,0,0,0,0,0,0,0,0,0,0,0,0,0,0,0,0,0,0,0,0,0,0,0,0,0,0,0,0,0,0,0,0,0,0,0,0,0,0,0,0,0,0,0,0,0,0,0,0,0,0,0,0,0,0,0,0,0,0,0,0,0,0,0,0,0,0,0,0,0,0,0,0,0,0,0,0,0,0,0,0,0,0
0,0,0,0,0,0,0,0,0,0,0,0,0,0,0,0,0,1280,1272.25,1268.38,1261.94,1257.65,1254.47,1252.63,1250,1247.24,1243.72,1240.72,1239.18,1237.77,1236.63,1235.1,1233.21,1230.55,1227.86,1225.08,1222.33,1219.44,1216.22,1213.34,1210.5,1208.31,1206.76,1205.37,1204.29,1203.05,1202.14,1200.78,1199.7,1198.81,1198.26,1197.4,1196.29,1195.43,1194.83,1194.45,1194.64,1194.59,1194.35,1194.55,1194.45,1194.56,1194.82,1194.9,1195.2,1195.34,1195.81,1196.19,1196.62,1197.6,1198.6,1199.34,1200.27,1201.37,1202.39,1203.5,1205.1,1206.34,1207.55,1208.21,1209.23,1210.41,1211.1,1211.7,1211.59,1211.35,1211.04,1210.48,1209.65,1208.87,1207.71,1206.88,1206.6,1206.61,1206.51,1206.71,1207.26,1207.99,1208.84,1209.93,1210.88,1211.54,1212.47,1213.48,1214.64,1215.29,1216.1,1216.82,1217.31,1217.06,1216.48,1216.07,1215.39,1214.17,1213.25,1212.57,1211.23,1210.43,1209.52,1208.57,1208.06,1207.57,1207.4,1206.98,1206.57,1206.17,1206.88,1206.45,1206.9,1206.83,1206.48,1206.38,1206.28,1205.84,1205.57,1205.42,1205.64,1205.55,1205.95,1206.93,1207.57,1208.07,1208.25,1208.85,1209.58,1210.48,1211.39,1211.59,1211.72,1211.2,1210.52,1210.52,1210.01,1208.98,1207.47,1206.51,1205.96,1205.41,1204.92,1204.81,1205.06,1205.52,1205.85,1207.01,1207.58,1207.33,1207.97,1208.79,1209.13,1209.2,1209.24,1209.19,1208.78,1208.29,1207.76,1207.22,1206.45,1205.93,1205.05,1204.33,1203.73,1202.98,1202.09,1201.23,1201.13,1201.03,1200.4,1200.09,1198.56,1198.52,1198.05,1197.89,1198.55,1199.1,1199.36,1200.36,1201.47,1203.12,1204.56,1205.51,1205.79,1205.61,1204.76,1204.42,1204.02,1202.99,1202.67,1201.8,1201.71,1201.84,1201.9,1202.27,1202.63,1203.24,1203.98,1205.51,1206.83,1207.52,1207.8,1208.09,1208.04,1207.81,1207.13,1206.32,1205.4,1204.39,1203.99,1203.58,1203.46,1203.06,1202.79,1202.54,1202.63,1202.6,1202.54,1202.72,1203.26,1203.14,1203.05,1202.97,1202.52,1202.52,1201.51,1201.24,1200.81,1200.48,1200.31,1200.56,1200.95,1201.47,1202.16,1202.66,1203.4,1204.13,1204.66,1204.58,1203.99,1203.68,1203.68,1202.46,1201.33,1200.43,1199.46,1198.71,1198.46,1198.53,1198.46,1198.09,1198.52,1199.27,1199.46,1200.02,1200.1,1200.02,1198.92,1197.6,1196.91,1196.97,1196.48,1196.04,1195.7,1195.19,1194.99,1195.29,1196.45,1197.1,1197.18,1196.73,1196.4,1196.47,1196.32,1196.34,1196.19,1195.17,1193.83,1192.4,1192.17,1191.85,1191.41,1191.2,1191.09,1191.25,1192.08,1193.74,1195.41,1196.97,1197.94,1198.69,1199.41,1200.55,1200.86,1199.88,1198.2,1197.2,1195.99,1194.93,1194.14,1192.89,1191.2,1189.28,1188.73,1188.73,1188.99,1189.01,1189.4,1189.49,1189.83,1189.54,1190.74,1191.31,1191.19,1190.16,1189.53,1188.99,1188.64,1188.73,1188.89,1188.66,1188.4,1188.32,1188.28,1188.55,1189,1189.31,1189.46,1189.13,1189.59,1190.15,1191.04,1191.82,1193.4,1194.45,1195.25,1196.37,1197.87,1199.53,1201.19,1202.89,1204.55,1205.33,1206.76,1208.34,1209.32,1209.62,1210.84,1212.66,1213.02,1212.89,1213.03,1212.43,1211.63,1211.11,1211.24,1210.41,1209.77,1209.64,1208,1205.66,1204.46,1202.58,1200.82,1196.99,1192.9,1188.32,1180.37,1170.79,0,0,0,0,0,0,0,0,0,0,0,0,0,0,0,0,0,0,0,0,0,0,0,0,0,0,0,0,0,0,0,0,0,0,0,0,0,0,0,0,0,0,0,0,0,0,0,0,0,0,0,0,0,0,0,0,0,0,0,0,0,0,0,0,0,0,0,0,0,0,0,0,0,0,0,0,0,0,0,0,0,0,0,0,0,0,0,0,0,0,0,0,0,0,0,0,0,0,0,0,0,0,0,0,0,0,0,0,0,0,0,0,0,0,0,0,0,0,0,0,0,0,0,0,0,0,0,0,0,0,0,0,0,0,0,0,0,0,0,0,0,0,0,0,0,0,0,0,0,0,0,0,0,0,0,0,0,0,0,0,0,0,0,0,0,0,0,0,0,0,0,0,0,0,0,0,0,0,0,0,0,0,0,0,0,0,0,0,0,0,0,0,0,0,0,0,0,0,0,0,0,0,0,0,0,0,0,0,0,0,0,0,0,0,0,0,0,0,0,0,0,0,0,0,0,0,0,0,0,0,0,0,0,0,0,0,0,0,0,0,0,0,0,0,0,0,0,0,0,0,0,0,0,0
0,0,0,0,0,0,0,0,0,0,0,0,0,0,0,0,0,1274,1271,1265.71,1257.71,1250.88,1247.46,1245.46,1243.18,1240.18,1237.34,1234.41,1232.84,1231.34,1230.25,1228.82,1226.74,1224.01,1221.27,1218.26,1215.63,1211.84,1208.87,1205.66,1202.55,1200.27,1198.57,1196.88,1195.66,1194.52,1193.26,1191.88,1190.63,1189.95,1189.35,1188.23,1187.39,1186.68,1186.18,1186.36,1186.57,1186.59,1186.6,1186.9,1186.99,1187.65,1188.12,1188.53,1188.84,1189.27,1189.64,1190.16,1190.53,1191.61,1192.21,1193.03,1193.76,1194.6,1195.01,1196.07,1197.26,1198.21,1199.13,1199.73,1200.47,1201.54,1202.13,1202.64,1202.65,1202.36,1201.97,1201.34,1200.55,1199.83,1198.98,1198.08,1197.87,1197.72,1197.58,1197.95,1198.59,1199.41,1200.4,1201.6,1202.51,1203.18,1204.21,1205.04,1206.06,1206.85,1207.79,1208.6,1208.78,1208.64,1208.16,1207.98,1207.4,1206.22,1205.35,1204.03,1202.78,1201.68,1200.69,1199.92,1199.1,1198.37,1198.25,1197.65,1197.3,1197.09,1197.89,1197.47,1197.81,1197.48,1196.98,1196.8,1196.62,1196.15,1196.24,1195.91,1196.5,1196.33,1197.22,1198.6,1199.49,1200.18,1200.81,1201.2,1202.03,1202.81,1203.61,1203.8,1203.6,1203.17,1202.66,1202.34,1202.03,1200.93,1199.73,1198.82,1198.45,1197.87,1197.27,1197.42,1197.63,1198.15,1198.53,1199.69,1200.58,1200.62,1201.28,1201.96,1202.23,1202.41,1202.42,1202.54,1202.2,1201.77,1201.17,1200.68,1200.04,1200.05,1199.04,1198.26,1197.49,1196.57,1195.51,1194.66,1194.22,1194.06,1193.14,1192.78,1191.38,1191.55,1190.92,1190.71,1190.94,1191.07,1191.32,1191.8,1192.3,1193.63,1194.67,1195.3,1195.88,1195.4,1194.57,1194.37,1193.84,1193.09,1192.77,1192.55,1192.66,1192.57,1193.13,1193.66,1193.89,1194.67,1195.77,1196.66,1197.54,1198.16,1198.38,1198.33,1198.12,1197.82,1197.28,1196.46,1195.71,1195.02,1194.81,1194.73,1194.46,1194.35,1194.33,1194.24,1194.64,1194.58,1194.35,1194.19,1194.31,1193.94,1193.82,1193.6,1193.26,1192.9,1192.67,1192.49,1192.31,1192.13,1192.05,1192.69,1193.17,1193.74,1194.5,1195.36,1196.25,1196.74,1197.38,1197.21,1196.62,1196.34,1196.5,1195.32,1194.15,1193.02,1192.07,1191.13,1190.81,1190.6,1190.36,1189.86,1190.27,1190.99,1191.36,1191.89,1192.14,1191.91,1191,1189.78,1189.07,1188.54,1188,1187.26,1186.39,1185.89,1185.31,1185.44,1186.2,1186.89,1186.89,1186.54,1186.48,1186.54,1186.7,1186.78,1187.16,1186.48,1185.72,1184.61,1184.55,1184.08,1183.65,1183.45,1183.53,1183.58,1184.21,1185.75,1187.15,1188.23,1189.17,1190.02,1190.48,1190.91,1191.02,1189.65,1188.21,1187.18,1186.27,1185.22,1184.71,1183.8,1182.59,1180.94,1180.58,1180.78,1181.57,1181.75,1182.02,1182,1182.16,1182.34,1183.47,1184.22,1184.14,1183.07,1182.58,1182.29,1181.92,1181.93,1182.29,1181.72,1181.6,1181.38,1181.23,1181.46,1181.58,1181.72,1181.86,1181.63,1181.94,1182.38,1182.98,1183.83,1185.73,1186.61,1187.61,1188.37,1189.72,1191.08,1192.61,1194.03,1196.06,1196.34,1198.13,1199.59,1200.83,1201.26,1202.52,1204.52,1205.42,1205.82,1206.16,1205.98,1205.49,1205.54,1206.3,1205.92,1205.91,1205.68,1204.57,1203.22,1202.16,1200.95,1199.74,1195.71,1192.15,1187,1180,0,0,0,0,0,0,0,0,0,0,0,0,0,0,0,0,0,0,0,0,0,0,0,0,0,0,0,0,0,0,0,0,0,0,0,0,0,0,0,0,0,0,0,0,0,0,0,0,0,0,0,0,0,0,0,0,0,0,0,0,0,0,0,0,0,0,0,0,0,0,0,0,0,0,0,0,0,0,0,0,0,0,0,0,0,0,0,0,0,0,0,0,0,0,0,0,0,0,0,0,0,0,0,0,0,0,0,0,0,0,0,0,0,0,0,0,0,0,0,0,0,0,0,0,0,0,0,0,0,0,0,0,0,0,0,0,0,0,0,0,0,0,0,0,0,0,0,0,0,0,0,0,0,0,0,0,0,0,0,0,0,0,0,0,0,0,0,0,0,0,0,0,0,0,0,0,0,0,0,0,0,0,0,0,0,0,0,0,0,0,0,0,0,0,0,0,0,0,0,0,0,0,0,0,0,0,0,0,0,0,0,0,0,0,0,0,0,0,0,0,0,0,0,0,0,0,0,0,0,0,0,0,0,0,0,0,0,0,0,0,0,0,0,0,0,0,0,0,0,0,0,0,0,0,0
