0,0,0,0,0,0,0,0,0,0,0,0,0,0,0,0,0,0,0,0,0,0,0,0,0,0,0,0,0,0,0,0,0,0,0,0,0,0,0,0,0,0,0,0,0,0,0,0,0,0,0,0,0,0,0,0,0,0,0,0,0,0,0,0,0,0,0,0,0,0,0,0,0,0,0,0,0,0,0,0,0,0,0,0,0,0,37.2,55.8,130.3,167.6,167.5,167.5,167.6,149,167.6,167.6,167.8,167.9,167.9,168,168.2,168.2,168.2,168.2,168.1,168.1,167.8,167.8,167.6,167.5,167.4,167.4,167.4,167.4,167.4,167.4,167.5,167.8,167.9,149.2,149.2,149.3,149.3,149.3,130.7,149.4,149.4,149.3,149.2,130.6,130.4,130.2,111.5,130,130,166.9,166.7,166.6,166.6,166.5,166.5,166.5,166.5,166.8,166.7,166.7,166.6,166.5,148,111,166.5,166.5,166.5,166.5,166.6,166.8,166.9,166.9,166.9,166.9,166.9,167,167.2,167.2,166.9,166.9,166.8,166.6,166.6,166.6,166.6,166.6,166.6,166.6,166.6,166.6,166.6,166.5,166.5,166.5,166.5,166.5,166.5,166.5,148,166.5,166.5,166.6,166.6,166.6,166.6,166.6,166.6,148.1,166.6,166.6,166.6,166.5,166.5,166.6,166.7,166.8,166.7,166.7,166.7,166.7,166.6,166.5,166.5,166.5,166.5,166.5,166.5,166.5,166.5,166.5,166.5,166.5,166.5,166.5,166.5,166.5,166.5,166.5,166.7,167,167.1,167.2,167.2,167.2,167.3,167.4,167.3,167.3,167.1,167,166.8,166.8,167,167.2,167.1,167.1,167.2,167.2,167.2,167.1,167.1,167.1,167.1,166.9,166.9,166.9,167,185.7,166.9,185.5,185.6,185.5,185.5,166.8,166.8,185.6,185.6,185.6,166.9,166.9,167,167,167.1,167.1,148.5,130,130,148.7,148.7,148.8,149,148.9,148.9,148.8,148.7,148.7,148.8,167.4,167.4,167.1,167.1,167,167.1,167.1,167.2,167.3,167.4,167.5,167.6,149.2,149.2,149.4,149.5,149.6,149.8,131.2,149.9,131.4,131.5,169.3,169.4,169.6,169.6,169.6,169.5,169.4,131.8,112.9,75.1,149.8,149.8,149.6,168.2,168,167.8,149.1,167.6,167.7,167.6,167.5,186.4,167.6,167.5,167.5,186.2,186.2,186.2,186.2,186.2,186.2,186.1,186.1,186,185.9,185.9,185.9,185.9,185.9,185.9,185.9,185.9,167.3,185.8,185.8,185.7,185.6,185.5,167,166.9,185.3,185.2,185.1,185.1,185.1,185.1,185.1,185.1,185.1,185.1,185.1,185.1,185,185,185,184.9,184.9,185,185.1,185.1,185.2,185.5,148.3,92.7,111.2,92.7,167,167,148.4,185.7,185.6,185.7,185.6,185.6,185.6,167,167,185.5,185.4,185.4,185.4,185.2,148.1,129.5,129.5,129.5,111,111,92.5,92.5,74,111.1,111.2,55.6,18.5,18.5,18.5,18.5,18.5,18.5,37.1,111.5,111.5,111.4,111.5,111.6,111.6,111.6,111.6,111.5,74.3,92.9,111.6,111.8,111.8,93.2,111.8,93.1,111.7,74.5,93.1,111.7,111.7,111.7,111.7,111.7,111.7,111.7,93,111.7,111.6,111.6,111.6,148.8,167.2,167.2,130.2,130,148.7,130,130.1,111.4,92.9,92.8,93,92.9,92.9,93,93,93,93.3,93.5,0,18.7,18.7,0,0,75.1,37.5,0,0,0,0,0,0,0,0,0,0,0,93.9,112.7,112.7,112.6,150,168.6,168.5,168.4,112.2,112.1,93.3,93.2,93.1,93.2,93.2,93.2,93.2,93.3,93.3,93.2,74.6,74.5,93.1,93.2,56.1,18.7,0,18.7,0,0,0,0,0,0,0,0,57,95,114,114,152,152,151.9,132.9,37.9,18.9,0,18.9,0,0,0,0,0,0,0,0,0,0,0,0,0,0,0,0,0,0,0,0,0,0,0,0,0,0,0,0,0,0,0,0,0,0,0,0,0,0,0,0,0,0,0,0,0,0,0,0,0,0,0,0,0,0,0,0,0,0,0,0,0,0,0
0,0,0,0,0,0,0,0,0,0,0,0,0,0,0,0,0,0,0,0,0,0,0,0,0,0,0,0,0,0,0,0,0,0,0,0,0,0,0,0,0,0,0,0,0,0,0,0,0,0,0,0,0,0,0,0,0,0,0,0,0,0,0,0,0,0,0,0,0,0,0,0,0,0,0,0,0,0,0,0,0,0,0,0,0,0,0,0,55.8,148.7,148.7,167.2,167.1,167.1,167.1,167.1,167.3,167.4,167.4,167.5,167.7,167.8,149.1,167.6,167.5,167.4,167.3,167.3,167.3,167.1,166.9,167,167,167.1,167.1,167.2,167.3,167.3,167.3,130.2,130.2,130.3,130.2,149,130.2,130.1,148.9,167.4,167.4,167.4,167.3,129.9,148.5,129.7,129.5,166.4,166.4,166.3,166.3,166.3,166.1,166.3,166.2,166.3,166.3,166.3,166.3,166.3,166.3,166.3,166.1,166,165.9,165.9,166,166,166,166.1,166.1,166.5,166.5,166.5,166.5,166.5,166.5,166.5,166.5,166.5,166.5,166.4,166.5,166.3,166.2,166.2,166.2,166.2,166.2,166.2,166.2,166.3,166.3,166.3,166.3,166.3,166.3,166.3,166.3,166.3,166.4,166.4,166.3,166.3,147.8,166.4,166.5,166.5,166.5,166.5,166.5,166.5,166.5,166.5,166.5,166.5,166.5,166.5,166.5,166.5,166.5,166.5,166.5,166.5,166.5,166.5,166.5,166.4,166.4,166.4,166.5,166.5,166.5,166.4,166.4,166.5,166.5,166.5,166.5,166.5,166.5,166.5,166.5,166.5,166.5,166.5,166.5,166.5,166.5,166.5,166.5,166.5,166.5,166.5,166.5,166.5,166.5,166.5,166.5,166.5,166.5,166.5,166.5,166.5,166.5,185.1,185.1,166.5,166.5,166.4,166.5,166.4,166.4,166.4,185.1,166.4,166.4,166.4,166.5,166.5,166.5,166.6,166.8,148.3,148.3,148.4,148.4,148.4,148.4,129.8,129.8,148.3,166.9,148.3,148.3,148.2,148.3,166.9,129.8,129.8,129.8,129.8,167,167,167,167.1,167.1,167.4,149,149.1,149.2,149.4,149.5,131.1,131.2,131.2,112.6,112.6,150.5,169.3,169.5,150.8,150.8,113,94.2,131.4,93.7,131,168.1,168,149.3,186.5,149,167.4,167.4,167.3,167.1,167.1,167.2,167.1,167.2,167.4,186.2,185.9,186,185.9,185.8,185.7,185.5,185.4,185.4,185.3,185.3,185.3,185.3,185.3,185.2,185.3,166.8,185.1,185.1,185.1,185,184.9,184.9,184.9,185,185,185,184.9,184.9,184.9,184.8,184.8,184.8,185,184.7,184.7,184.7,184.7,184.6,184.5,184.6,184.5,184.6,184.6,184.6,184.6,166.2,92.3,55.5,92.5,92.5,185.1,166.5,166.5,129.4,148,166.4,166.5,185.2,166.6,111,185.1,185,185,166.5,166.5,184.9,184.9,166.3,184.5,147.7,110.5,92.2,92.5,55.5,37,111,73.9,55.5,18.5,18.5,18.5,18.5,18.5,18.5,92.5,111,111,92.5,92.5,111,111,111,37,18.5,18.5,18.5,37.1,18.6,18.6,18.5,18.6,18.6,18.6,18.6,18.6,74.3,111.5,92.9,92.9,92.9,92.7,92.7,92.6,92.6,148.2,92.6,148.1,129.6,148,148.1,148.1,148.1,129.5,129.5,92.6,74,92.5,92.5,92.5,92.6,92.6,92.8,93,55.8,37.2,93.2,0,0,0,0,0,0,56.1,0,0,0,0,0,0,0,0,0,0,0,37.2,74.8,0,0,0,56.1,112.2,112,93.2,93.1,93.1,93,93,93.1,93.2,93.2,74.5,93.2,74.6,0,0,0,0,0,0,0,0,0,0,0,0,0,0,0,0,0,0,38,57,57,95,114,114,56.9,37.8,18.9,0,0,0,0,0,0,0,0,0,0,0,0,0,0,0,0,0,0,0,0,0,0,0,0,0,0,0,0,0,0,0,0,0,0,0,0,0,0,0,0,0,0,0,0,0,0,0,0,0,0,0,0,0,0,0,0,0,0,0,0,0,0,0,0,0
0,0,0,0,0,0,0,0,0,0,0,0,0,0,0,0,0,0,0,0,0,0,0,0,0,0,0,0,0,0,0,0,0,0,0,0,0,0,0,0,0,0,0,0,0,0,0,0,0,0,0,0,0,0,0,0,0,0,0,0,0,0,0,0,0,0,0,0,0,0,0,0,0,0,0,0,0,0,0,0,0,0,0,0,0,0,0,0,18.6,55.5,55.5,129.5,148,166.4,166.4,166.4,166.5,166.6,129.8,148.2,148.3,111.3,92.9,111.4,167,167,167,166.8,166.8,166.7,166.7,166.7,166.6,166.6,166.6,166.5,166.5,166.7,166.8,166.9,166.9,148.4,166.9,166.9,129.9,148.4,148.4,129.9,148.6,129.9,111.1,129.5,129.4,166.3,166.2,165.8,165.6,165.6,165.6,165.6,165.6,165.6,165.6,165.6,165.6,165.6,165.6,165.6,165.6,165.6,165.6,165.5,165.5,165.5,165.5,165.6,165.9,166,166,166,166,166,166.1,166.1,166,166,165.8,165.7,165.7,165.7,165.7,165.7,165.7,165.7,165.7,165.7,165.6,165.6,165.6,165.6,165.6,165.6,165.6,165.6,165.6,165.6,165.6,165.6,165.6,165.6,165.6,165.6,165.6,165.6,165.6,165.6,165.6,165.6,165.6,165.6,165.7,165.8,165.8,165.8,165.8,165.8,166,165.8,165.7,165.6,165.6,165.6,165.6,165.6,165.6,165.6,165.6,165.6,165.6,165.6,165.6,165.6,165.6,165.6,165.6,165.6,165.6,165.6,165.7,165.7,165.8,166,166.1,166,166,166,166.1,166.1,165.9,165.8,165.8,165.9,165.9,165.9,166,165.8,165.9,165.9,165.9,165.8,165.8,165.7,165.7,165.7,184.2,184.2,165.7,165.7,165.7,165.7,165.7,165.8,184.5,165.9,166,166.2,166.2,147.7,166.2,166.2,166.2,166.5,147.9,147.9,147.9,148,148,147.9,147.9,166.4,166.4,166.4,166.4,166.3,147.7,147.7,147.5,166.3,166.3,166.5,147.9,148.1,148.1,166.8,167,167,167.2,148.9,149,149.1,149.2,130.6,131.1,131.1,112.6,131.4,112.6,112.7,131.8,131.8,150.5,131.3,112.7,149.6,149.6,130.8,112.1,149.2,149,148.9,167.2,167.2,148.7,167.2,167,167,166.9,166.9,166.9,148.3,185.4,185.4,185.2,185.1,185.1,166.6,148.1,185,184.9,184.9,184.9,184.8,184.9,184.9,184.8,184.8,184.8,184.7,184.8,184.7,184.5,184.5,184.5,184.5,166.1,184.5,184.2,184.4,184.2,184.3,184.2,184.2,184.2,184.1,184.1,184.1,184.1,184.1,184.1,184.1,184.1,184.1,184.1,184.1,184.1,128.9,92.1,92.1,92.1,92.1,92.1,184.2,184.2,147.4,129,184.4,184.5,166,166.1,184.4,184.4,184.3,184.1,165.6,147.2,165.6,184,184,128.8,128.8,147.2,128.6,110.3,92,73.6,110.4,110.4,73.6,55.2,36.8,18.4,18.4,18.4,18.4,18.4,73.7,92.1,92.1,18.5,55.3,92.1,110.5,110.8,73.8,18.5,0,18.5,36.9,73.9,37,0,18.5,0,0,0,0,18.6,37.1,92.5,92.5,92.5,92.5,92.5,92.5,92.4,74,110.9,74,147.8,147.8,147.9,129.5,129.5,148,129.5,37,55.5,37,74,74,74,55.5,0,0,0,0,0,0,0,0,0,0,0,0,0,0,0,0,0,0,0,0,0,0,0,18.6,18.6,0,0,0,0,0,93.1,93.1,93,93,93,74.4,37.2,0,0,0,74.5,0,0,0,0,0,0,0,0,0,0,0,0,0,0,0,0,0,0,0,0,0,19,38,38,19,19,18.9,0,0,0,0,0,0,0,0,0,0,0,0,0,0,0,0,0,0,0,0,0,0,0,0,0,0,0,0,0,0,0,0,0,0,0,0,0,0,0,0,0,0,0,0,0,0,0,0,0,0,0,0,0,0,0,0,0,0,0,0,0,0,0,0,0,0
0,0,0,0,0,0,0,0,0,0,0,0,0,0,0,0,0,0,0,0,0,0,0,0,0,0,0,0,0,0,0,0,0,0,0,0,0,0,0,0,0,0,0,0,0,0,0,0,0,0,0,0,0,0,0,0,0,0,0,0,0,0,0,0,0,0,0,0,0,0,0,0,0,0,0,0,0,0,0,0,0,0,0,0,0,0,0,0,0,92.2,129,129.1,165.8,165.6,147.1,147.1,165.6,147.3,147.4,128.9,110.6,55.4,36.9,110.9,129.3,166.2,166.1,166.1,166.1,166.1,166,166,166.2,166.1,166.2,166.3,166.4,166.3,166.3,147.8,166.3,147.8,129.6,147.8,147.8,147.8,129.5,129.5,129.4,129.3,129.3,147.4,165.8,165.6,165.4,165.4,165.4,165.4,165.4,165.5,165.3,165.5,165.6,165.6,165.5,165.4,165.3,165.2,165,164.9,164.7,164.7,164.7,165,165,165.1,165.1,165.1,165.4,165.7,165.7,165.7,165.8,165.8,165.7,165.7,165.6,165.6,165.5,165.1,165,165,164.8,165,146.8,165.2,165.2,165.2,165.3,165.3,165.3,165.3,165.3,165.3,165.4,165.4,165.2,165.3,165.2,165.1,165.2,165.1,165.1,164.9,165,165,165.1,165.1,165.2,165.2,165.4,165.6,165.6,165.6,165.6,165.6,165.6,165.6,165.6,165.6,165.6,165.6,165.6,165.6,165.5,165.4,165.4,165.5,165.5,165.5,165.5,165.4,165.4,165.5,165.5,165.5,165.6,165.6,165.6,165.6,165.6,165.6,165.6,165.6,165.6,165.6,165.6,165.6,165.6,165.6,165.6,165.6,165.6,165.6,165.6,165.6,165.6,165.6,165.6,165.6,165.6,165.6,165.6,165.6,165.6,165.4,183.8,183.8,165.3,165.6,165.6,165.6,165.6,165.6,165.7,165.7,165.7,165.7,165.8,165.9,165.9,165.9,165.9,165.9,166,147.6,147.6,147.6,147.6,147.4,165.8,165.7,147.3,147.3,147.3,147.2,147.2,147.2,147.3,166.1,166.1,166.2,147.6,166.4,166.7,166.9,166.9,167.1,167.2,149,130.3,130.3,111.9,112.1,131,149.9,112.4,112.6,131.4,150.4,150.4,131.3,112.6,130.8,130.6,130.7,130.6,130.5,130.4,167.3,167,166.9,185.3,148.1,148.1,147.9,166.5,166.4,166.4,184.8,166.2,184.6,184.6,184.6,184.6,147.9,184.7,184.6,184.6,184.4,184.3,184.4,184.4,184.3,184.4,184.3,165.8,184.3,184.3,184.3,184.3,184.3,184.2,184.1,184.1,184,183.9,183.9,184,184,184,184,184,184,184,184,184,184,184,183.9,183.9,183.7,183.4,183.7,183.9,183.9,110.3,92,92,92.1,110.5,184,183.9,183.9,184,147.1,147.2,184,184,183.9,183.9,183.9,183.9,165.3,183.4,164.8,183.1,183.1,109.9,109.9,146.5,128.2,128.2,73.3,73.4,110.1,110,110,55,36.7,36.7,36.7,36.7,36.7,36.7,55.1,18.4,18.4,18.4,18.5,92.1,110.5,110.5,110.5,73.7,73.7,18.5,18.5,18.5,110.4,73.6,55.3,0,0,0,0,18.5,55.3,92,92,92.1,92.1,92.1,128.7,73.6,92,92,92,110.6,147.3,147.6,147.7,147.8,129.3,73.8,73.9,37,92.4,92.4,92.4,55.4,0,0,0,0,0,0,0,0,0,0,0,0,0,0,0,0,0,0,0,0,0,0,0,0,0,0,0,0,0,0,0,18.6,93,93,93,74.4,55.8,18.6,0,0,0,0,0,0,0,0,0,0,0,0,0,0,0,0,0,0,0,0,0,0,0,0,0,0,0,0,0,0,0,0,0,0,0,0,0,0,0,0,0,0,0,0,0,0,0,0,0,0,0,0,0,0,0,0,0,0,0,0,0,0,0,0,0,0,0,0,0,0,0,0,0,0,0,0,0,0,0,0,0,0,0,0,0,0,0,0,0,0,0,0,0,0,0,0,0
0,0,0,0,0,0,0,0,0,0,0,0,0,0,0,0,0,0,0,0,0,0,0,0,0,0,0,0,0,0,0,0,0,0,0,0,0,0,0,0,0,0,0,0,0,0,0,0,0,0,0,0,0,0,0,0,0,0,0,0,0,0,0,0,0,0,0,0,0,0,0,0,0,0,0,0,0,0,0,0,0,0,0,0,0,0,0,0,36.7,73.4,146.9,146.9,146.8,146.7,146.7,146.5,146.4,146.5,146.5,91.5,36.8,55,55,91.9,128.7,147,147,165.3,165.3,165.4,165.4,165.4,165.5,165.6,165.6,165.6,165.6,165.7,165.7,165.7,165.7,165.8,147.4,129.1,129.3,129.2,147.5,129.1,110.5,110.4,110.2,146.9,165.3,165.1,165.1,164.9,164.7,164.7,164.7,164.7,164.7,164.7,164.7,164.7,164.7,164.7,164.7,164.7,164.7,164.7,164.7,164.7,164.7,164.7,164.7,164.7,165,165.1,165.1,165.1,165.1,165.2,165.6,165.4,165.2,165.1,164.9,164.9,164.8,164.8,164.8,164.7,164.7,146.4,128.1,146.4,164.7,164.7,164.7,164.7,164.7,164.7,164.7,164.7,164.7,164.7,164.7,164.7,164.7,164.7,164.7,164.7,164.7,164.7,164.7,164.7,164.7,164.7,164.7,164.7,164.9,164.9,165,165,165.3,165.5,165.5,165.4,165.1,165.1,165,164.7,164.7,164.7,164.7,164.7,164.7,164.7,164.7,164.7,164.7,164.7,164.7,164.7,164.7,164.7,164.7,164.7,164.7,164.7,164.7,164.7,164.9,165.1,165.1,165,165.3,165.2,165,164.9,164.8,164.8,164.8,164.8,164.8,164.9,164.8,164.8,164.8,164.7,164.7,164.7,164.7,164.7,164.7,164.7,183,183,183,164.8,164.8,165,165.2,165.2,165.2,165.2,165.5,165.5,165.5,165.5,165.5,165.5,165.6,165.6,165.6,165.5,165.5,147,147,165.4,165.4,146.9,146.9,146.8,146.8,146.8,147,147,147.2,147.2,147.2,147.3,128.8,147.4,166.2,166.4,166.5,166.8,148.5,148.7,111.6,111.7,111.8,93.3,93.5,112.1,130.9,74.8,112.6,93.7,112.5,74.6,130.7,93.3,112,111.9,148.8,148.7,148.6,166.9,166.7,166.7,184.9,147.7,166.3,166.2,147.6,166.1,166,165.8,184.3,184.2,184.1,184.2,165.9,184.1,183.9,183.9,184,183.9,184,184,184,184,183.8,183.8,183.8,165.3,183.7,183.7,183.7,183.7,165.4,183.5,183.5,183.5,183.5,183.5,183.5,183.4,183.4,183.5,183.5,183.4,183.1,183.1,183.1,183.1,183.1,183.1,183.1,183.1,183.1,183.1,183.1,183.1,183.1,91.6,128.2,109.9,164.8,183.1,183.1,183.1,183.2,128.2,146.4,183,183,183,183,183,183,183,164.7,183,183,182.7,146.2,109.8,128.1,128.1,128.1,109.9,109.8,109.7,109.7,109.6,91.4,54.9,36.6,54.9,73.1,54.8,54.9,91.6,91.6,73.3,18.4,36.7,109.9,109.9,109.9,109.9,73.3,91.6,73.3,36.7,36.7,91.6,73.3,18.4,18.4,18.5,18.5,0,0,110,91.7,55.1,55.2,73.6,110.3,92,128.7,128.8,110.4,92,147.2,147.2,147.3,147.4,129.3,55.3,18.4,0,0,0,36.8,55.2,36.8,18.4,0,0,0,0,0,0,0,0,0,0,0,0,0,0,0,0,0,0,0,0,0,0,0,0,0,0,0,0,0,0,55.8,74.4,74.4,93,93,93,37.2,0,0,0,0,0,0,0,0,0,0,0,0,0,0,0,0,0,0,0,0,0,0,0,0,0,0,0,0,0,0,0,0,0,0,0,0,0,0,0,0,0,0,0,0,0,0,0,0,0,0,0,0,0,0,0,0,0,0,0,0,0,0,0,0,0,0,0,0,0,0,0,0,0,0,0,0,0,0,0,0,0,0,0,0,0,0,0,0,0,0,0,0,0,0,0,0,0
0,0,0,0,0,0,0,0,0,0,0,0,0,0,0,0,0,0,0,0,0,0,0,0,0,0,0,0,0,0,0,0,0,0,0,0,0,0,0,0,0,0,0,0,0,0,0,0,0,0,0,0,0,0,0,0,0,0,0,0,0,0,0,0,0,0,0,0,0,0,0,0,0,0,0,0,0,0,0,0,0,0,0,0,0,0,0,0,18.3,36.6,73.1,164.6,164.6,146.3,146.1,127.9,146,146,109.5,54.7,18.3,18.3,36.6,91.4,128,164.5,164.6,164.5,164.7,164.7,164.7,164.7,146.4,164.8,146.7,165.1,165.4,165.4,165.4,165.4,165.4,165.4,128.7,110.2,110.3,110.5,128.6,128.5,110.1,110.1,128.4,146.4,146.2,164.5,164.5,164.5,164.5,164.6,164.6,164.7,164.7,164.7,164.7,164.7,164.7,164.7,164.7,164.7,164.7,164.7,164.6,164.6,164.4,164.2,164.3,164.4,164.4,164.7,164.8,165,165,165,164.9,164.9,164.9,164.8,146.4,109.8,164.6,164.5,164.3,164.1,164.2,164.2,146,164.2,164.2,164.2,164.4,164.4,164.2,164.2,164.4,164.4,164.4,164.3,164.1,164.1,164.2,164.1,164.1,164,164,164.1,164,164.2,164.2,164.2,164.2,164.6,164.7,164.7,146.4,164.7,164.7,164.8,164.7,164.7,164.7,146.4,164.7,164.7,164.7,164.7,164.7,164.7,164.7,164.7,164.7,164.7,164.7,164.7,164.4,164.4,164.6,164.7,164.7,164.7,164.7,164.7,164.7,164.7,164.7,164.7,164.7,164.7,164.7,164.7,164.7,164.7,164.7,164.7,164.7,164.7,164.7,164.7,164.7,164.7,164.7,164.6,164.6,164.6,164.6,164.5,164.5,164.5,182.7,182.7,182.9,164.6,164.7,164.7,182.9,164.8,164.9,165.1,165.2,165.2,165.2,165.3,165.3,165.2,165.2,165.1,165.1,165.1,165.1,146.7,146.6,164.9,164.8,164.9,146.6,146.5,146.4,146.4,146.4,146.4,146.4,146.4,146.4,146.6,146.6,128.3,128.5,166,147.8,147.9,129.7,129.7,129.8,129.9,111.6,93.1,93.2,111.8,111.7,74.5,55.7,74.7,74.6,55.7,74.1,93,74.4,92.8,92.8,111.1,166.6,147.6,184.9,166,166,147.6,147.5,165.8,165.7,165.7,165.5,165.2,165.3,183.7,183.7,147.2,165.4,183.8,183.8,183.8,183.8,183.7,183.8,183.7,183.7,183.6,183.6,183.5,146.6,165,183.5,183.5,183.4,183.4,183.4,183.4,183.3,183.1,183,183,183,183,183,183,183,183,183,183,183,183,183,182.9,183,182.9,182.9,182.8,182.8,182.8,182.9,183.1,183.1,183.1,183.1,183,183,183,182.9,183,182.9,182.7,182.5,182.3,182.2,182.1,182.1,182.1,182.1,182.1,182.1,127.5,109.3,109.3,127.5,109.3,145.6,109.3,109.3,109.3,109.3,109.2,72.9,91.1,72.9,91.1,109.3,72.9,72.9,109.3,109.6,73.1,54.9,73.1,109.6,109.6,109.6,109.6,91.4,73.2,18.4,36.6,36.6,91.2,54.8,18.4,18.4,18.4,18.4,0,0,91.4,91.5,54.9,18.3,18.3,18.3,110,110.2,55.1,91.8,110.1,110.2,36.6,36.6,36.7,36.7,18.4,0,0,0,0,0,36.7,36.7,0,0,0,0,0,0,0,0,0,0,0,0,0,0,0,0,0,0,0,0,0,0,0,0,0,0,0,0,0,18.5,37,74.1,37,0,18.5,74.2,55.8,18.5,18.5,0,0,0,0,0,0,0,0,0,0,0,0,0,0,0,0,0,0,0,0,0,0,0,0,0,0,0,0,0,0,0,0,0,0,0,0,0,0,0,0,0,0,0,0,0,0,0,0,0,0,0,0,0,0,0,0,0,0,0,0,0,0,0,0,0,0,0,0,0,0,0,0,0,0,0,0,0,0,0,0,0,0,0,0,0,0,0,0,0,0,0,0,0,0,0,0
0,0,0,0,0,0,0,0,0,0,0,0,0,0,0,0,0,0,0,0,0,0,0,0,0,0,0,0,0,0,0,0,0,0,0,0,0,0,0,0,0,0,0,0,0,0,0,0,0,0,0,0,0,0,0,0,0,0,0,0,0,0,0,0,0,0,0,0,0,0,0,0,0,0,0,0,0,0,0,0,0,0,0,0,0,0,0,0,0,72.8,91,91,109.2,163.8,145.6,127.4,163.6,163.6,163.6,145.3,90.9,72.7,90.9,145.4,145.4,163.7,163.8,145.6,145.6,145.8,145.9,145.9,164.2,164.4,146.3,164.6,164.7,164.9,146.5,146.6,165,165,165.1,128.4,110.1,128.5,110.1,146.6,164.7,164.7,164.4,164.3,164.1,164.1,163.9,163.8,163.8,163.8,163.8,163.8,163.8,163.8,163.9,164.1,164.2,164.1,164.1,164,163.9,163.9,163.8,163.8,163.8,163.8,163.9,164,164.2,164.2,164.2,164.4,164.5,164.5,164.7,164.7,164.3,164.2,145.8,164,163.9,163.9,163.8,163.8,163.8,163.8,145.6,163.8,163.8,163.8,163.8,163.8,163.8,163.8,163.8,163.8,163.8,163.8,163.8,163.8,163.8,163.8,163.8,163.8,163.8,163.8,163.8,163.8,163.8,163.8,163.8,163.8,163.8,163.8,163.8,164.4,164.4,164.4,164.5,164.5,164.5,146.1,164.2,164.2,164.2,164,163.9,163.9,163.9,163.9,163.8,163.8,163.8,163.8,163.8,163.8,163.8,163.8,163.8,163.8,163.8,163.8,163.8,164,164.4,164.5,164.7,164.6,164.7,164.5,164.2,164.1,164,164,164,163.9,163.9,163.9,163.8,163.8,163.8,163.8,163.8,163.8,163.8,182,182,182,182,182,182,182,164,164.2,182.7,164.5,164.5,164.7,164.8,164.8,164.8,164.8,164.8,164.8,164.8,164.8,164.7,146.2,164.5,164.5,164.5,164.3,164.3,164.3,164.3,146.1,164.3,146.1,146.1,146,146.1,146.2,146.2,146.2,128.1,109.8,128.4,109.9,128.7,110,110.5,110.6,110.7,110.7,92.5,148.5,92.4,55.4,37,37,37.2,37,37.2,37.1,55.5,55.5,74.4,92.6,92.6,147.6,147.6,129.1,110.2,110.4,165.9,128.4,146.8,146.8,165.2,165,165,165,164.9,183.2,165,164.8,182.9,183.1,183.1,183.1,164.7,183.1,183,183,182.9,182.9,164.5,146.2,164.5,182.9,183,182.8,164.5,164.5,182.6,145.9,164.2,164.2,182.5,182.6,182.6,164.5,182.9,182.9,182.9,182.9,182.9,182.7,182.4,182.2,182.1,182.1,182.1,182.1,182.1,182.1,182.1,182.1,182.1,182.1,182.3,182.3,182.2,182.2,182.1,182.1,182.1,182.1,182.1,182.1,182.1,182,182,182,182,182,181.9,181.7,181.7,181.7,181.7,145.5,145.4,145.5,181.5,109.2,109.2,109.2,109.2,109.1,90.9,90.9,90.9,109,90.9,90.9,91,109.2,90.9,91,91,109.3,109.3,109.3,109.4,109.5,73.1,109.5,54.8,109.4,91.2,73,73,91.2,18.4,18.4,0,72.8,91,91,91.2,91.5,18.3,0,18.3,18.3,109.8,109.9,109.9,91.5,54.9,36.6,36.6,18.3,36.6,18.3,0,0,0,0,0,0,0,0,0,0,0,0,0,0,0,0,0,0,0,0,0,0,0,0,0,0,0,0,0,0,0,0,0,0,0,0,0,0,0,0,0,0,0,0,0,0,0,0,0,0,0,0,0,0,0,0,0,0,0,0,0,0,0,0,0,0,0,0,0,0,0,0,0,0,0,0,0,0,0,0,0,0,0,0,0,0,0,0,0,0,0,0,0,0,0,0,0,0,0,0,0,0,0,0,0,0,0,0,0,0,0,0,0,0,0,0,0,0,0,0,0,0,0,0,0,0,0,0,0,0,0,0,0,0,0,0,0,0,0,0,0,0
0,0,0,0,0,0,0,0,0,0,0,0,0,0,0,0,0,0,0,0,0,0,0,0,0,0,0,0,0,0,0,0,0,0,0,0,0,0,0,0,0,0,0,0,0,0,0,0,0,0,0,0,0,0,0,0,0,0,0,0,0,0,0,0,0,0,0,0,0,0,0,0,0,0,0,0,0,0,0,0,0,0,0,0,0,0,0,0,18.2,54.6,91,145.5,145.5,163.6,145.4,163.3,163.1,163.1,145,145,144.9,144.8,126.7,144.8,162.9,162.9,162.9,163.1,163.2,163.3,163.3,163.5,163.7,163.9,164,145.8,164,164.2,164.2,164.2,164.4,164.5,146.5,128.1,128.1,109.9,91.6,146.2,128,127.6,164,163.8,163.6,145.4,163.6,163.5,163.5,163.3,163.4,163.4,163.6,163.6,163.8,163.8,163.8,163.8,163.8,163.8,163.8,163.8,163.8,163.8,163.8,163.8,163.8,163.8,163.8,163.8,163.9,164,164,164,164,164,163.8,145.6,163.8,163.8,163.8,163.7,163.8,163.8,163.8,163.8,163.7,163.7,145.5,163.7,163.6,163.4,163.3,163.3,163.3,163.3,163.3,163.3,163.3,163.3,163.3,163.3,163.3,163.3,163.3,163.2,163.3,163.3,163.3,163.3,163.4,163.7,163.7,163.8,163.8,163.8,164.1,164.2,164.2,164.2,164.2,164.1,164,163.8,163.8,163.8,163.8,163.8,163.8,163.8,163.8,163.8,163.8,163.8,163.8,163.8,163.8,163.8,163.8,163.8,163.8,163.8,163.8,163.8,163.8,163.8,163.8,163.8,163.8,163.8,163.8,163.8,163.8,163.8,163.8,163.8,163.8,163.8,163.8,163.8,163.8,163.8,163.7,163.7,163.8,182,182,182,181.8,182,182,182,182,182,182.1,164,164.3,164.3,164.3,164.5,164.6,164.6,164.6,164.6,164.4,146.1,146.1,164.4,164.3,164.3,164.1,164,164,164,164,163.9,163.9,163.9,163.9,145.8,145.8,145.9,146,146,127.7,109.5,109.5,109.5,109.6,110.3,110.3,110.2,128.9,129.3,129.3,129.3,73.9,74,36.9,55.4,55.7,37.2,37.2,37.2,55.5,74.3,37,73.7,73.7,110.1,110.1,128.3,109.9,109.9,128.2,128.1,128.1,128,146.2,146.2,146.2,145.9,164.2,145.9,146.2,164.4,164.4,164.4,164.4,164.3,146,182.8,182.8,182.8,164.4,164.4,182.7,146.1,146,164.2,182.5,164,182.4,182.4,182.4,182.4,182.4,182.4,182.4,182.4,182.4,182.3,182.4,182.2,182.2,182.1,182.1,182.1,182.1,182.1,182.1,182.1,182.1,182.1,182.1,182.1,182.1,182.1,182.1,182.1,182.1,182.1,181.9,182,181.9,181.9,163.6,109,145.2,181.3,181.2,181.2,181.2,181.2,181.2,181.2,181.2,181.2,181.2,181.2,181.2,163.1,181,181,180.7,126.7,126.7,90.6,90.6,72.5,36.3,54.4,72.5,72.4,36.3,36.3,54.4,54.4,90.6,108.8,54.4,90.5,90.6,109,90.9,109.3,109.3,109.4,109.4,109.4,73,54.7,36.5,36.6,36.4,36.4,54.6,54.6,36.4,54.6,54.6,109.2,91,0,0,18.3,54.9,109.8,91.5,54.9,36.6,36.6,18.3,18.2,0,0,0,0,0,0,0,0,0,0,0,0,0,0,0,0,0,0,0,0,0,0,0,0,0,0,0,0,0,0,0,0,0,0,0,0,0,0,0,0,0,0,0,0,0,0,0,0,0,0,0,0,0,0,0,0,0,0,0,0,0,0,0,0,0,0,0,0,0,0,0,0,0,0,0,0,0,0,0,0,0,0,0,0,0,0,0,0,0,0,0,0,0,0,0,0,0,0,0,0,0,0,0,0,0,0,0,0,0,0,0,0,0,0,0,0,0,0,0,0,0,0,0,0,0,0,0,0,0,0,0,0,0,0,0,0,0,0,0,0,0,0,0,0
0,0,0,0,0,0,0,0,0,0,0,0,0,0,0,0,0,0,0,0,0,0,0,0,0,0,0,0,0,0,0,0,0,0,0,0,0,0,0,0,0,0,0,0,0,0,0,0,0,0,0,0,0,0,0,0,0,0,0,0,0,0,0,0,0,0,0,0,0,0,0,0,0,0,0,0,0,0,0,0,0,0,0,0,0,0,0,0,0,36.3,54.4,90.6,163,163,162.9,162.9,162.9,162.9,162.8,162.6,162.5,144.5,144.5,144.6,162.7,162.8,162.8,162.8,162.9,162.9,162.9,162.9,163,163.1,163.1,163.3,145.4,145.4,145.7,145.8,109.6,109.6,127.7,128,109.6,91.4,127.9,145.9,145.8,145.7,163.6,145.3,145.2,145,162.9,162.9,162.9,162.9,162.9,162.9,162.9,162.9,162.9,162.9,162.9,163,163,163.1,163.1,163.1,162.9,163,162.9,163,163,163.3,163.3,163.3,163.5,163.6,163.7,163.6,163.5,163.5,145.1,145,162.9,162.9,162.9,162.9,162.9,162.9,162.9,162.9,162.9,162.9,162.9,162.9,162.9,162.9,162.9,162.9,162.9,162.9,162.9,162.9,162.9,162.9,162.9,162.9,162.9,162.9,162.9,162.9,162.9,162.9,162.9,162.9,162.9,162.9,162.9,126.7,108.8,163.4,163.5,163.5,163.5,163.7,163.7,163.7,163.7,163.7,163.6,163.4,163.5,163.4,163.3,163.3,163.1,162.9,162.9,162.9,162.9,162.9,162.9,162.9,162.9,163,163.1,163.3,163.3,163.4,163.7,163.8,163.8,163.8,163.8,163.8,163.4,163.5,163.4,163.2,163.2,163.1,163,163,163,162.9,162.9,162.9,162.9,162.9,181,181,181,181,181,181.1,181.1,181.3,181.4,181.5,181.6,145.5,145.7,145.7,145.7,145.8,145.8,145.8,145.8,145.6,145.6,145.6,163.8,163.7,163.7,163.7,163.6,163.6,163.4,163.4,163.5,163.5,163.5,163.5,163.6,163.6,163.6,145.6,163.8,163.7,127.2,109.1,109.2,109.4,91.1,91.2,91.3,91.5,110,110,110.6,92.2,92.1,74,55.7,55.7,55.7,55.6,37.2,37.2,55.6,37.1,37,55.2,73.5,91.5,91.5,109.9,128.3,109.8,109.8,127.9,146.2,127.9,146,145.7,145.7,145.6,163.7,163.6,163.5,127,145.5,163.9,163.8,145.5,145.6,145.6,164,164.1,164.1,164,145.9,146,145.9,164,182.3,182.2,182.2,182.2,182.1,182.1,182.1,181.9,181.8,181.8,181.8,181.8,181.9,181.9,181.8,181.8,181.9,181.8,181.6,181.5,181.4,181.4,181.3,181.2,181.2,181.2,181.2,181.2,181.3,181.3,181.3,181.3,163.2,181.3,181.3,163.1,181.2,108.8,72.6,108.8,145,181.1,181.1,181.1,181.1,181.1,181,180.8,180.8,180.8,180.7,180.7,180.7,180.7,180.7,180.7,144.7,126.6,90.5,108.5,108.5,108.5,108.5,36.2,72.4,36.2,18.1,54.3,36.2,108.7,108.7,90.6,72.4,108.7,108.8,108.9,108.9,90.6,18.2,72.8,54.6,54.6,18.2,18.2,18.2,36.4,36.4,36.2,36.2,36.2,36.2,0,0,18.2,0,0,18.2,36.4,36.4,18.2,0,0,0,0,0,0,0,0,0,0,0,0,0,0,0,0,0,0,0,0,0,0,0,0,0,0,0,0,0,0,0,0,0,0,0,0,0,0,0,0,0,0,0,0,0,0,0,0,0,0,0,0,0,0,0,0,0,0,0,0,0,0,0,0,0,0,0,0,0,0,0,0,0,0,0,0,0,0,0,0,0,0,0,0,0,0,0,0,0,0,0,0,0,0,0,0,0,0,0,0,0,0,0,0,0,0,0,0,0,0,0,0,0,0,0,0,0,0,0,0,0,0,0,0,0,0,0,0,0,0,0,0,0,0,0,0,0,0,0,0,0,0,0,0,0,0,0,0
0,0,0,0,0,0,0,0,0,0,0,0,0,0,0,0,0,0,0,0,0,0,0,0,0,0,0,0,0,0,0,0,0,0,0,0,0,0,0,0,0,0,0,0,0,0,0,0,0,0,0,0,0,0,0,0,0,0,0,0,0,0,0,0,0,0,0,0,0,0,0,0,0,0,0,0,0,0,0,0,0,0,0,0,0,0,0,0,0,0,54.3,72.4,162.9,162.9,162.9,162.9,162.9,162.4,162.2,162.2,162.2,162.2,162.1,162,162,162.1,162.1,162.1,162.2,162.3,162.4,162.5,162.4,162.6,162.7,144.9,126.8,163,145,108.9,108.9,90.9,54.4,54.4,91.1,72.8,72.8,91,108.9,127.1,126.8,144.8,144.7,162.8,162.6,162.5,162.5,162.2,162.3,162.1,162.1,162.4,162.4,162.7,162.8,162.8,162.9,162.9,162.9,162.9,162.9,162.9,162.9,162.9,162.9,162.9,162.9,162.9,162.9,162.9,162.9,144.8,162.9,144.8,162.9,162.9,162.9,162.9,162.9,162.9,162.9,162.9,162.9,162.9,144.8,162.9,162.6,162.5,162.5,162.5,162.5,162.5,162.5,162.4,162.4,162.4,162.4,162.4,162.4,162.4,162.4,162.4,162.5,162.5,162.5,162.7,162.7,162.7,162.8,162.9,108.5,72.4,72.4,162.9,163.2,163.3,163.4,163.3,163.3,163.3,163.2,163.1,163.1,163,163,162.9,162.9,162.9,162.9,162.9,162.9,162.9,162.9,162.9,162.9,162.9,162.9,162.9,162.9,162.9,162.9,162.9,163,163,163.1,163.2,163.1,163,162.9,162.9,162.9,162.9,162.9,162.9,162.9,162.9,162.9,162.9,162.9,162.9,162.8,162.9,180.9,180.9,180.9,180.8,181,181,181,181.1,181.1,181.2,181.3,163.1,163.2,163.2,163.2,163.3,145.1,145.2,145.2,145.3,145.2,145.2,163.2,163.1,163.2,163.1,163.2,163.1,163.2,163.2,163.1,163,163,163,163,163.3,163.3,163.3,163.3,145.2,145.4,127.3,109,109.1,109.2,72.7,72.8,54.7,73,73.1,73.1,54.8,92,73.8,73.9,55.6,36.8,55.5,37.2,18.7,18.7,37.1,37.1,55.3,55.3,73.4,91.4,91.4,109.5,109.5,109.5,91.2,109.2,127.5,127.3,127.2,109.1,144.8,126.6,126.6,126.7,145.1,145.1,145.1,145.1,145.2,145.2,163.6,163.6,163.6,163.6,163.5,163.5,163.5,163.4,181.6,181.7,181.8,163.5,163.5,163.5,181.8,181.6,181.6,163.4,163.3,181.5,181.5,181.5,181.5,181.4,181.4,181.3,181.3,181.3,181.2,181.2,181.2,181.2,181.2,181.2,181.2,181.2,181.2,181.1,181.2,181,180.9,180.9,180.8,180.8,180.7,180.7,180.6,180.4,180.2,180.2,180.2,180.3,180.3,180.3,180.3,180.3,180.2,180.2,180.2,180.2,180.2,180.2,180.2,180.1,180.1,144.1,144.1,144.1,126,108.1,126,108.3,108.3,108.1,108.1,36.1,54.2,90.1,90.1,72.1,36.1,54.2,54.3,90.5,90.5,90.5,90.5,36.2,0,0,0,18.2,18.2,0,0,18.1,36.2,36.2,0,36.3,18.2,18.2,18.2,0,18.2,0,18.2,18.2,18.2,18.2,18.2,18.2,18.2,18.1,18.1,18,18,17.9,17.9,0,0,0,0,0,0,0,0,0,0,0,0,0,0,0,0,0,0,0,0,0,0,0,0,0,0,0,0,0,0,0,0,0,0,0,0,0,0,0,0,0,0,0,0,0,0,0,0,0,0,0,0,0,0,0,0,0,0,0,0,0,0,0,0,0,0,0,0,0,0,0,0,0,0,0,0,0,0,0,0,0,0,0,0,0,0,0,0,0,0,0,0,0,0,0,0,0,0,0,0,0,0,0,0,0,0,0,0,0,0,0,0,0,0,0,0,0,0,0,0,0,0,0,0,0,0,0,0,0,0,0,0,0,0,0,0,0,0
0,0,0,0,0,0,0,0,0,0,0,0,0,0,0,0,0,0,0,0,0,0,0,0,0,0,0,0,0,0,0,0,0,0,0,0,0,0,0,0,0,0,0,0,0,0,0,0,0,0,0,0,0,0,0,0,0,0,0,0,0,0,0,0,0,0,0,0,0,0,0,0,0,0,0,0,0,0,0,0,0,0,0,0,0,0,0,0,0,18.1,54.3,72.4,162.9,162.8,162.5,162.4,162.2,162.1,162,162,162,162,162,162,162,162,162,162,162,162,162,162,162,162.1,162.1,162.2,144.1,162.6,144.6,144.6,108.5,90.5,108.5,72.4,54.3,72.5,72.5,54.3,90.7,108.7,126.5,162.6,162.3,162.2,162,162,162,162,162,162,162,162,162,162,162,162,162,162,162,162,162,162,162,162.1,162.1,162.1,162.3,162.5,162.7,162.8,162.8,162.8,144.7,162.6,162.4,162.2,162.3,162,162,162,162,162,162,162,108,162,162,162,162,162,162,162,162,162,162.1,162.1,162.1,162.1,162.1,162.1,162.1,162,162,162,162,162,162,162,162,162,162.3,162.6,162.6,162.7,162.7,162.7,162.7,162.9,162.9,163,162.9,162.8,162.7,162.6,162.6,162.6,162.5,162.5,162.5,162.2,162.1,162.1,162.1,162.1,162.4,162.4,162.4,162.4,162.4,162.4,162.6,162.5,162.7,162.8,162.7,162.6,162.5,162.4,162.4,162.4,162.4,162.4,162.3,162.1,162.1,162.1,162.1,162,162,162.1,162,162,180.1,180.1,180.1,180.1,180.2,180.2,180.2,180.4,180.5,180.5,180.6,162.6,144.6,162.8,144.8,144.8,126.7,162.8,162.7,162.6,144.6,162.7,162.6,162.6,162.7,162.6,162.6,162.6,162.6,162.6,162.6,162.6,144.4,144.5,144.6,144.7,144.6,144.7,144.7,144.8,126.6,108.5,108.7,108.8,109,109.2,109.2,91.2,91.2,73.2,73.2,73.2,92,91.8,73.6,91.7,55.6,37.3,18.8,18.7,36.8,55.1,55.2,55.2,55.1,55.1,73.3,91.3,91.3,91.3,109.3,91.1,90.8,90.8,90.8,72.2,126.3,126.3,144.5,126.3,126.3,162.8,162.8,144.7,144.7,144.7,144.7,144.9,163.5,163.4,163.3,163.4,163.4,163.4,163.3,181.4,181.3,181.3,181.4,163.3,163.2,144.9,181.1,163,163,181.2,181.2,181,181.1,181,180.9,180.9,180.8,180.6,180.6,180.6,180.6,180.4,180.4,180.4,180.3,180.2,180.2,180.2,180.2,180.2,180.2,180.2,180.2,180.2,180.2,180.2,180.2,180.2,180.2,180.2,180.2,180.1,180.1,180.1,180,180,179.8,179.8,179.8,180.1,180.1,180,180,179.9,179.8,179.7,161.8,143.9,143.9,143.9,143.8,143.8,125.9,108,108,90,72,54.1,108.1,108.1,108.1,90.1,90.1,108.1,90,90,36,0,0,0,0,0,18.1,0,0,0,0,0,0,0,0,0,18.1,0,0,18.2,0,0,18.2,18.2,18.2,18.2,18.2,0,18.1,18,18,0,17.9,0,0,0,0,0,0,0,0,0,0,0,0,0,0,0,0,0,0,0,0,0,0,0,0,0,0,0,0,0,0,0,0,0,0,0,0,0,0,0,0,0,0,0,0,0,0,0,0,0,0,0,0,0,0,0,0,0,0,0,0,0,0,0,0,0,0,0,0,0,0,0,0,0,0,0,0,0,0,0,0,0,0,0,0,0,0,0,0,0,0,0,0,0,0,0,0,0,0,0,0,0,0,0,0,0,0,0,0,0,0,0,0,0,0,0,0,0,0,0,0,0,0,0,0,0,0,0,0,0,0,0,0,0,0,0,0,0,0,0
0,0,0,0,0,0,0,0,0,0,0,0,0,0,0,0,0,0,0,0,0,0,0,0,0,0,0,0,0,0,0,0,0,0,0,0,0,0,0,0,0,0,0,0,0,0,0,0,0,0,0,0,0,0,0,0,0,0,0,0,0,0,0,0,0,0,0,0,0,0,0,0,0,0,0,0,0,0,0,0,0,0,0,0,0,0,0,0,0,0,72.2,72.1,144.3,144.1,162,162,162,162,162,162,162,161.9,161.7,161.6,161.5,161.6,161.7,161.7,161.6,161.7,161.8,161.8,161.8,161.9,161.8,144,161.8,143.9,143.8,107.9,72.1,72.2,72.1,72.2,54.3,54.3,54.3,72.2,72.1,72.1,108,107.9,125.9,143.9,143.9,161.6,161.4,161.4,161.1,161.1,161.1,161.2,161.2,161.3,161.4,161.4,161.4,161.5,161.6,161.8,161.9,161.9,162,162,162,162,162,162,162,162,162,162,162,162,162,162,162,162,162,162,162,162,162,162,162,161.8,161.8,161.9,161.6,161.6,161.7,161.6,161.6,161.5,161.5,161.5,161.6,161.6,161.6,161.6,161.9,162,162,162,162,162,162,162,162,161.9,161.9,161.9,161.9,162.3,162.3,162.3,162.5,162.5,162.3,162.4,162.4,162.3,162.3,162.3,162.2,162,162,162,162,162,162,162,162,162,162,162,162,162.4,162.4,162.4,162.4,162.4,162.4,162.4,162.4,162.4,162.4,162.2,162.2,162.1,162,161.8,161.9,162,162,162,162,162,162,162,162,162,162,180.1,180,179.9,179.9,180,180,179.9,180,180,180.1,162,162.1,144.3,144.3,144.3,144.4,162.4,144.4,144.3,144.2,144.3,144.2,162.3,162.1,162.1,162.1,162.1,162.1,162.1,162.2,144.2,144.3,144.3,144.3,144.4,144.4,144.5,144.6,126.5,108.4,108.5,108.6,108.6,108.8,109,109.1,91.1,91.2,91.2,91.2,91.1,54.8,55.2,55.2,73.6,37.2,55.3,37.3,18.7,18.7,55,54.9,72.9,72.9,90.9,72.8,90.9,72.8,72.9,91,90.7,90.7,72.2,72.2,90.1,144.3,144.1,144.1,126.1,144.2,126.3,144.6,144.6,144.6,144.6,126.3,108.2,126.3,144.5,162.9,162.9,162.8,162.9,144.9,180.9,180.8,180.6,180.8,180.7,144.6,126.5,162.8,162.7,162.7,162.7,180.9,180.9,180.8,180.6,180.6,180.6,180.6,180.5,180.5,180.4,180.3,180.2,180.1,180.1,180.1,180.1,180.1,180.1,180.1,162,180.1,179.9,180,179.9,179.7,179.9,180,180,161.8,179.4,179.3,179.3,179.3,179.3,179.3,179.3,179.3,179.3,161.4,161.3,179.2,161.1,179.2,179.2,179.1,179.4,161.5,143.7,125.9,161.6,161.7,107.9,108,125.8,107.9,108,54,90,108,107.8,107.8,72,108,108,90,72,0,0,0,0,0,0,0,0,0,0,0,0,0,0,0,0,0,18.1,0,18.1,18.1,0,0,18.2,18.1,18.1,0,0,0,18,18,0,0,0,0,0,0,0,0,0,0,0,0,0,0,0,0,0,0,0,0,0,0,0,0,0,0,0,0,0,0,0,0,0,0,0,0,0,0,0,0,0,0,0,0,0,0,0,0,0,0,0,0,0,0,0,0,0,0,0,0,0,0,0,0,0,0,0,0,0,0,0,0,0,0,0,0,0,0,0,0,0,0,0,0,0,0,0,0,0,0,0,0,0,0,0,0,0,0,0,0,0,0,0,0,0,0,0,0,0,0,0,0,0,0,0,0,0,0,0,0,0,0,0,0,0,0,0,0,0,0,0,0,0,0,0,0,0,0,0,0,0
0,0,0,0,0,0,0,0,0,0,0,0,0,0,0,0,0,0,0,0,0,0,0,0,0,0,0,0,0,0,0,0,0,0,0,0,0,0,0,0,0,0,0,0,0,0,0,0,0,0,0,0,0,0,0,0,0,0,0,0,0,0,0,0,0,0,0,0,0,0,0,0,0,0,0,0,0,0,0,0,0,0,0,0,0,0,0,0,0,0,36,126,144,162,162,162,162,162,161.9,161.7,161.5,161.4,161.3,161.2,161.2,161.2,161.1,161.1,161.1,161.1,161.1,161.1,161.1,161.2,161.3,161.3,125.4,143.3,143.3,143.4,107.6,107.6,89.9,89.9,54.1,54.2,72.1,90.2,90.3,108.1,143.8,107.8,107.6,125.3,161.1,161.1,161.1,161.1,161.1,161.1,161.1,161.1,161.1,161.1,161.1,161.1,161.1,161.1,161.1,161.1,161.1,161.1,161.1,161.1,161.1,161.2,161.3,161.4,161.4,161.6,161.6,161.6,161.5,161.5,161.7,161.5,161.5,161.4,161.4,161.3,161.2,161.2,161.2,161.2,143.2,161.1,161.1,161.1,161.1,161.1,161.1,161.1,161.1,161.1,161.2,161.3,161.4,161.4,161.3,161.3,161.3,161.3,161.2,161.3,161.3,161.4,161.3,161.4,161.4,161.4,161.4,161.6,161.7,161.7,143.7,161.9,162,144.2,144.2,162.1,162,161.8,161.7,161.7,161.8,161.7,161.7,161.6,161.6,161.6,161.6,161.4,161.4,161.5,161.5,161.6,161.6,161.6,161.6,161.6,161.7,161.7,161.9,161.6,161.5,161.5,161.5,161.5,161.5,161.5,161.5,161.2,161.2,161.2,161.1,143.3,161.1,161.2,161.3,161.3,161.4,161.4,161.4,179.5,179.4,179.4,179.4,179.4,179.4,179.4,143.7,179.7,179.7,161.6,161.6,161.7,161.8,161.8,161.7,161.7,161.8,161.8,161.7,161.6,161.5,161.4,161.5,161.4,143.5,143.6,161.5,161.4,161.5,161.6,161.7,143.7,143.8,143.9,125.9,126,126.1,107.9,89.9,89.8,90.1,90.2,90.2,90.3,108.7,90.9,90.9,91,36.4,36.4,36.4,54.3,55.2,36.8,36.8,36.8,36.7,18.8,36.6,36.6,36.6,36.6,54.5,72.8,72.6,54.1,35.9,72.5,54.5,72.1,90,90,107.8,125.6,143.6,125.8,125.8,125.7,125.7,125.7,125.8,144,126,107.8,107.8,107.9,144.1,144.1,126.2,126.2,144.2,144.2,144.3,162.4,180.1,180.1,144.3,144.3,126.4,90.1,162.4,126.3,180.2,162.4,162.1,180.3,144.2,180.3,180.2,180.1,180.1,180.1,179.9,179.7,179.7,161.7,179.7,179.7,179.6,179.6,179.5,179.4,179.4,179.3,179.4,179.3,179.4,179.4,161.4,179.3,179.3,179.3,179.3,179.3,161.4,179.3,179.3,179.3,179.3,179.3,179.3,161.4,143.4,125.3,179.2,179.2,179.1,179.1,179.1,179.1,143.3,125.5,143.4,161.4,125.6,125.8,125.8,125.8,125.6,125.7,107.8,89.8,107.7,107.5,107.5,89.6,107.5,107.5,89.5,53.7,0,0,0,0,0,0,0,0,0,0,0,0,0,0,0,0,0,0,0,0,0,0,0,0,0,18.1,18.1,0,18,18,17.9,17.9,0,0,0,0,0,0,0,0,0,0,0,0,0,0,0,0,0,0,0,0,0,0,0,0,0,0,0,0,0,0,0,0,0,0,0,0,0,0,0,0,0,0,0,0,0,0,0,0,0,0,0,0,0,0,0,0,0,0,0,0,0,0,0,0,0,0,0,0,0,0,0,0,0,0,0,0,0,0,0,0,0,0,0,0,0,0,0,0,0,0,0,0,0,0,0,0,0,0,0,0,0,0,0,0,0,0,0,0,0,0,0,0,0,0,0,0,0,0,0,0,0,0,0,0,0,0,0,0,0,0,0,0,0,0,0,0,0,0,0,0
0,0,0,0,0,0,0,0,0,0,0,0,0,0,0,0,0,0,0,0,0,0,0,0,0,0,0,0,0,0,0,0,0,0,0,0,0,0,0,0,0,0,0,0,0,0,0,0,0,0,0,0,0,0,0,0,0,0,0,0,0,0,0,0,0,0,0,0,0,0,0,0,0,0,0,0,0,0,0,0,0,0,0,0,0,0,0,0,0,0,72,90,144,161.9,161.9,161.9,161.7,161.3,161.3,161.3,161.1,161,161,161,161,160.9,160.9,160.9,161,161,161,160.9,160.9,160.9,160.9,160.9,160.9,142.9,142.8,142.8,125,107.1,89.4,71.7,53.9,35.8,35.8,35.8,35.6,53.6,71.6,89.5,107.4,143.1,161,160.9,160.7,160.5,160.3,160.3,160.2,160.2,160.2,160.2,160.2,160.2,160.2,160.2,160.3,160.4,160.6,160.7,160.9,161.1,161.1,161.1,161.1,161.1,161.1,161.1,161.1,161.1,161.2,161.1,161.1,161.2,161.2,161.2,161.2,161.1,161.1,161.1,161.1,161.1,161,161,160.9,160.9,160.8,160.8,160.8,160.8,160.8,160.8,160.8,160.9,161,161.1,161.1,161.1,161.1,161.1,161.1,161.1,161.1,161.1,161.1,161.1,161.1,161.1,161.1,161.1,161.2,161.3,161.2,125.5,161.3,161.3,161.3,161.3,143.4,161.4,161.5,161.5,161.5,161.5,161.5,161.5,161.3,161.1,161.1,161.1,161.1,161.1,161.1,161.1,161.1,161.3,161.4,161.4,161.4,161.4,161.4,161.4,161.4,161.4,161.2,160.7,160.7,160.6,142.7,160.6,142.7,160.6,161,161.1,161.1,161.1,161.1,161.1,161.1,161.1,161.1,161.1,179.2,179.2,179.2,179,179,178.9,179,179.1,143,161,161.2,161.3,143.3,161.2,161.3,161.2,161.2,161.3,161.2,161.3,161.1,161.2,161.1,125.4,125.4,143.3,143.3,143.2,143.2,143.3,125.6,125.6,125.6,125.6,107.6,107.7,89.7,89.7,71.8,89.7,89.8,89.9,72,72.1,72.3,72.3,72.3,54.3,72.6,72.5,54.7,54.1,54.6,36.8,36.7,17.9,17.9,0,0,17.8,36.5,54.3,54.3,35.6,35.7,35.7,35.7,35.8,54,89.7,107.7,125.5,125.5,107.4,125.4,125.4,125.4,125.4,107.5,125.5,125.6,107.6,107.6,107.6,107.6,125.8,107.5,125.7,125.7,107.7,125.4,107.2,107.3,107.4,107.5,125.3,161.4,161.6,125.5,125.8,161.5,125.7,125.8,143.8,107.9,125.9,143.8,143.9,161.9,161.8,161.7,179.7,179.6,179.4,179.4,179.4,179.4,179.4,179.3,179.2,179.2,179.2,179.3,179.3,179.3,161.1,179.3,179.3,179.3,179.3,179.3,179.3,179.3,179.3,179.2,179.1,179.1,178.8,178.9,178.9,178.7,178.6,178.9,179,179.1,179.1,179.1,179.1,179,178.9,178.8,161,161,143.1,143.1,143.1,161.1,161.1,143.4,125.6,107.7,107.6,107.6,107.5,89.5,89.6,107.5,107.5,89.5,89.5,0,0,0,0,0,0,0,0,0,0,0,0,0,0,0,0,0,0,0,0,0,0,0,0,0,18.1,0,0,0,18,0,0,0,0,0,0,0,0,0,0,0,0,0,0,0,0,0,0,0,0,0,0,0,0,0,0,0,0,0,0,0,0,0,0,0,0,0,0,0,0,0,0,0,0,0,0,0,0,0,0,0,0,0,0,0,0,0,0,0,0,0,0,0,0,0,0,0,0,0,0,0,0,0,0,0,0,0,0,0,0,0,0,0,0,0,0,0,0,0,0,0,0,0,0,0,0,0,0,0,0,0,0,0,0,0,0,0,0,0,0,0,0,0,0,0,0,0,0,0,0,0,0,0,0,0,0,0,0,0,0,0,0,0,0,0,0,0,0,0,0,0,0
0,0,0,0,0,0,0,0,0,0,0,0,0,0,0,0,0,0,0,0,0,0,0,0,0,0,0,0,0,0,0,0,0,0,0,0,0,0,0,0,0,0,0,0,0,0,0,0,0,0,0,0,0,0,0,0,0,0,0,0,0,0,0,0,0,0,0,0,0,0,0,0,0,0,0,0,0,0,0,0,0,0,0,0,0,0,0,0,0,18,18,18,89.7,143.5,143.4,161.3,161.3,161.2,161.1,161,160.9,160.6,160.6,160.4,160.4,160.4,160.5,160.5,160.4,160.4,160.4,160.4,160.4,160.5,160.5,160.5,160.4,142.6,142.7,142.6,124.9,107.1,107.1,71.5,35.7,53.4,53.4,53.4,71.5,71.4,71.4,89.3,124.9,124.8,160.3,160.2,160.2,160.2,160.2,160.2,160.2,160.2,160.2,160.2,160.2,160.2,160.2,160.2,160.2,160.2,160.2,160.2,160.2,160.2,160.2,160.2,160.5,160.5,160.5,160.5,160.6,160.8,160.8,160.8,160.9,160.9,160.8,160.8,160.7,160.6,160.6,160.7,160.5,160.5,160.3,160.3,160.3,160.3,160.3,160.3,160.4,160.3,160.3,160.4,160.5,160.6,160.7,160.7,160.7,160.7,160.7,160.8,160.9,160.6,160.6,160.7,160.6,160.6,160.7,160.7,160.7,160.7,160.8,160.8,160.8,160.8,142.9,143,161,161,161,143.1,143.1,161,161.1,161.1,161,160.9,160.7,160.7,160.7,143,160.8,160.8,160.8,160.9,160.9,160.6,160.6,160.6,160.6,160.6,160.6,160.6,160.6,160.6,160.6,160.5,142.6,160.3,160.2,160.2,160.2,160.2,160.2,160.2,160.2,160.4,160.5,142.7,160.7,160.7,160.8,160.7,160.7,160.7,160.6,178.7,142.8,142.8,178.8,142.9,142.9,125,143,143,143.1,143.1,143.1,143.1,143.1,143.1,142.9,160.6,160.6,160.6,160.6,160.5,160.5,160.5,160.6,142.7,124.9,142.7,160.6,124.9,107.2,89.2,89.3,89.3,89.3,89.4,71.3,71.4,71.4,53.4,17.9,35.9,35.8,35.8,17.8,0,35.9,54.1,35.8,17.8,17.8,17.8,35.7,17.8,35.6,0,0,17.8,53.3,53.3,35.6,53.6,53.6,71.4,71.4,53.8,53.8,71.6,89.2,107,89.3,124.9,107.1,125.2,107.2,125.4,125.3,125.3,125.3,107.4,107.4,107.5,107.5,125.5,107.3,107.2,107.1,107.1,107.1,106.9,106.8,106.8,89,124.7,106.9,142.9,142.9,125.1,143.1,143.3,107.5,125.3,125.3,143.2,125.3,143.5,179.4,179.4,179.3,179.3,143.2,161.3,179.2,179,178.9,178.9,179.1,160.6,160.7,160.7,160.8,160.8,160.8,160.9,160.9,160.9,160.9,160.9,160.9,179.1,178.8,178.7,178.7,178.5,178.4,178.5,178.5,160.2,178.3,178.3,178.3,178.4,178.7,178.6,178.7,178.6,178.6,178.6,178.6,178.6,178.6,178.6,160.8,160.8,160.8,143,160.8,125.2,125.2,125.2,107.5,107.5,107.5,107.5,89.5,107.5,89.5,71.5,17.8,0,0,0,0,0,0,0,0,0,0,0,0,0,0,0,0,0,0,0,0,0,0,0,0,0,0,0,0,0,0,0,0,0,0,0,0,0,0,0,0,0,0,0,0,0,0,0,0,0,0,0,0,0,0,0,0,0,0,0,0,0,0,0,0,0,0,0,0,0,0,0,0,0,0,0,0,0,0,0,0,0,0,0,0,0,0,0,0,0,0,0,0,0,0,0,0,0,0,0,0,0,0,0,0,0,0,0,0,0,0,0,0,0,0,0,0,0,0,0,0,0,0,0,0,0,0,0,0,0,0,0,0,0,0,0,0,0,0,0,0,0,0,0,0,0,0,0,0,0,0,0,0,0,0,0,0,0,0,0,0,0,0,0,0,0,0,0,0,0,0,0
0,0,0,0,0,0,0,0,0,0,0,0,0,0,0,0,0,0,0,0,0,0,0,0,0,0,0,0,0,0,0,0,0,0,0,0,0,0,0,0,0,0,0,0,0,0,0,0,0,0,0,0,0,0,0,0,0,0,0,0,0,0,0,0,0,0,0,0,0,0,0,0,0,0,0,0,0,0,0,0,0,0,0,0,0,0,0,0,0,0,0,0,0,89.4,125.3,161,125.3,107.1,142.6,142.5,142.5,160.2,160.2,160.2,160.1,160.1,160.1,160.1,160.1,160.1,160.1,160.1,160.1,160.3,160.2,160.2,160.1,142.2,142.1,142.2,142.2,107,107.1,89.2,71.4,53.4,35.5,53.4,71.3,53.5,53.5,71.3,142.5,142.3,160.1,160.1,160.1,160.1,160.1,160.1,160.1,160.1,160.1,160,159.8,159.8,159.7,159.7,159.7,159.8,159.7,160,160,160.1,160.2,160.2,160.2,160.2,160.2,160.2,160.2,160.3,160.3,160.3,160.3,160.4,160.4,160.4,124.8,160.4,160.4,160.3,160.3,160.3,160.3,160.3,160.2,160.1,160.1,160.1,160.1,160.1,160.1,160.1,160.1,160.2,160.2,160.2,160.2,160.2,160.2,160.3,160.3,160.3,160.3,160.3,160.2,142.2,142.3,160.2,160.3,142.6,124.7,142.5,142.3,142.4,160.4,142.6,160.4,142.4,160.6,142.8,142.8,142.9,142.8,160.8,160.7,160.7,142.9,160.7,160.6,142.6,160.4,160.2,160.2,142.4,160.2,160.1,160.2,160.1,160.2,160.2,160.2,159.9,159.7,159.7,141.9,106.3,159.7,159.7,159.7,159.7,159.7,159.7,159.7,159.9,160,160.2,160.2,160.3,160.3,160.3,160.3,160.3,160.3,160.3,160.3,160.3,160.3,178.4,160.3,160.4,160.4,142.6,142.7,142.7,124.8,142.7,142.7,160.5,160.4,160.4,160.4,160.4,160.4,142.6,160.3,160.3,142.5,160.3,160.3,160.3,142.5,160.3,160.3,160.3,124.7,106.8,89.1,71.3,89.1,89.1,71.2,71.2,35.6,35.6,17.8,17.8,17.8,0,0,0,17.7,17.7,0,17.7,17.7,17.7,0,0,35.5,17.7,0,35.4,70.9,70.8,70.9,70.8,70.8,106.7,106.6,88.6,70.9,70.9,88.8,88.8,88.8,106.7,106.8,106.8,106.9,106.9,124.9,124.9,124.9,124.9,107.1,89.1,107,89.1,106.9,89.1,106.9,124.5,124.4,124.2,88.8,106.6,106.6,124.3,124.6,106.6,124.3,124.3,124.6,106.8,106.8,89.2,89.2,107.2,143.1,143.1,161.1,179.1,179.1,179.1,179.1,161.1,161.1,161.1,160.7,160.7,160.7,160.6,160.6,160.6,160.6,160.6,160.6,160.6,160.6,160.6,160.6,160.6,160.6,178.5,178.4,178.4,178.4,178.4,178.4,178.3,160.2,160.2,160.2,178.2,178.1,178.1,178.2,178.4,178.4,178.6,178.6,178.6,178.6,124.9,107,89.1,107,107,124.9,125,71.4,53.6,53.6,89.4,17.9,35.8,17.9,35.9,17.9,53.7,35.7,0,0,0,0,0,0,0,0,0,0,0,0,0,0,0,0,0,0,0,0,0,0,0,0,0,0,0,0,0,0,0,0,0,0,0,0,0,0,0,0,0,0,0,0,0,0,0,0,0,0,0,0,0,0,0,0,0,0,0,0,0,0,0,0,0,0,0,0,0,0,0,0,0,0,0,0,0,0,0,0,0,0,0,0,0,0,0,0,0,0,0,0,0,0,0,0,0,0,0,0,0,0,0,0,0,0,0,0,0,0,0,0,0,0,0,0,0,0,0,0,0,0,0,0,0,0,0,0,0,0,0,0,0,0,0,0,0,0,0,0,0,0,0,0,0,0,0,0,0,0,0,0,0,0,0,0,0,0,0,0,0,0,0,0,0,0,0,0,0,0,0,0,0
0,0,0,0,0,0,0,0,0,0,0,0,0,0,0,0,0,0,0,0,0,0,0,0,0,0,0,0,0,0,0,0,0,0,0,0,0,0,0,0,0,0,0,0,0,0,0,0,0,0,0,0,0,0,0,0,0,0,0,0,0,0,0,0,0,0,0,0,0,0,0,0,0,0,0,0,0,0,0,0,0,0,0,0,0,0,0,0,0,0,0,0,35.7,89,106.8,124.8,89.1,35.7,53.4,106.7,142.1,159.6,159.6,159.6,159.6,159.6,159.6,159.6,159.6,159.6,159.6,159.7,159.7,159.7,159.8,159.7,159.7,159.7,141.9,142,141.9,124.4,106.8,71.1,53.3,35.6,35.6,35.6,53.4,53.4,71.3,71.1,88.9,106.5,142,159.7,159.6,159.6,159.5,159.3,159.3,159.3,159.3,159.3,159.3,159.3,159.3,159.3,159.3,159.3,159.3,159.3,159.3,159.3,159.4,159.4,159.5,159.6,159.6,159.7,159.9,160,160.2,160.2,160.2,160.3,124.7,160.3,160.3,160.3,160.2,160.2,160,159.9,159.8,159.8,159.8,159.7,159.7,159.7,159.8,159.9,159.9,159.8,159.8,159.8,159.9,160,160,160.1,142.4,160.1,160.1,160,159.9,159.9,159.9,142.1,142,159.9,159.8,141.9,124.2,106.4,142.1,124.3,142.2,124.4,160.1,142.2,124.4,106.7,124.5,106.7,142.5,142.5,160.4,160.4,142.3,89,124.5,142.1,142.1,159.9,159.8,159.7,159.4,159.4,159.4,159.4,159.3,159.3,159.3,159.3,159.3,159.3,159.3,159.3,159.2,158.9,158.8,158.9,158.9,159.2,159.3,159.3,159.3,159.4,159.6,141.9,159.6,159.8,159.9,159.9,160,160,160,159.8,159.8,159.8,159.9,160,160,160.2,160.2,160.3,142.3,142.5,142.4,142.3,142.2,142.2,142.1,142,141.8,141.8,141.8,159.7,159.7,159.7,159.7,159.7,159.6,159.5,159.6,159.5,159.6,124.1,88.7,88.7,88.7,70.8,70.8,70.8,53.1,35.4,70.8,35.5,35.5,0,0,17.7,17.7,17.7,17.7,17.7,17.7,17.7,35.4,35.4,35.4,35.4,52.8,88.2,88.2,88.2,88.3,106,88.3,88.4,88.4,88.5,53.1,88.5,88.5,70.8,88.6,106.4,106.4,106.4,106.5,106.5,124.4,124.4,124.3,124.4,106.6,106.7,88.9,88.9,88.7,106.4,124,141.5,159,159.1,141.4,141.5,123.8,159.1,141.6,141.6,141.6,141.8,141.9,124.3,142.4,160.1,107,142.5,124.9,124.9,160.9,160.9,161,161.1,160.8,160.7,178.8,160.5,160.6,160.6,160.6,160.6,160.5,160.5,160.6,142.8,160.6,160.6,142.8,160.6,160.5,160.3,178.3,178.4,178.4,178.4,178.4,178.4,178.3,178.3,178.2,160.2,160.2,160.2,160.2,160.2,178,89,142.5,142.5,124.8,124.8,71.2,88.9,88.9,89.1,71.2,71.2,71.2,71.2,71.3,35.7,35.7,35.7,17.9,0,0,17.9,17.9,17.8,0,0,0,0,0,0,0,0,0,0,0,0,0,0,0,0,0,0,0,0,0,0,0,0,0,0,0,0,0,0,0,0,0,0,0,0,0,0,0,0,0,0,0,0,0,0,0,0,0,0,0,0,0,0,0,0,0,0,0,0,0,0,0,0,0,0,0,0,0,0,0,0,0,0,0,0,0,0,0,0,0,0,0,0,0,0,0,0,0,0,0,0,0,0,0,0,0,0,0,0,0,0,0,0,0,0,0,0,0,0,0,0,0,0,0,0,0,0,0,0,0,0,0,0,0,0,0,0,0,0,0,0,0,0,0,0,0,0,0,0,0,0,0,0,0,0,0,0,0,0,0,0,0,0,0,0,0,0,0,0,0,0,0,0,0,0,0,0,0,0,0,0,0,0
0,0,0,0,0,0,0,0,0,0,0,0,0,0,0,0,0,0,0,0,0,0,0,0,0,0,0,0,0,0,0,0,0,0,0,0,0,0,0,0,0,0,0,0,0,0,0,0,0,0,0,0,0,0,0,0,0,0,0,0,0,0,0,0,0,0,0,0,0,0,0,0,0,0,0,0,0,0,0,0,0,0,0,0,0,0,0,0,0,0,0,0,0,35.6,106.6,106.4,141.9,106.5,124.1,141.7,159.4,159.3,159.3,159.3,159.3,159.3,159.2,159.2,159.4,159.4,159.4,159.4,159.4,159.4,141.6,141.6,123.8,123.8,141.7,123.8,123.8,123.8,106.5,70.8,70.8,53.2,53.2,53.2,53.2,53.2,71,88.8,88.8,124.1,141.8,159.5,159.4,159.3,159.3,159.3,159.3,159.3,159.3,159.3,159.3,159.3,159.3,159.3,159.3,159.3,159.3,159.3,159.3,159.3,159.3,159.3,159.3,159.3,159.3,159.4,159.4,159.5,141.8,141.9,159.6,142,159.8,159.8,159.7,159.6,159.6,159.6,159.5,159.5,159.5,159.5,159.4,159.5,159.5,159.5,159.5,159.5,159.6,159.5,159.5,159.6,159.7,159.7,159.7,159.6,159.6,159.6,159.6,159.8,159.5,159.5,159.5,159.4,141.7,141.7,141.7,141.7,141.7,124,141.6,141.7,124,106.3,141.7,141.7,88.6,106.4,124.2,124.3,88.8,124.3,142.2,124.4,124.4,124.4,124.3,141.8,141.7,159.4,141.6,159.3,159.3,159.2,159.1,159.1,158.9,159,158.7,158.7,158.7,158.7,158.5,158.5,158.5,158.5,158.5,158.4,158.5,158.8,158.8,158.8,158.9,159.1,159.1,159.2,141.5,159.3,159.4,159.4,159.5,159.7,159.7,159.7,159.7,159.7,159.7,159.7,159.7,159.7,159.7,159.8,159.6,141.9,141.9,141.8,141.8,123.9,123.9,141.6,141.6,141.6,141.6,141.3,159.2,159.2,159.2,159.2,159.2,159.2,141.4,159.2,159.2,123.8,70.8,70.8,70.8,88.5,70.8,70.8,70.7,70.7,70.7,70.7,53,17.7,0,0,17.6,17.6,17.6,35.3,35.3,35.3,35.2,35.2,70.4,52.9,88,88,88.1,88.1,105.8,105.8,105.8,88.2,88.2,88.2,70.5,88.2,88.3,88.3,88.4,88.4,88.4,88.6,88.6,88.6,88.6,124.2,124,124.1,88.5,88.5,106,88.4,88.4,88.4,123.3,158.6,141,158.5,158.5,158.5,141,158.6,141,140.8,140.8,123.3,123.5,123.5,123.4,159.4,159.5,142.2,124.6,106.9,142.8,142.9,143,178.8,142.7,142.6,160.5,142.4,160.5,160.5,160.5,160.5,160.6,160.4,160.4,160.3,160.4,160.3,160.4,160.4,160.1,160.2,160.1,160.1,160.1,160.1,160.1,160.1,160.1,160.1,160.2,160.2,124.6,89,89,89,71.2,53.4,71.2,71.2,71.2,53.4,71.1,53.3,71,53.3,71.1,71.1,17.9,53.4,35.7,35.7,35.7,17.9,0,17.9,0,0,0,0,0,0,0,0,0,0,0,0,0,0,0,0,0,0,0,0,0,0,0,0,0,0,0,0,0,0,0,0,0,0,0,0,0,0,0,0,0,0,0,0,0,0,0,0,0,0,0,0,0,0,0,0,0,0,0,0,0,0,0,0,0,0,0,0,0,0,0,0,0,0,0,0,0,0,0,0,0,0,0,0,0,0,0,0,0,0,0,0,0,0,0,0,0,0,0,0,0,0,0,0,0,0,0,0,0,0,0,0,0,0,0,0,0,0,0,0,0,0,0,0,0,0,0,0,0,0,0,0,0,0,0,0,0,0,0,0,0,0,0,0,0,0,0,0,0,0,0,0,0,0,0,0,0,0,0,0,0,0,0,0,0,0,0,0,0,0,0,0,0,0,0,0,0,0
0,0,0,0,0,0,0,0,0,0,0,0,0,0,0,0,0,0,0,0,0,0,0,0,0,0,0,0,0,0,0,0,0,0,0,0,0,0,0,0,0,0,0,0,0,0,0,0,0,0,0,0,0,0,0,0,0,0,0,0,0,0,0,0,0,0,0,0,0,0,0,0,0,0,0,0,0,0,0,0,0,0,0,0,0,0,0,0,0,0,17.6,17.6,17.7,53,123.7,106.1,141.5,141.6,159.3,159.3,159.2,159.1,159,159,159,159,159,159.1,159.1,159.1,159.2,159.3,159.3,159.3,141.6,141.5,123.6,123.6,123.6,123.7,123.7,105.9,106,88.5,88.5,70.8,53.2,53.2,53.2,53.2,71,70.9,88.6,141.6,141.6,159.3,159.2,159.3,159.3,159.3,159.3,159.3,159.1,159.1,159.1,159.1,159,159,159.1,159.1,159.1,159.1,159.2,159.2,159.2,159.3,159.3,159.2,159.2,159.2,159.3,159.4,159.4,159.4,159.5,159.5,159.5,159.5,141.7,159.5,159.5,159.5,159.5,159.4,159.4,159.4,159.4,159.4,159.4,159.3,159.3,159.3,159.2,159.4,159.2,159.3,159.4,159.4,159.4,159.4,159.4,159.4,159.4,159.3,159.3,159.2,159.2,159.1,159.1,141.4,141.4,141.3,123.6,123.6,123.6,123.6,123.6,106.1,141.5,141.4,106.1,88.5,106.1,88.4,106.2,124.1,141.8,141.8,159.6,124.1,124,123.9,141.5,123.6,105.9,141,158.4,158.4,158.4,158.4,158.4,158.4,158.4,158.4,158.4,158.3,158.2,158.2,158.1,158.1,158.1,158.1,158.1,158.1,158.2,158.3,158.4,158.5,140.9,141.1,158.7,123.4,123.4,123.5,141.4,159,159.3,159.3,159.3,159.4,159.4,159.4,141.5,159.4,159.4,159.5,159.5,124,141.7,123.9,106.3,106.3,123.9,123.8,141.4,141.3,141.3,141.2,141.2,141.2,141.2,159,159,141.2,141.2,158.9,158.7,141,123.3,70.5,88.1,88.1,88.1,70.5,70.5,70.5,70.5,70.5,52.8,0,0,0,0,17.6,17.6,17.6,17.6,35.2,35.2,35.2,35.2,52.8,70.4,70.4,70.4,105.7,105.7,105.7,105.7,88.1,70.5,70.6,52.9,70.6,70.6,88.2,70.6,70.6,88.2,88.2,88.2,88.2,88.1,105.8,88.1,88.2,88.1,105.8,70.5,70.5,88.1,88,123.1,158.2,140.6,158.1,158.1,158,158.1,158.3,158.3,140.7,140.7,140.7,123.2,105.6,141.1,158.9,158.9,123.9,88.6,88.6,124.7,107.1,107.1,124.9,124.8,107,106.9,124.6,142.4,124.5,160.2,160.2,160.3,160.4,160.3,160.3,142.4,160.2,160.2,160,142.2,142.2,159.9,159.9,159.9,159.9,142.1,142.1,142.1,160.1,159.9,160.1,160.2,71.2,89,89,71.2,0,17.8,35.6,35.6,35.5,35.5,35.6,71,71,71,71,53.3,17.9,35.7,35.7,35.7,17.9,17.9,0,0,0,0,0,0,0,0,0,0,0,0,0,0,0,0,0,0,0,0,0,0,0,0,0,0,0,0,0,0,0,0,0,0,0,0,0,0,0,0,0,0,0,0,0,0,0,0,0,0,0,0,0,0,0,0,0,0,0,0,0,0,0,0,0,0,0,0,0,0,0,0,0,0,0,0,0,0,0,0,0,0,0,0,0,0,0,0,0,0,0,0,0,0,0,0,0,0,0,0,0,0,0,0,0,0,0,0,0,0,0,0,0,0,0,0,0,0,0,0,0,0,0,0,0,0,0,0,0,0,0,0,0,0,0,0,0,0,0,0,0,0,0,0,0,0,0,0,0,0,0,0,0,0,0,0,0,0,0,0,0,0,0,0,0,0,0,0,0,0,0,0,0,0,0,0,0,0,0
0,0,0,0,0,0,0,0,0,0,0,0,0,0,0,0,0,0,0,0,0,0,0,0,0,0,0,0,0,0,0,0,0,0,0,0,0,0,0,0,0,0,0,0,0,0,0,0,0,0,0,0,0,0,0,0,0,0,0,0,0,0,0,0,0,0,0,0,0,0,0,0,0,0,0,0,0,0,0,0,0,0,0,0,0,0,0,0,0,0,17.5,17.5,0,17.6,88,105.6,123.3,158.7,158.7,158.7,158.6,158.6,158.5,158.5,158.8,158.9,158.9,158.8,158.7,158.8,158.8,141.1,123.4,141.3,141.4,141.2,123.4,123.5,123.5,105.8,105.8,105.8,105.8,105.7,70.7,53.2,53.2,53.2,53.2,53.1,70.9,70.9,88.6,106.3,141.6,159.1,141.4,159.1,159.1,159.1,159,158.8,158.8,158.6,158.6,158.5,158.5,158.5,158.6,158.6,158.6,158.6,158.6,158.6,158.5,158.5,158.6,158.6,158.7,158.8,158.7,159,159,159.2,159.4,159.5,159.5,141.7,159.5,159.5,159.5,159.4,159.3,159.2,159.2,159.2,159.1,159.1,159.1,158.9,158.9,158.9,159,159,141.4,159,159,159,159.1,141.6,141.6,141.3,141.4,159.1,141.3,141.3,141.2,141,141,141,140.9,140.9,140.9,123.3,140.9,140.9,105.6,88.1,141.1,141.1,106,105.9,88.3,88.3,105.9,106,123.7,141.5,141.4,123.6,105.9,105.7,88.1,105.6,140.8,158.3,158.3,158.3,158.1,158.2,157.7,157.5,157.5,157.5,157.5,157.5,157.5,157.5,157.5,157.5,157.5,157.5,157.5,157.6,157.9,157.9,157.9,158,158.2,158.2,140.9,158.3,123,123,105.6,158.8,158.9,158.9,159,159.2,141.5,141.4,141.4,141.4,159.3,159.3,141.4,141.4,141.4,141.5,123.6,123.6,123.6,141.1,141.1,141.1,141.1,141.2,141.1,141.1,141.1,141.1,141,140.9,123.2,123.2,158.5,158.5,140.7,123.1,105.5,87.8,87.8,87.9,70.4,70.4,70.4,52.7,52.7,35.1,35.1,0,17.5,35.1,35,35,35.1,35.1,35.1,52.6,52.6,52.6,70.2,70.2,70.2,87.8,87.8,105.5,105.5,87.9,87.9,88.1,52.9,70.5,88,88,88,105.6,105.6,105.5,105.5,88,88,88,87.9,87.9,87.9,70.2,87.8,105.3,122.7,105.3,122.9,140.4,140.3,157.8,157.9,157.8,157.8,157.8,157.7,140.1,140.1,140.1,140.1,140,122.7,140.6,123,87.9,105.9,88.4,106.6,124.5,106.9,106.9,124.8,89.1,89.2,71.4,71.4,124.4,89,89,142.5,142.6,160.2,142.3,124.4,106.6,106.6,142.1,142.1,142.1,142,124.1,141.9,106.4,106.4,106.4,88.6,88.7,88.6,88.6,88.7,88.9,71.1,53.3,35.5,17.8,17.8,17.8,17.8,17.8,17.8,17.9,53.3,71,71,70.9,35.6,17.9,17.9,17.9,17.9,17.9,17.9,17.9,0,0,0,0,0,0,0,0,0,0,0,0,0,0,0,0,0,0,0,0,0,0,0,0,0,0,0,0,0,0,0,0,0,0,0,0,0,0,0,0,0,0,0,0,0,0,0,0,0,0,0,0,0,0,0,0,0,0,0,0,0,0,0,0,0,0,0,0,0,0,0,0,0,0,0,0,0,0,0,0,0,0,0,0,0,0,0,0,0,0,0,0,0,0,0,0,0,0,0,0,0,0,0,0,0,0,0,0,0,0,0,0,0,0,0,0,0,0,0,0,0,0,0,0,0,0,0,0,0,0,0,0,0,0,0,0,0,0,0,0,0,0,0,0,0,0,0,0,0,0,0,0,0,0,0,0,0,0,0,0,0,0,0,0,0,0,0,0,0,0,0,0,0,0,0,0,0,0
0,0,0,0,0,0,0,0,0,0,0,0,0,0,0,0,0,0,0,0,0,0,0,0,0,0,0,0,0,0,0,0,0,0,0,0,0,0,0,0,0,0,0,0,0,0,0,0,0,0,0,0,0,0,0,0,0,0,0,0,0,0,0,0,0,0,0,0,0,0,0,0,0,0,0,0,0,0,0,0,0,0,0,0,0,0,0,0,0,0,17.5,35,52.6,87.8,105.6,123.3,158.5,158.5,158.5,158.5,158.5,158.5,158.4,158.4,158.4,158.4,140.9,141,141,141,141,141,123.3,123.3,123.4,123.4,123.4,105.7,88.1,88.1,88,88,105.7,105.7,53,53.1,53,53.2,53.1,35.4,35.4,35.4,53.2,70.7,106.1,141.4,159.1,158.9,158.7,158.7,158.5,158.5,158.5,158.5,158.4,158.4,158.4,158.4,158.4,158.4,158.4,158.4,158.4,158.4,158.4,158.4,158.4,158.4,158.5,158.5,158.5,158.5,158.6,158.6,158.6,158.8,158.8,159,159.1,159.2,159.2,159.1,159.1,158.9,158.8,158.8,158.8,158.8,158.8,158.8,158.8,158.8,158.8,158.8,158.8,158.8,158.8,158.8,158.8,141.1,123.4,123.4,158.9,158.9,141.1,141,141,123.2,140.9,140.7,140.7,140.7,123,140.6,122.8,140.5,105.4,87.7,158.4,158.5,123.4,105.7,105.7,105.7,105.7,141.2,123.3,105.8,123.4,105.6,105.6,87.8,158.1,158,140.3,157.6,157.5,157.5,157.5,157.5,157.5,157.5,157.5,157.5,157.5,157.5,157.5,157.5,157.5,157.5,157.5,157.5,157.5,157.5,157.5,157.5,157.5,157.6,157.6,157.6,140.1,140.3,122.8,122.9,105.3,87.9,123.3,123.3,140.8,140.8,140.8,141.1,141.1,123.5,141.2,141.1,141.1,141,141.1,123.4,141.1,123.3,123.2,141,123.4,140.9,140.8,140.7,140.6,140.7,140.6,140.8,123.2,140.8,140.7,158.2,158.2,158,140.4,122.8,140.4,105.3,105.3,105.3,70.3,70.3,52.7,52.7,52.7,35.1,35.1,35.1,35,35,35,35,35,35,35,70.1,87.6,70.1,70.1,70.1,70.1,70.1,70.1,105.4,87.8,105.4,105.4,87.8,87.6,87.8,87.9,87.9,105.3,105.3,105.3,105.3,105.3,105.1,87.7,87.6,87.6,87.6,105.1,122.4,122.4,139.9,139.9,122.3,139.8,139.9,139.9,139.9,157.5,157.5,157.5,157.5,157.5,139.9,122.5,122.4,122.3,122.3,122.4,122.5,87.7,87.6,52.5,52.9,52.9,54.3,72,53.8,72.1,71.9,71.3,53.6,71.4,71.3,89,89.2,106.8,142.3,124.5,106.6,88.7,88.7,88.7,88.7,124.3,106.5,88.6,88.5,70.7,70.7,70.7,70.8,70.8,70.8,70.8,70.8,53.1,35.4,17.7,17.7,17.7,17.8,17.8,17.8,17.8,17.8,17.9,17.9,35.6,35.6,35.6,17.9,17.9,17.9,17.9,17.9,17.9,17.9,0,0,0,0,0,0,0,0,0,0,0,0,0,0,0,0,0,0,0,0,0,0,0,0,0,0,0,0,0,0,0,0,0,0,0,0,0,0,0,0,0,0,0,0,0,0,0,0,0,0,0,0,0,0,0,0,0,0,0,0,0,0,0,0,0,0,0,0,0,0,0,0,0,0,0,0,0,0,0,0,0,0,0,0,0,0,0,0,0,0,0,0,0,0,0,0,0,0,0,0,0,0,0,0,0,0,0,0,0,0,0,0,0,0,0,0,0,0,0,0,0,0,0,0,0,0,0,0,0,0,0,0,0,0,0,0,0,0,0,0,0,0,0,0,0,0,0,0,0,0,0,0,0,0,0,0,0,0,0,0,0,0,0,0,0,0,0,0,0,0,0,0,0,0,0,0,0,0,0,0
0,0,0,0,0,0,0,0,0,0,0,0,0,0,0,0,0,0,0,0,2677.4,2932.4,3079.1,0,0,0,0,0,0,0,0,0,0,0,0,0,0,0,0,0,0,0,0,0,0,0,0,0,0,0,0,0,0,0,0,0,0,0,0,0,0,0,0,0,0,0,0,0,0,0,0,0,0,0,0,0,0,0,0,0,0,0,0,0,0,0,0,0,0,0,0,35,52.5,70.1,105.4,123.1,158.2,158.4,158.4,158.4,158.4,158.4,158.4,158.4,158.4,140.8,140.8,140.8,123.2,105.6,105.6,105.6,123.3,123.3,123.3,123.4,105.7,88,105.7,87.9,87.9,88,105.7,88,35.3,53,53,35.3,35.4,53.1,53.1,35.3,70.8,53,88.4,123.7,141.2,158.6,158.5,158.5,158.5,158.5,158.4,158.4,158.4,158.4,158.4,158.4,158.4,158.4,158.4,158.4,158.4,158.3,158.3,158.4,158.4,158.3,158.3,158.3,158.1,158.1,158.2,158.3,158.6,158.6,158.6,158.6,158.6,158.6,158.6,158.7,158.7,158.7,158.7,158.6,158.6,158.6,158.6,158.5,158.6,158.5,158.6,158.6,158.7,158.6,158.6,158.6,158.6,140.9,140.7,140.7,140.7,140.6,140.7,158.4,158.3,140.9,123,105.5,140.4,122.8,140.2,122.8,122.9,122.7,122.8,105.4,122.8,140.6,105.5,88.1,70.1,70.1,87.8,70.2,105.6,70.2,122.9,140.5,122.7,105.2,140.2,140.1,157.3,157.3,157.3,157.3,157.3,157.3,157.3,157.2,157.1,157,156.9,156.8,156.6,156.6,156.6,156.6,156.6,156.6,156.6,156.8,156.8,156.9,139.5,156.9,157.1,157.2,139.9,140,157.5,157.7,157.7,140.3,105.3,87.8,105.5,123,123.1,123.1,141.1,141,141,123.3,140.8,140.8,123.1,123.2,105.4,122.9,140.5,122.8,140.4,140.4,140.4,140.5,140.5,140.4,140.4,140.4,140.4,140.4,157.9,157.9,157.9,157.8,157.8,140.3,140.3,122.7,105.2,105.3,87.8,70.1,70.1,52.7,52.7,52.6,52.6,52.5,35,34.9,34.9,34.9,34.9,34.9,52.5,52.5,70,70,70,87.4,104.7,122.3,104.9,104.8,104.9,70,105.2,87.6,104.9,87.6,87.6,87.6,104.9,104.9,122.2,122.2,122.2,122.1,122.1,122.1,122.1,104.8,122.2,122.1,139.5,139.5,139.5,139.6,139.7,139.6,139.5,157.1,157.1,157.2,157.1,157,157,139.4,139.4,139.4,139.4,139.4,139.5,139.4,69.7,69.7,52.2,52.3,34.9,17.5,18.1,18.1,36.5,36.5,54.2,54.2,35.9,53.6,53.5,71.1,53.4,71,88.8,53,53,53,70.6,53,53,70.7,70.7,70.7,70.7,70.7,70.7,70.7,70.8,70.8,70.8,17.7,0,0,0,17.7,17.7,0,0,17.8,17.8,17.8,17.9,17.9,17.9,17.9,17.9,17.9,17.9,17.9,17.9,17.9,0,0,0,0,0,0,0,0,0,0,0,0,0,0,0,0,0,0,0,0,0,0,0,0,0,0,0,0,0,0,0,0,0,0,0,0,0,0,0,0,0,0,0,0,0,0,0,0,0,0,0,0,0,0,0,44,43.9,43.9,43.8,0,0,0,0,0,0,0,0,0,0,0,0,0,0,0,0,0,0,0,0,0,0,0,0,0,0,0,0,0,0,0,0,0,0,0,0,0,0,0,0,0,0,0,0,0,0,0,0,0,0,0,0,0,0,0,0,0,0,0,0,0,0,0,0,0,0,0,0,0,0,0,0,0,0,0,0,0,0,0,0,0,0,0,0,0,0,0,0,0,0,0,0,0,0,0,0,0,0,0,0,0,0,0,0,0,0,0,0,0,0,0,0,0,0,0,0,0,0,0,0,0,0,0
0,0,0,0,0,0,0,0,0,0,0,0,0,0,0,0,0,0,0,0,0,3079.1,3241.1,3421.2,3848.8,0,0,0,0,0,0,0,0,0,0,0,0,0,0,0,0,0,0,0,0,0,0,0,0,0,0,0,0,0,0,0,0,0,0,0,0,0,0,0,0,0,0,0,0,0,0,0,0,0,0,0,0,0,0,0,0,0,0,0,0,0,0,0,0,0,0,35,35,70,70.1,105.4,123,158.1,158.1,158.1,158.1,158.2,158.4,158.4,158.4,158.4,158.4,140.8,105.6,70.3,70.3,105.6,88,105.6,88,88,88,88,105.7,70.3,70.3,70.4,52.7,52.9,35.3,53,53,35.3,53,35.3,17.6,17.6,17.6,53,70.7,88.4,105.9,123.3,140.9,140.9,140.9,140.9,158.3,158.3,158.4,158.4,158.3,158.3,158.3,158.3,158.3,158.3,158.3,158.3,158.3,158.2,158.2,158,158,157.9,157.8,157.9,157.9,157.8,158.1,158.1,158.2,140.6,140.8,140.7,158.5,140.7,158.3,158.3,158.3,158.6,158.4,158.3,158.4,158.3,158.3,158.3,158.2,158.1,140.6,158.1,158.1,158.1,140.5,105.4,158.1,122.9,122.8,70.2,87.9,123,123.2,105.5,122.7,122.7,122.6,140.2,139.9,122.6,122.6,139.8,122.7,87.5,87.4,87.4,52.4,87.6,87.6,87.4,87.4,87.6,87.5,105,105,122.4,122.5,122.5,122.4,139.7,139.6,157.1,157,156.9,156.8,156.8,156.7,156.7,156.7,156.6,156.6,156.6,156.6,156.6,156.6,156.6,156.6,156.6,156.6,156.6,156.6,156.6,156.6,156.7,156.7,156.7,156.7,139.5,156.9,139.5,139.8,140,140.2,140.4,105.4,122.9,122.9,122.8,105.2,123,123,123,123.1,105.4,123.1,123,105.1,122.6,140.2,140.2,140.2,140.2,140.2,140.2,140.2,140.2,140.2,140.1,140.2,140.2,157.7,157.7,157.8,157.8,157.8,140.1,140,140,122.5,87.5,87.5,69.9,69.8,69.8,69.8,52.4,52.4,69.7,52.4,52.2,34.9,34.9,34.9,52.3,52.4,69.8,87.2,87.2,104.5,104.6,122.2,104.7,104.7,104.7,104.7,70,87.5,87.5,104.8,87.5,87.5,87.5,104.8,121.9,121.8,121.8,121.8,121.9,139.3,104.4,104.4,121.8,139.1,139.2,139.2,104.3,139.2,139.2,139.3,156.8,139.1,156.8,156.8,156.7,156.7,139.2,139.2,139.2,139.1,139.1,156.6,139.1,139.1,139.1,86.9,86.8,52.1,52.2,17.4,34.8,0,0,0,0,0,18.1,17.8,17.8,0,53.2,17.6,35.4,35.4,35.4,53,53,70.6,52.9,52.9,53,53,53,70.7,35.3,35.3,35.3,70.7,70.8,53.1,0,0,0,0,0,0,0,0,17.8,17.8,17.8,17.9,0,17.9,17.9,17.9,17.9,17.9,17.9,0,17.9,0,17.9,0,0,0,0,0,0,0,0,0,0,0,0,0,0,0,0,0,0,0,0,0,0,0,0,0,0,0,0,0,0,0,0,0,0,0,0,0,0,0,0,0,0,0,0,0,0,0,0,0,0,0,44,44,88.1,88.1,88,87.9,43.8,0,0,0,0,0,0,0,0,0,0,0,0,0,0,0,0,0,0,0,0,0,0,0,0,0,0,0,0,0,0,0,0,0,0,0,0,0,0,0,0,0,0,0,0,0,0,0,0,0,0,0,0,0,0,0,0,0,0,0,0,0,0,0,0,0,0,0,0,0,0,0,0,0,0,0,0,0,0,0,0,0,0,0,0,0,0,0,0,0,0,0,0,0,0,0,0,0,0,0,0,0,0,0,0,0,0,0,0,0,0,0,0,0,0,0,0,0,0,0,0,0,0
0,0,0,0,0,0,0,0,0,0,0,0,0,0,0,0,0,0,0,0,0,0,0,0,4398.7,4737,5131.8,0,0,0,0,0,0,2368.5,2280.8,2199.3,0,0,0,0,0,0,0,0,0,0,0,0,0,0,0,0,0,0,0,0,0,0,0,0,0,0,0,0,0,0,0,0,0,0,0,0,0,0,0,0,0,0,0,0,0,0,0,0,0,0,0,0,0,0,0,0,34.9,35,52.5,70.1,105.3,70.2,52.6,87.8,70.3,70.4,70.3,70.3,70.3,70.3,52.7,52.7,35.1,35.1,52.7,35.2,35.2,35.2,17.6,17.6,35,17.4,17.4,0,0,0,0,0,0,17.6,0,0,0,0,17.6,17.6,0,0,17.6,17.6,17.6,35.2,35.2,70.5,105.7,158.4,158.2,158.2,158.1,158.1,158.2,158.2,158.2,158.2,158.2,158.2,158.2,158.2,158.1,158.1,157.9,157.9,157.6,157.5,157.5,157.5,157.5,122.6,105.2,122.5,122.5,122.6,105.1,105.1,140.3,140.3,122.9,122.9,140.6,140.5,140.4,157.9,157.9,158,157.9,158,158,158,158.1,157.9,157.9,140.3,122.7,157.9,105.1,122.7,105.1,87.6,87.7,87.7,104.9,122.5,122.5,104.9,122.1,139.8,139.8,122.4,122,87.2,87.1,87,87.1,87.1,52.3,52.3,87.5,104.9,69.8,69.8,87.4,122.4,122.3,104.8,122.1,139.4,122.1,156.8,156.7,156.7,156.6,156.6,156.6,156.6,156.6,156.5,156.6,156.5,156.5,156.4,156.4,156.4,156.3,156.3,156.3,155.9,155.8,155.8,155.8,155.9,156,156,156.2,156.2,139,139.1,121.9,121.9,122.1,122.2,139.7,122.3,140.1,122.7,122.7,122.8,105.2,105.2,87.6,105.2,105.4,122.9,122.9,105.1,122.6,140.1,140,122.5,122.4,139.8,122.4,122.5,122.5,139.9,139.9,139.9,140,139.9,140,157.5,157.6,157.5,157.4,139.9,122.5,140,139.7,104.9,104.7,104.6,104.5,69.8,69.8,69.8,69.8,86.8,69.6,52.2,52.1,17.5,34.7,86.7,86.7,86.7,87,104.3,104.3,104.3,104.4,104.4,104.5,104.6,87.3,69.8,69.8,69.9,87.4,87.4,104.5,87.2,104.6,121.8,121.7,104.4,121.5,121.5,69.5,104.3,104.3,121.5,138.7,138.7,138.6,121.4,121.6,138.9,121.6,138.8,138.7,138.9,138.9,138.9,138.8,138.7,138.7,138.7,138.7,138.7,156,138.7,138.6,138.6,138.6,86.6,69.3,52,69.3,34.7,17.4,17.4,0,0,0,0,0,0,0,0,0,0,0,17.8,35.4,53,53,53,53,53,53,53,35.3,0,0,17.6,17.6,0,0,0,0,0,0,0,0,0,0,0,0,0,0,0,17.9,17.9,17.9,17.9,17.9,17.9,0,0,0,0,0,0,0,0,0,0,0,0,0,0,0,0,0,0,0,0,0,0,0,0,0,0,0,0,0,0,0,0,0,0,0,0,0,0,0,0,0,0,0,0,0,0,0,0,0,0,0,0,0,0,44.2,88.3,88.2,88.2,132.6,176.5,220.7,88.2,87.8,43.7,0,0,0,0,0,0,0,0,0,0,0,0,0,0,0,0,0,0,0,0,0,0,0,0,0,0,0,0,0,0,0,0,0,0,0,0,0,0,0,0,0,0,0,0,0,0,0,0,0,0,0,0,0,0,0,0,0,0,0,0,0,0,0,0,0,0,0,0,0,0,0,0,0,0,0,0,0,0,0,0,0,0,0,0,0,0,0,0,0,0,0,0,0,0,0,0,0,0,0,0,0,0,0,0,0,0,0,0,0,0,0,0,0,0,0,0,0,0,0,0
0,0,0,0,0,0,0,0,0,0,0,0,0,0,0,0,0,0,0,0,0,0,0,0,4737,5131.8,5598.3,6158.1,6553.5,0,0,0,2565.9,2368.5,2280.8,2199.3,0,0,0,0,0,0,0,0,0,0,0,0,0,0,0,0,0,0,0,0,0,0,0,0,0,0,0,0,0,0,0,0,0,0,0,0,0,0,0,0,0,0,0,0,0,0,0,0,0,0,0,0,0,0,0,0,0,35,0,0,0,0,0,0,0,0,0,0,0,0,0,0,0,0,0,0,0,0,0,0,0,0,0,0,0,0,0,0,0,0,0,0,0,0,0,0,0,0,0,0,0,0,52.8,52.8,105.5,140.6,158.1,140.6,158.2,158.1,158.1,158.1,158.2,158.2,158.1,158.1,158.1,140.4,158,157.9,157.7,157.6,157.5,157.5,157.4,157.4,157.4,157.4,139.9,139.9,122.4,87.5,87.4,105,70,70,122.5,105.1,139.9,140,122.6,157.7,157.6,157.6,157.4,140,140,157.6,157.6,157.6,140,122.4,139.9,104.7,122.4,122.5,104.7,87.3,52.5,52.5,104.8,69.7,34.8,17.5,69.8,139.6,139.6,86.9,87.1,86.9,86.9,87,87,87.1,69.8,52.3,69.8,87.4,69.9,69.9,69.9,104.5,87.2,122,139.3,139.3,139.3,156.7,156.5,156.5,156.5,156.5,156.5,156.5,156.5,156.3,156.3,156.3,156.3,156.2,156.1,155.7,155.7,155.7,155.7,155.7,155.7,155.7,155.7,155.7,155.6,155.7,155.7,138.4,121.2,138.8,121.5,104.4,121.7,87.2,104.6,104.6,104.7,122.3,69.9,87.5,69.9,69.9,69.9,69.9,104.7,104.7,104.7,104.7,122.2,122.1,104.6,122.1,122.1,104.7,122.1,104.7,104.8,104.7,104.7,122,139.3,122.1,139.6,139.6,139.8,139.6,139.8,104.9,104.8,122.2,121.9,87.2,104.5,69.7,87.1,69.8,69.7,69.6,69.6,104,69.3,52,17.4,52,52,69.3,69.3,86.7,104,86.8,86.7,86.7,86.7,86.7,69.4,86.8,69.5,69.5,69.5,69.5,69.6,86.9,104.1,121.2,86.6,121.2,86.5,121.2,86.6,103.9,103.9,103.9,103.9,103.9,138.5,138.5,138.5,138.5,103.9,121.2,103.9,121.2,121.2,138.3,121.1,121.1,121.1,121.1,138.3,138.4,138.4,155.6,155.6,138.4,138.4,138.4,138.4,86.5,51.9,51.8,34.6,0,17.3,0,0,0,0,0,0,0,0,0,0,0,0,0,17.8,17.8,53,53,53,35.2,0,0,0,0,0,0,0,0,0,0,0,0,0,0,0,0,0,0,0,0,0,0,17.9,17.9,17.9,17.9,17.9,17.9,0,0,0,0,0,0,0,0,0,0,0,0,0,0,0,0,0,0,0,0,0,0,0,0,0,0,0,0,0,0,0,0,0,0,0,0,0,0,0,0,0,0,0,0,0,0,0,0,0,0,0,0,0,0,88.6,88.4,88.4,177,221.5,221.3,221.1,176.7,176.5,43.8,0,0,0,0,0,0,0,0,0,0,21.9,0,0,0,0,0,0,0,0,0,0,0,0,0,0,0,0,0,0,0,0,0,0,0,0,0,0,0,0,0,0,0,0,0,0,0,0,0,0,0,0,0,0,0,0,0,0,0,0,0,0,0,0,0,0,0,0,0,0,0,0,0,0,0,0,0,0,0,0,0,0,0,0,0,0,0,0,0,0,0,0,0,0,0,0,0,0,0,0,0,0,0,0,0,0,0,0,0,0,0,0,0,0,0,0,0,0,0,0,0
0,0,0,0,0,0,0,0,0,0,0,0,0,0,0,0,0,0,0,0,0,0,0,0,6158.1,6553.5,6553.5,6553.5,6553.5,6553.5,0,2799.1,2565.9,2463.2,2368.5,2280.8,0,2123.5,0,0,0,0,0,0,0,0,0,0,0,0,0,0,0,0,0,0,0,0,0,0,0,0,0,0,0,0,0,0,0,0,0,0,0,0,0,0,0,0,0,0,0,0,0,0,0,0,0,0,0,0,0,0,0,0,0,0,0,0,0,0,0,0,0,0,0,0,0,0,0,0,0,0,0,0,0,0,0,0,0,0,0,0,0,0,0,0,0,0,0,0,0,0,0,0,0,0,0,17.6,17.6,35.1,52.7,70.2,122.9,140.5,140.5,140.4,158,158,158.1,158.1,158.1,158,157.9,157.9,157.9,157.9,157.8,157.5,139.9,122.4,157.4,139.9,157.3,139.8,122.4,139.7,139.8,104.7,104.7,104.7,87.3,52.5,87.3,87.4,87.3,104.6,122.2,139.8,139.8,139.9,139.8,139.8,122.4,139.9,122.1,122.4,104.7,122.1,139.5,104.4,104.7,87.3,69.7,52.2,69.5,87,34.8,69.6,52.3,69.4,69.3,104,86.6,86.8,104,103.9,104,86.9,86.9,86.9,104.6,87.2,52.2,69.7,86.9,69.7,86.9,86.9,104.3,121.7,139.1,139.1,139,156.4,139,156.4,156.3,156.3,156.1,156.1,156.1,138.8,156.1,156,155.7,155.7,155.7,155.7,155.7,155.7,155.7,155.6,155.5,155.4,155.3,155.3,155.4,155.4,155.5,138.2,155.5,138.2,155.7,155.9,104.2,87.1,104.5,87,87,104.7,87.1,69.8,52.4,69.4,52.2,52.2,104.7,104.7,86.9,121.7,121.8,104.3,86.9,104.2,104.2,139,121.5,121.4,121.4,121.5,104.1,104.3,121.6,121.8,121.8,121.8,121.8,139.3,104.5,87.2,87.2,87.2,121.8,121.6,86.9,69.6,86.9,103.9,121.3,121.2,103.8,86.4,103.7,51.9,52,69.2,86.3,69.2,86.5,86.5,86.5,69.2,86.6,86.6,86.6,86.6,86.6,86.7,86.7,86.6,86.6,86.6,86.5,86.5,103.6,86.3,103.6,69,103.5,120.8,103.5,86.3,86.3,103.5,120.6,120.7,138.2,138.1,138.1,138.1,120.9,138.1,103.6,120.8,120.9,138.1,120.7,120.8,120.7,120.7,103.4,137.9,137.9,155,155,155,137.9,137.9,137.9,86.1,86.1,68.9,51.6,51.6,51.7,34.4,17.2,0,0,0,0,0,0,0,0,0,0,0,0,0,0,0,0,0,0,0,0,0,0,0,0,0,0,0,0,0,0,0,0,0,0,0,0,0,17.9,17.9,17.9,17.9,0,0,0,0,0,0,0,0,0,0,0,0,0,0,0,0,0,0,0,0,0,0,0,0,0,0,0,0,0,0,0,0,0,0,0,0,0,0,0,0,0,0,0,0,0,0,0,0,0,0,0,0,0,0,0,0,0,0,88.6,132.7,177.3,221.6,221.7,221.7,221.5,132.7,88.5,132.3,132.2,44.1,0,0,0,0,0,0,0,21.9,21.9,21.9,21.9,0,0,0,0,0,0,0,0,0,0,0,0,0,0,0,0,0,0,0,0,0,0,0,0,0,0,0,0,0,0,0,0,0,0,0,0,0,0,0,0,0,0,0,0,0,0,0,0,0,0,0,0,0,0,0,0,0,0,0,0,0,0,0,0,0,0,0,0,0,0,0,0,0,0,0,0,0,0,0,0,0,0,0,0,0,0,0,0,0,0,0,0,0,0,0,0,0,0,0,0,0,0,0,0,0,0,0
0,0,0,0,0,0,0,0,0,0,0,0,0,0,0,0,0,0,0,0,0,0,0,0,6553.5,6553.5,6553.5,6553.5,6553.5,6553.5,6553.5,9352.6,2677.4,2463.2,2463.2,2368.5,2280.8,2199.3,2199.3,2123.5,0,0,0,0,0,0,0,0,0,0,0,0,0,0,0,0,0,0,0,0,0,0,0,0,0,0,0,0,0,0,0,0,0,0,0,0,0,0,0,0,0,0,0,0,0,0,0,0,0,0,0,0,0,0,0,0,0,0,0,0,0,0,0,0,0,0,0,0,0,0,0,0,0,0,0,0,0,0,0,0,0,0,0,0,0,0,0,0,0,0,0,0,0,0,0,0,0,0,0,35,52.6,52.6,87.7,122.9,122.9,122.8,122.8,158,158,140.5,140.4,140.4,140.4,157.9,157.9,140.3,140.3,140,122.6,104.9,139.7,122.2,104.7,122.1,87.3,121.9,121.9,121.9,104.5,104.5,87,86.9,87.2,87.2,104.5,87.2,87.2,104.5,104.6,122.2,122.2,122.2,104.6,87.2,139.5,139.5,139.5,139.4,121.8,121.8,121.6,86.7,69.5,52.1,52,52.1,69.5,52.1,69.2,69.1,69.1,86.4,68.9,86.4,103.8,103.7,103.7,103.7,86.5,86.7,103.7,104.2,86.7,86.8,86.8,86.8,86.9,86.9,86.9,121.4,121.4,138.8,156.2,138.9,156.2,121.6,138.9,156.2,156,156,138.6,155.8,155.7,155.5,155.5,155.5,155.5,155.4,155.1,155.1,155,155,154.9,154.9,154.9,154.9,154.8,154.8,154.8,154.9,137.6,137.7,137.8,120.8,69.2,51.8,69.2,69.5,52.4,69.3,69.3,69.3,52.1,69.3,34.7,51.9,69.2,86.6,86.6,103.9,86.6,86.7,103.9,86.4,103.5,103.5,138.2,138.1,120.9,103.7,103.7,103.7,103.8,103.8,69.5,69.6,69.6,69.6,69.6,69.6,87.1,104.3,104,86.8,86.7,86.6,86.7,103.8,86.4,103.7,103.5,120.7,103.5,86.2,86,86,86.2,120.7,120.8,103.5,86.6,69.2,86.5,69.3,52,86.6,86.6,86.4,86.4,86.5,86.4,86.4,103.5,103.4,103.4,120.6,86,103.3,120.6,120.5,137.6,137.5,120.4,137.6,137.6,120.4,137.7,137.7,137.7,137.7,120.5,137.7,120.5,137.7,137.7,137.7,137.7,120.4,103.2,120.5,137.7,137.7,137.7,137.8,137.6,154.8,137.7,137.7,120.4,103.2,68.9,51.6,51.6,51.6,34.4,34.4,34.4,17.2,0,18.4,0,0,0,0,0,0,0,0,0,0,0,0,0,0,0,0,0,0,0,0,0,0,0,0,0,0,0,0,0,0,0,0,0,0,0,0,0,0,0,0,0,0,0,0,0,0,0,0,0,0,0,0,0,0,0,0,0,0,0,0,0,0,0,0,0,0,15.5,0,0,0,0,0,0,0,0,0,0,0,0,0,0,0,0,0,0,0,0,0,0,0,0,0,0,0,0,0,88.8,132.9,177.5,221.8,221.9,266.8,221.9,177.3,177.2,132.5,88.3,44.1,44.1,0,0,0,0,0,21.9,21.9,21.9,21.9,21.9,0,0,0,0,0,0,0,0,0,0,0,0,0,0,0,0,0,0,0,0,0,0,0,0,0,0,0,0,0,0,0,0,0,0,0,0,0,0,0,0,0,0,0,0,0,0,0,0,0,0,0,0,0,0,0,0,0,0,0,0,0,0,0,0,0,0,0,0,0,0,0,0,0,0,0,0,0,0,0,0,0,0,0,0,0,0,0,0,0,0,0,0,0,0,0,0,0,0,0,0,0,0,0,0,0,0,0
0,0,0,0,0,0,0,0,0,0,0,0,0,0,0,0,0,0,0,0,0,0,0,0,0,6553.5,6553.5,19265.1,19265.1,19265.1,13107,9352.6,2677.4,2565.9,2463.2,2463.2,2368.5,2280.8,2280.8,2199.3,0,0,0,0,0,0,0,0,0,0,0,0,0,0,0,0,0,0,0,0,0,0,0,0,0,0,0,0,0,0,0,0,0,0,0,0,0,0,0,0,0,0,0,0,0,0,0,0,0,0,0,0,0,0,0,0,0,0,0,0,0,0,0,0,0,0,0,0,0,0,0,0,0,0,0,0,0,0,0,0,0,0,0,0,0,0,0,0,0,0,0,0,0,0,0,0,0,0,0,17.6,35,87.7,52.6,52.6,87.7,87.7,87.7,87.7,122.9,140.4,157.9,122.8,105.2,105.3,140.2,105.1,105,104.8,69.8,34.7,34.7,52.2,86.9,52.1,69.5,69.5,104.3,87,86.9,86.9,86.9,69.7,69.7,52.3,86.9,52.5,52.5,86.9,104.4,104.4,87.1,69.5,87,104.5,87.1,139.2,121.7,121.7,104.2,103.9,86.5,86.5,86.4,69,34.4,34.5,17.3,34.3,51.6,34.5,51.6,17.3,51.5,51.5,85.9,85.9,85.9,103.5,103.5,103.5,51.8,69.1,69.2,86.7,69.3,69.3,86.8,86.8,86.8,104.1,156.2,138.7,138.8,138.9,121.6,121.4,121.2,138.4,138.4,138.3,138.3,138.1,155.3,138,138,155.2,155.1,155.1,155,154.9,154.9,154.9,154.9,154.8,154.7,154.7,154.6,154.5,154.5,154.5,137.3,137.3,137.3,120.4,68.8,51.7,86.6,69.5,34.6,51.8,69.2,69.1,69.1,69.2,51.9,69.1,51.7,34.4,68.9,86.2,103.3,103.4,103.3,86,68.5,68.6,85.7,85.8,103,103.1,120.2,68.6,85.8,51.3,86.2,52,52,52.1,86.6,69.3,69.4,103.8,121,86.3,103.5,120.8,86.2,86.2,68.9,86.1,86.1,103.3,86,103.4,86.1,103.2,103.2,120.4,120.4,120.7,86.3,69.1,86.3,69.2,86.4,86.4,69,86.3,103.7,103.7,86.2,103.2,103.1,103,120.3,103,103,137.3,120.2,137.2,137.2,154.3,154.4,137.2,120,120.1,137.3,120.1,137.3,120.1,137.3,137.3,137.2,120,137.1,119.9,120.1,137.2,137,120,137.2,137.2,154.4,154.4,154.5,154.5,154.5,154.6,137.5,120.3,85.9,68.8,68.8,51.5,51.6,34.3,17.1,17.1,17.1,18.4,0,0,0,0,0,0,0,0,0,0,0,0,0,0,0,0,0,0,0,0,0,0,0,0,0,0,0,0,0,0,0,0,0,0,0,0,0,0,0,0,0,0,0,0,0,0,0,0,0,0,0,0,0,0,0,0,0,0,0,0,0,0,0,0,0,0,0,15.5,0,0,0,15.5,15.5,15.5,15.5,31.1,0,0,0,0,0,0,0,0,0,0,0,0,0,0,0,0,0,0,0,44.5,44.4,88.7,133.2,222.3,267.1,222.4,267.2,222.2,177.8,88.4,132.7,88.4,88.2,0,0,0,0,0,21.9,21.9,21.9,21.9,21.9,22,22,0,0,0,0,0,0,0,0,0,0,0,0,0,0,0,0,0,0,0,0,0,0,0,0,0,0,0,0,0,0,0,0,0,0,0,0,0,0,0,0,0,0,0,0,0,0,0,0,0,0,0,0,0,0,0,0,0,0,0,0,0,0,0,0,0,0,0,0,0,0,0,0,0,0,0,0,0,0,0,0,0,0,0,0,0,0,0,0,0,0,0,0,0,0,0,0,0,0,0,0,0,0,0,0,0
0,0,0,0,0,0,0,0,0,0,0,0,0,0,0,0,0,0,0,0,0,0,0,0,12711.6,19265.1,18705.3,18705.3,18705.3,18705.3,12151.8,9485.9,9352.6,0,2565.9,2463.2,2368.5,2368.5,2368.5,2280.8,0,0,0,0,0,0,0,0,0,0,0,0,0,0,0,0,0,0,0,0,0,0,0,0,0,0,0,0,0,0,0,0,0,0,0,0,0,0,0,0,0,0,0,0,0,0,0,0,0,0,0,0,0,0,0,0,0,0,0,0,0,0,0,0,0,0,0,0,0,0,0,0,0,0,0,0,0,0,0,0,0,0,0,0,0,0,0,0,0,0,0,0,0,0,0,0,0,0,0,0,0,0,52.6,70,52.5,70.1,87.7,87.6,70,105.1,105.2,87.7,87.7,87.6,34.8,34.7,17.3,17.3,34.8,52.3,52.3,69.7,69.6,69.6,87,34.6,34.7,34.7,34.6,34.6,52.1,69.2,86.6,69.3,52.1,69.6,86.8,86.6,86.7,69.3,69.5,69.4,86.9,86.8,103.9,103.9,103.9,86.6,86.6,86.4,51.9,51.7,51.7,51.3,51.3,34.2,51.2,51.2,34.2,34.5,17.2,34.2,34.1,68.6,68.6,68.6,68.6,68.6,68.6,68.7,68.8,51.8,68.8,69.3,69.3,69.3,104,86.6,104,103.9,121.3,138.7,138.4,121.1,121.2,138.4,121,138.4,138.4,138.1,138,120.7,137.9,137.8,137.8,155,154.9,154.9,137.6,137.6,154.7,154.5,154.4,154.3,154.3,154.2,154.3,154.2,154.3,137.1,137.2,137.3,120.1,102.8,85.8,68.8,34.5,34.5,34.5,51.7,51.8,86,51.7,103.1,103.1,86,34.4,17.1,68.7,51.5,102.7,136.8,136.9,102.8,102.7,68.5,102.7,85.5,119.8,119.8,119.8,136.9,102.8,119.9,85.7,103.1,86.1,69,69,69,86.1,85.9,85.9,85.9,85.9,85.9,137.4,86,85.9,120.2,68.8,85.6,102.9,103.1,120.2,86,103.1,120.2,120.3,86.1,68.9,86.2,69,69,86.2,86.1,86.1,68.9,86,86,68.7,102.8,102.8,85.6,68.4,119.6,136.8,136.8,119.7,136.7,136.8,153.7,136.9,154,102.7,102.7,119.7,136.8,136.8,136.9,154,153.9,102.6,119.7,136.9,136.9,119.7,119.7,136.7,136.7,136.7,136.8,136.8,136.8,154,136.8,154,154,137,85.5,102.7,68.4,68.4,68.5,51.3,51.5,51.5,35.5,18.4,18.4,18.4,0,0,0,0,0,0,0,0,0,0,135.3,135.3,135.9,135.9,0,0,0,0,0,0,0,0,0,0,0,0,0,0,0,0,0,0,0,0,0,0,0,0,0,0,0,0,0,0,0,0,0,0,0,0,0,0,0,0,0,0,0,0,0,0,0,0,15.5,0,31,31,31,31,15.5,15.5,31.1,31.1,31.1,31.1,31.1,15.5,0,0,0,0,0,0,0,0,0,0,0,0,0,0,0,0,0,0,0,44.5,133.6,222.9,222.9,267.6,267.8,267.6,222.7,178,178,88.4,133.2,133.1,0,0,0,0,0,21.9,21.9,22,22,22,22,22,0,0,0,0,0,0,0,0,0,0,0,0,0,0,0,0,0,0,0,0,0,0,0,0,0,0,0,0,0,0,0,0,0,0,0,0,0,0,0,0,0,0,0,0,0,0,0,0,0,0,0,0,0,0,0,0,0,0,0,0,0,0,0,0,0,0,0,0,0,0,0,0,0,0,0,0,0,0,0,0,0,0,0,0,0,0,0,0,0,0,0,0,0,0,0,0,0,0,0,0,0,0,0,0,0
0,0,0,0,0,0,0,0,0,0,0,0,0,0,0,0,0,0,0,0,0,0,0,0,11685.3,11685.3,18705.3,18238.8,18238.8,13107,6553.5,9485.9,6553.5,5598.3,2565.9,2565.9,2463.2,2368.5,2368.5,2280.8,0,0,0,0,0,0,0,0,0,0,0,0,0,0,0,0,0,0,0,0,0,0,0,0,0,0,0,0,0,0,0,0,0,0,0,0,0,0,0,0,0,0,0,0,0,0,0,0,0,0,0,0,0,0,0,0,0,0,0,0,0,0,0,0,0,0,0,0,0,0,0,0,0,0,0,0,0,0,0,0,0,0,0,0,0,0,0,0,0,0,0,0,0,0,0,0,0,0,0,0,0,0,17.4,34.8,17.6,52.5,70,52.5,70,52.5,52.5,52.4,52.4,52.3,34.7,52.3,34.7,34.7,34.7,52.3,52.3,52.2,52.2,52.2,34.6,34.6,34.5,17.2,17.2,34.7,52.1,52.1,69.2,86.6,86.7,69.1,69.1,86.6,86.6,86.6,51.7,51.9,86.8,86.5,86.5,103.9,86.5,86.6,69.1,51.7,34.4,68.9,68.6,51.2,34.2,51.2,68.4,68.3,68.2,17,17,68.4,51.2,51.4,51.3,68.5,85.7,85.7,102.9,68.6,51.5,68.7,68.8,51.8,69.3,69.3,69.3,86.6,103.9,121.1,103.7,86.4,121.1,121.1,138.2,120.9,120.8,137.9,137.9,137.8,120.5,120.5,154.8,154.8,154.8,154.8,154.6,154.5,137.3,154.3,154.3,154.2,154.1,154.1,154.1,154,154,154,153.9,153.8,153.7,153.7,136.7,102.5,119.7,85.7,51.4,68.6,34.4,68.7,51.6,34.4,68.6,85.8,85.6,68.6,51.2,17.1,68.4,68.2,102.3,136.3,136.2,102.2,102.2,136.3,153.4,136.3,136.2,119.3,119.2,119.3,119.3,136.4,136.4,102.4,68.3,85.6,51.7,51.6,68.7,68.4,85.8,103,136.8,153.9,153.9,102.8,137,102.9,119.9,85.4,137,120.1,102.7,68.5,85.8,102.9,102.9,68.7,68.7,51.6,51.6,68.8,68.7,51.5,85.8,68.7,68.5,85.7,102.7,85.5,102.5,102.5,119.4,153.6,136.5,136.4,136.5,136.5,153.4,153.4,136.4,102.2,136.6,119.5,119.6,119.6,136.5,153.7,153.6,136.7,102.5,136.6,136.7,136.6,136.6,136.6,136.5,136.5,136.5,136.5,136.6,136.7,153.8,136.7,136.7,153.8,136.8,102.6,68.4,68.4,68.4,68.4,51.3,51.3,51.3,52.7,18.4,18.4,0,0,0,0,0,0,0,0,134.8,134.5,134.8,269.6,270,270.6,271.2,135.6,0,0,0,0,0,0,0,0,0,0,0,0,0,0,0,0,0,0,0,0,0,0,0,0,0,0,0,0,0,0,0,0,0,0,0,0,0,0,0,0,0,0,0,0,0,0,0,0,0,0,15.5,15.5,15.5,31,15.5,31.1,31.1,31.1,31.1,31.1,31.1,0,0,0,0,0,0,0,0,0,0,0,0,0,0,0,0,0,0,0,44.5,134,178.6,223.1,223.2,268.2,223.1,222.7,222.7,222.7,177.8,133.2,133.2,44.7,0,0,0,0,0,22,22,22,22,22,22,0,0,0,0,0,0,0,0,0,0,0,0,0,0,0,0,0,0,0,0,0,0,0,0,0,0,0,0,0,0,0,0,0,0,0,0,0,0,0,0,0,0,0,0,0,0,0,0,0,0,0,0,0,0,0,0,0,0,0,0,0,0,0,0,0,0,0,0,0,0,0,0,0,0,0,0,0,0,0,0,0,0,0,0,0,0,0,0,0,0,0,0,0,0,0,0,0,0,0,0,0,0,0,0,0
0,0,0,0,0,0,0,0,0,0,0,0,0,0,0,0,0,0,0,0,0,0,0,0,11290.5,11290.5,11685.3,11290.5,21692.8,13107,13107,13107,6553.5,5598.3,2677.4,2565.9,2463.2,2368.5,2368.5,2280.8,0,0,0,0,0,0,0,0,0,0,0,0,0,0,0,0,0,0,0,0,0,0,0,0,0,0,0,0,0,0,0,0,0,0,0,0,0,0,0,0,0,0,0,0,0,0,0,0,0,0,0,0,0,0,0,0,0,0,0,0,0,0,0,0,0,0,0,0,0,0,0,0,0,0,0,0,0,0,0,0,0,0,0,0,0,0,0,0,0,0,0,0,0,0,0,0,0,0,0,0,0,0,0,0,0,17.6,17.6,17.5,34.8,34.8,34.8,34.8,17.3,52.3,34.7,17.3,34.7,34.7,17.3,17.3,35,35,35,35,52.3,52.3,34.9,34.8,34.8,34.8,52.1,69.2,69.1,69.1,69.1,69,69.1,69.1,69.1,86.6,86.6,52,69.2,86.3,103.7,103.7,86.3,86.4,51.7,34.2,17.1,34.1,34,34,68.4,68.2,68.2,51.2,34.1,34.1,34.1,34.1,34.1,34.1,51.4,51.4,85.6,102.7,102.7,68.6,51.5,68.7,68.7,69,69,69.1,69.1,86.3,103.9,103.9,86.4,86.5,69.2,121,137.9,137.9,137.8,120.4,120.4,103.1,103,120.1,137.4,154.7,154.6,154.4,120.1,137.2,154.2,154,154,154,154,153.9,153.9,153.8,153.6,153.6,153.6,153.5,153.5,153.5,153.5,119.4,119.4,119.4,85.4,34.1,51.4,34.4,51.5,51.4,51.4,85.3,102.2,102.2,50.9,34,51,118.9,135.9,135.9,135.9,152.9,135.8,152.9,153,153,153,153,136.1,119,119.1,136.1,136.3,136.2,119.1,68.2,85.2,68.3,68.2,85.4,119.2,119,136.1,153.4,153.5,136.7,119.4,85.4,102.6,119.9,119.8,136.7,51.2,68.3,85.7,85.7,85.7,51.5,68.6,51.6,51.6,34.3,34.3,34.1,68.5,34.3,68.3,68.3,102.4,68.2,102.3,136.3,136.3,153.4,153.3,136.3,136.2,153.2,153.2,153.2,153.2,153.1,136.1,136.1,119,153.2,153.1,153.1,153.1,136.2,119,136.1,136,136.1,136,153,153.2,153.3,136.3,153.4,153.3,153.3,153.3,136.2,136.2,153.8,136.7,102.6,102.6,68.4,68.4,68.4,51.3,51.3,34.2,52.6,35.5,18.4,18.4,18.4,18.4,0,0,0,0,0,133.9,133.9,268.1,536.2,537.7,404.5,405.1,270.6,0,0,0,0,0,0,0,0,0,0,0,0,0,0,0,0,0,0,0,0,0,0,0,0,0,0,0,0,0,0,0,0,0,0,0,0,0,0,0,0,0,0,0,0,0,0,0,0,0,0,15.5,15.5,0,0,15.5,31.1,31.1,31.1,15.5,15.5,31.1,0,0,0,0,0,0,0,0,0,0,0,0,0,0,0,0,0,0,0,0,44.6,134,178.6,133.9,223.2,223.1,178.1,178,222.7,133.2,133.2,133.2,88.9,44.6,0,0,0,0,0,22,22,22,22,22,0,0,0,0,0,0,0,0,0,0,0,0,0,0,0,0,0,0,0,0,0,0,0,0,0,0,0,0,0,0,0,0,0,0,0,0,0,0,0,0,0,0,0,0,0,0,0,0,0,0,0,0,0,0,0,0,0,0,0,0,0,0,0,0,0,0,0,0,0,0,0,0,0,0,0,0,0,0,0,0,0,0,0,0,0,0,0,0,0,0,0,0,0,0,0,0,0,0,0,0,0,0,0,0,0
0,0,0,0,0,0,0,0,0,0,0,0,0,0,0,0,0,0,0,0,0,0,0,0,10952.2,10952.2,17505.7,23765.9,23765.9,23282.9,18991.4,16528.2,6553.5,5598.3,2799.1,2677.4,2565.9,2565.9,0,0,0,0,0,0,0,0,0,0,0,0,0,0,0,0,0,0,0,0,0,0,0,0,0,0,0,0,0,0,0,0,0,0,0,0,0,0,0,0,0,0,0,0,0,0,0,0,0,0,0,0,0,0,0,0,0,0,0,0,0,0,0,0,0,0,0,0,0,0,0,0,0,0,0,0,0,0,0,0,0,0,0,0,0,0,0,0,0,0,0,0,0,0,0,0,0,0,0,0,0,0,0,0,0,0,0,0,0,0,17.3,0,0,0,17.3,0,0,0,0,0,17.3,17.3,0,35.1,17.8,17.8,17.8,35,35,34.9,17.2,34.8,51.7,51.7,51.7,69.1,69.1,51.6,51.6,51.6,51.7,86.6,86.6,86.5,86.5,86.5,69.1,51.7,86.2,51.5,51.4,34.1,34,34,34,68.2,51.2,51.1,68,33.9,51,50.9,50.9,33.9,33.9,33.9,33.9,50.9,85.4,68.1,102.5,68.6,68.7,68.7,51.5,69,69,69,69.1,86.2,69.1,69.1,86.4,69.2,103.7,103.6,137.7,120.4,120.4,120.3,120,120,120,120,120,120,154.2,154.1,154,154.1,154,154,154,154,153.6,153.5,153.5,153.5,153.5,153.4,153.4,153.4,136.3,153.4,153.2,136,101.9,101.9,102,85,33.9,17,17.3,34,68.3,102.1,118.9,102,101.5,101.5,118.4,118.4,135.4,152.4,152.6,152.5,152.5,152.5,152.4,152.4,152.4,152.4,152.4,135.5,135.6,118.7,118.9,118.9,101.9,118.9,101.8,84.9,101.9,118.8,118.9,135.8,118.6,135.7,135.7,67.9,119,102,102,85.1,119.3,68.2,51,85.1,68.1,51.2,51.4,34.4,34.4,51.4,51.4,34.4,51.3,51.3,68.2,68.2,68.2,51.2,85.2,85.2,136.2,136.2,136.1,153.2,136.1,136.1,136,136,153,153,153,153,153,136,119,136,152.9,136,152.8,135.9,119,136,136,136,136,153,153,136,136,153.1,153.1,153.1,153.2,136.1,136.1,136.3,119.2,102.2,102.2,68.3,68.4,68.4,51.3,51.3,51.3,52.6,35.5,18.4,18.4,18.4,18.4,18.4,0,0,0,133.6,266.9,266.9,533.8,667.7,670.1,671.6,539.5,404.5,405.1,0,0,0,0,0,0,0,0,0,0,0,0,0,0,0,0,0,0,0,0,0,0,0,0,0,0,0,0,0,0,0,0,0,0,0,0,0,0,0,0,0,0,0,0,0,0,0,0,0,15.5,15.5,15.5,15.5,15.5,31.1,31.1,31.1,15.5,0,0,0,0,0,0,15.6,0,0,0,0,0,0,0,0,0,0,0,0,0,0,0,0,44.7,89.4,223.5,223.5,178.9,223,222.9,133.4,133.2,133.2,133.2,88.9,0,0,0,0,0,0,0,22,22,22,22,0,0,0,0,0,0,0,0,0,0,0,0,0,0,0,0,0,0,0,0,0,0,0,0,0,0,0,0,0,0,0,0,0,0,0,0,0,0,0,0,0,0,0,0,0,0,0,0,0,0,0,0,0,0,0,0,0,0,0,0,0,0,0,0,0,0,0,0,0,0,0,0,0,0,0,0,0,0,0,0,0,0,0,0,0,0,0,0,0,0,0,0,0,0,0,0,0,0,0,0,0,0,0,0,0
