4801.2,4816.6,4824.1,4840.1,4852.3,4860.8,4850,4846.9,4836.3,4833,4833,4836.2,4835.9,4839,4838.5,4845.1,4848.3,4856.1,4862.7,4870.5,4870,4892.9,4905.1,4924.2,4940.3,4956.7,4968.2,4980.7,4996.4,4996.7,4992.8,4992.5,4980.3,4976.3,4967.9,4955.9,4951.8,4943.7,4939.8,4935.7,4916.2,4920.1,4916.5,4913.4,4901.4,4889.5,4870.4,4888.8,4899.9,4915.2,4934.5,4954.1,4982.4,4994.7,5023.4,5064.8,5085.7,5119.3,5136.8,5158.7,5134.3,5131.2,5149.6,5144.1,5136.9,5134.9,5097.8,5079.9,5044.4,5040.6,5030.8,5017.3,5012.4,5000.1,4999.5,5002.8,5002.8,5018.1,5038.5,5063.4,5076.1,5101.3,5130.2,5155,5181.3,5194.2,5226,5262,5284.9,5313.4,5328.4,5340.5,5357.2,5372.2,5377.7,5372.7,5369.5,5355.3,5355.3,5352.3,5346.7,5344.1,5348.9,5348.4,5362.8,5377.2,5387.1,5382.4,5409.9,5430.6,5445.1,4951.9,4455.2,4460.4,4465.9,4470.1,4477.8,4477.8,4472.1,4472.1,4464.1,3962,3956.4,3951.4,4461.8,3915.6,3905.6,3905.6,4445.6,5006.1,4432,4962.4,4943.1,4374.7,4891.8,4873.2,5356.5,4770.6,4704.7,4649.8,4600.2,4548.7,4514.2,4906.9,4881.2,4866.2,4852.3,4837.3,4825.3,4809.1,4799.7,4782.8,4770,4750.1,4739.8,4724,4700.4,4688.8,4680.9,4676.6,4652.2,4634.5,4621.3,4600.7,4595.2,4578.8,4566.9,4557.8,4135.1,4554.3,4536.1,4535,4524.6,4507.7,4497.8,4067.7,4458.1,4426.6,4406,4378.3,4347.9,4311,4277,4241,4193.6,4155.8,4113.8,4091.4,4066.5,4056.1,4037.3,4030.4,4025.5,4029.7,4022.7,4029.6,4032.9,4031.5,4029.1,4018.1,4017.4,4022.1,4021.2,4025.5,4034.5,4038.3,4048.2,4068.3,4086.6,4107.7,4130.2,4135.9,4142.7,3726.9,3713.9,3274,3696.2,4061.9,4022.6,3632.1,3981.8,3962.3,3951.8,3942.4,3928.6,3915.9,3905.5,3903.7,3896.8,3550.3,3549.3,3888.2,3868.5,3857.7,3847.2,3837.2,3812,3789.5,3450.6,3759.2,3761.6,3763.5,3764,3765,3425.9,3757.2,3744.2,3397.5,3722.7,3362,2963.7,3312.9,3292.7,3581.7,3554.8,3242.1,3230.4,3223.1,3506.1,3116.3,3092.5,3427.2,3121.5,3104.5,3093.5,3058,2739.7,2437.1,2154.2,2096.9,2109.1,2176.8,2182,2187.2,2189.3,2189.1,1796,1790.1,3112.6,3462.2,3444.3,3422.4,3051,3031.1,3008.3,3325.2,3307.1,3292.8,2939.7,2924.6,2910.4,3232.2,3224.8,2898.3,2897.8,2898.9,3218.3,2613.2,2604.5,3199.8,2860,2838.2,3142.2,3128.8,3117.2,3101.5,3085.2,2481.5,2474.9,2782.8,2782.5,2780.4,2472,3064.6,3060.6,2755.8,3061.1,3072,3078,3085.5,2817.6,2811,3074.5,3062.1,2743.3,2446,2699.4,2977.4,2956.9,2940.7,2921.1,2902.8,2884.3,2864.3,2836.1,2805.2,2225.9,2215.9,2751.3,2734.8,2714.7,2712.3,2703.8,2709.4,2707.8,2711.3,2704.9,2698.9,2689.9,2685.3,2667.8,2656.9,2640.1,2621.5,2606.1,2590.8,2576.3,2561.7,2547.7,2531.7,2512,2492.3,2472,2455.3,2443.1,2433.8,2422.8,2418.1,2409.4,2405.8,2399.2,2397.3,2393.6,2388,1181.6,0,0,0,0,0,0,0,0,221.5,664.5,1102.1,1096.5,1089.6,1082.6,2130.7,2126.1,2120.8,2114.7,2109.8,2101.3,2095.2,2095.2,2090.9,2088.2,2082,2076.6,2069.2,2062.8,2055,2046.7,2039.9,2035.2,2031,2024.9,2019.7,2010.5,2003.8,1996,1989.7,1981.1,1975.5,1968.2,1964.1,1959.2,1958,1955,1950.8,1946.6,1939.6,1937,1931.6,1927.5,1924.1,1917.4,1915.9,1915.1,1916.2,1918,1918.6,1918,1918.5,1919,1920.1,1920.7,1920.1,1920.1,1921.3,1921.9,1921.3,1921.3,1921.3,1918.9,1917.2,1919,1919.5,1917.8,1918.5,1918,1916.2,1915,1914.9,1916,1916,1917.2,1726.6,1727.8,1729,1730.1,1730.7,1731.3,1731.9,1732,1731.4,1729.1,1727.3,1726,1725.4,1724.3,1723.6,1721.8,1721.7,1722.3
4779.2,4794,4809.5,4832.9,4845.4,4853.5,4854.9,4851.2,4844,4837,4841.1,4848.4,4848.7,4843.9,4843.6,4846,4860.7,4867.5,4867.2,4878.6,4889.8,4905.1,4924.5,4940.1,4956.3,4968.6,4984.7,4992.4,5000.8,5000.8,5000.5,4996.6,4992.1,4992.3,4980.3,4971.9,4963.4,4955.5,4951.7,4947.7,4947.7,4947.6,4931.8,4924.2,4912.8,4897,4889.1,4904,4911.5,4915.3,4942.6,4958.2,4974.2,4994.7,5023.4,5060.3,5076.9,5110.9,5128.4,5133.1,5130,5131.6,5137.2,5135.9,5147.7,5140.4,5117.8,5084.6,5073.7,5069.4,5060.6,5051,5038.5,5021.3,5013.1,5020.7,5020.7,5036.5,5057,5090,5102.5,5135.9,5164.8,5194.5,5190.1,5212.2,5244.1,5266.8,5285.4,5308.8,5323.4,5320.3,5332.3,5346.8,5348,5348.9,5343.9,5340.3,5330,5318.4,5318.4,5319.3,5324.3,5325.3,5339.9,5341.5,5355.3,5360.8,5380.1,5403.7,5414.5,4930.6,4431.7,4437.7,4443.2,3931,3929.5,3929.5,3915.6,4440.3,4437.1,4440.2,3936.3,3935.9,4438.6,3365.8,3345.9,3895.4,4421,4976.6,4962,4937.5,4923.4,4910.2,4858.1,4835.3,5333.6,4748,4691.2,4645.1,4583.2,4536,4498.4,4892.5,4874.6,4855.9,4844.7,4832.6,4825,4800.4,4795.3,4778,4761.9,4753.6,4729.4,4720.8,4708.5,4693.4,4685.5,4673.8,4655.6,4641.9,4617.1,4610.6,4601,4581.4,4572.3,4559.5,4133.8,4545.7,4542.1,4122.1,4527,4521,4084.8,4488,4467.7,4439.5,4427.9,4390.1,4349.9,3934.5,4293.8,4250.4,4203.2,4162.2,4122.7,4089.4,4070.5,4059.6,4041.2,4037,4029.3,4039.1,4029.6,4038.9,4039.4,4032.8,4025,4019.4,4020.8,4020.2,4022.1,4028.9,4035.6,4040,4044.5,4067.7,4088.7,4107.4,4126.9,4127.9,4140,3716.4,3711.4,3702.3,4093.7,4065.4,4029.8,3632.6,3992.8,3972.3,3960.4,3952.3,3931.8,3918.5,3912.8,3906.9,3897.9,3540.1,3540.5,3894.9,3876.5,3866.9,3857.9,3843.3,3818,3795.2,3446.4,3772.1,3774,3779.4,3438.3,3439,3436.7,3420.9,3410.5,3402.5,3386.7,3707,3336.9,3315,3288.8,3589,3567.3,3234,3226,3216.6,3509.4,3491.9,3469.2,3435.5,3116.6,3102.4,3091.5,3068.6,2754.4,2455,2154.2,2161.3,2170.5,2173.9,2177.6,2180.9,2187,2180,2167,2102.3,3144.7,3482.1,3466,3441.9,3418.8,3389,3366.1,3342.8,3325.1,3307.1,3279.3,3262.5,3252.3,3244.4,3231.8,3231,3232.5,3229.9,3228.9,2935.2,2926.9,3207.2,3181.7,3159.6,3145,3131.6,2796.1,3101.6,3088.2,2785.3,2777.2,2773.7,2461,2772.9,2770.9,2775.5,3065.1,2759,2760.7,2773,3079.7,3087.5,3092.3,2806.7,2795.3,2755.4,3039.2,3020,2714.5,2977.4,2958.5,2940.5,2922.6,2904.4,2597,2581,2834,2807.2,2230.6,2225.7,2757.5,2736.9,2721.7,2717,2709.7,2708,2714.9,2712.2,2710.8,2703.8,2692.1,2686.5,2671.1,2659.9,2641.3,2623.7,2606.1,2589.9,2576.4,2562.7,2546.8,2528.7,2511.1,2489.4,2472.1,2453.1,2443.1,2432.9,2422.8,2420.1,2410.3,2407.6,2401.9,2398.3,2393.6,2384.2,1179.9,0,0,0,0,0,0,0,0,221.5,443.8,1102.9,1096.5,1088,1081.8,2126.8,2121.7,2116.3,2112.6,2106.9,2096.7,2093.1,2092.3,2088.8,2085.3,2081.3,2074.5,2067.8,2061.4,2053.6,2046.7,2039.9,2034.6,2030.3,2024.9,2017.8,2009.1,2002.5,1995.5,1988.8,1981.8,1976.2,1970,1965.4,1959.8,1959.2,1956.2,1952.6,1947.2,1942.1,1937.7,1934.6,1928.7,1926.4,1922.4,1918.9,1918.7,1919.3,1919.3,1919.9,1920.9,1920.9,1920.8,1921.3,1921.3,1921.4,1920.7,1920.7,1922,1920.7,1920,1919.5,1918.9,1917.7,1917.7,1917.7,1917.2,1917.3,1916.8,1915,1914.4,1914.4,1915.4,1914.4,1915.5,1724.1,1725.5,1726.7,1727.8,1727.8,1729.1,1729.1,1729.7,1729.1,1728.6,1728.5,1727.4,1725.6,1724.9,1723.6,1723,1721.8,1720.8
4753.4,4772.4,4791.2,4814.3,4838.2,4843.4,4844.4,4840.7,4845,4838,4845,4841.6,4849,4848.6,4859.3,4858,4868.6,4871.1,4882.8,4893.8,4901.6,4917.2,4932.9,4956.3,4968.5,4984.6,4992.8,5017,5012.9,5016.6,5016.6,5008.5,5000.5,4992.1,4992.1,4979.6,4979.6,4971.4,4967.2,4963.2,4959.2,4959.1,4963.2,4943.9,4928,4904.7,4900.9,4908.2,4911.7,4919.5,4926.7,4954.2,4966.3,4994.8,5023.4,5064.6,5081.2,5106.8,5137,5146.3,5143,5139.9,5145.2,5151.6,5141.1,5133,5125.6,5098.3,5098.3,5085.8,5077,5059.1,5058.6,5058.7,5054.5,5054.4,5045.7,5061.6,5073.5,5098,5127.6,5148.6,5173.8,5212.4,5203.6,5217,5243.8,5257.9,5276.3,5294.9,5304.5,5301.8,5311.6,5313.4,5323.2,5323.8,5315,5310,5297,5294,5285.2,5278.4,5283.4,5301.6,5307.8,5305,5325.6,5343.9,5354.2,5379,5384,4904.7,4428,4438.7,3911.6,3911.4,3904.8,3899.8,3894.6,3884.6,3396.9,3391.6,3376.5,3910.4,3355.6,3341,3335.8,3320.6,3300.7,4366.8,4923.1,4904.1,4894.7,4818.8,5366.6,4769.3,4729,4685.7,3645.9,4110.6,4070,4041.1,4451.5,4892.8,4863.5,4849,4840.9,4825.7,4812.8,4799.8,4790.5,4778,4761.3,4749.2,4733.2,4717.6,4705.7,4697.6,4689.5,4674.8,4664,4638.7,4624.7,4607.4,4600.6,4584.1,4567.8,4558,4551.1,4547.9,4550.3,4542.9,4536.9,4527.4,4517.8,4500.9,4484.6,4465.2,4440.1,4411.8,4384,4339.2,4307.1,4264.3,4218.8,4178.4,4135.3,4096.4,4077.2,4063.9,4045.5,4041,4036.2,4040.1,4041.6,4042.5,4041.1,4042.3,4034.1,4025.7,4030.1,4029.6,4026.2,4033.2,4029.6,4039.2,4051.5,4067.3,4088.2,4104.3,4121.4,4130.6,4134,4132.8,4125.1,4119.3,4094.3,4074,4037.7,4013.5,4002.1,3983.6,3972.2,3963.9,3939.7,3928.7,3918.5,3918.6,3911.7,3902.4,3907.1,3900,3888.9,3509.6,3501.5,3495.5,3825,3809.5,3445.1,3432.5,3790.5,3798.4,3439.4,3442.1,3804.2,3428.8,3415.7,3402.1,3391.8,3366.7,3685.9,3659.6,3618.9,3597.7,3573,3232.2,2827.7,2820.4,3517.3,3116.7,3473.4,3447.5,2740.8,2731.1,3096.1,3082.5,3389.4,3086.7,2768.7,2470,2482.4,2489.1,2493.6,2176.5,1822.3,1828.1,2157.6,2142.1,3160.8,3158.4,3485.6,3121.8,3097.7,3073.9,3052.2,3028.6,3007.3,3326,3298,3279.6,3264.7,3255.4,2917.5,2911,2912.8,3241.9,2914.6,2611.3,2606.3,3215.9,3191.7,3170.5,3150.9,3134.3,3121.4,3105.4,3092.2,2782.1,2772.3,3080.1,3080,2769.5,2770.8,2776.9,2486.5,2777.1,3070.4,3078.1,3085.9,3095.2,3098.5,3093.6,2495.2,2772.9,3043.6,3023.2,2708.6,2694.7,2967.4,2946.8,2928.6,2914.1,2901.6,2589.5,2847.5,2821.5,2528.1,2780.4,2762,2747.8,2731.3,2724.2,2714.5,2715,2719.8,2720.7,2713.3,2707.4,2697,2687.6,2672.2,2660.1,2640.3,2624.7,2604.1,2590.2,2574,2562.7,2542.3,2528.7,2508.7,2487.2,2468.1,2453,2441.1,2432.9,2421.8,2417.2,2410.3,2408.5,2402.8,2397.4,2392.7,2383.5,1413.2,235.9,0,0,0,0,0,0,0,221.5,664.5,1102.1,1092.8,1085.7,1079.6,2125.3,2120.1,2114.8,2110.5,2104.1,2094.4,2090.1,2090.2,2086,2082.5,2078.5,2073.2,2067,2059.8,2052.9,2046,2040,2033.2,2029,2023.1,2015.2,2008.4,2001.2,1993.5,1988.2,1981.9,1976.1,1970.6,1966.1,1961.6,1959.8,1958,1953.8,1950.2,1945.3,1940.1,1936.4,1931.6,1928.7,1925.8,1921.7,1920.5,1921.1,1921.7,1921.7,1922.2,1922.7,1922.7,1922.6,1923.2,1922,1921.4,1921.2,1923,1922.4,1921.8,1919.9,1919.4,1915.9,1917.1,1917.7,1915.9,1915.4,1915.6,1913.3,1913.9,1916.1,1914.9,1914.3,1915.5,1916.7,1916,1917.2,1918.5,1918.5,1727.3,1728.5,1727.4,1728,1726.2,1727.4,1726.2,1726.7,1724.9,1917.2,1916.1,1914.9,1913.1
4738.7,4753.9,4772.6,4800.1,4823.6,4828.8,4832.8,4838.3,4838.7,4842.2,4842.5,4849.4,4849.7,4852.1,4863.1,4870,4883.8,4883.2,4906.2,4909.7,4921.3,4933,4956.1,4972.5,4984.8,4988.7,5009,5021,5029,5024.7,5024.7,5012.6,5016.4,5012,4999.7,4999.5,4991.4,4987.3,4975,4975.2,4975.2,4971.2,4963.1,4955.3,4936,4920.4,4900.5,4916,4915.7,4915.7,4930.7,4950.7,4962.4,4986.7,5031.6,5060.5,5089.8,5098.4,5128.6,5146.5,5142.5,5126.5,5131.4,5132.8,5126.7,5123.2,5110.3,5106.2,5098,5084.9,5092.6,5082.9,5083.1,5083.1,5078.4,5078.4,5070.8,5082.8,5090.9,5123.4,5140.6,5170.2,5191.2,5212.9,5217,5212.6,5230.4,5253.3,5267,5271.5,5276.9,5282.7,5279.3,5284,5288.8,5302.7,5283.8,5279.7,5266.5,5259.8,5260.7,5261.6,5258.9,5268.2,5276.6,5283.4,5302.7,5318.4,5333.5,5352.6,5369.1,5374.3,4408.1,4413.6,3892.5,3887.7,3891.3,3891.3,3881,3869,3858.2,3856.5,3849.9,3847.3,3845.5,3330.5,3838.4,3827.8,3817,4338.5,4319.2,5387.3,5368.1,4777.8,4754.8,4728.2,4693.1,4150.5,4113,4081.4,4516,4480.1,4438.7,4417.1,4391.4,4843.2,4835.2,4813.6,4800.7,4787.8,4782.1,4766,4757,4740.9,4728.2,4720.6,4705.8,4697.8,4189.2,4682.7,4668.1,4146.8,4631.7,4621.2,4600.2,4594.1,4580.6,4574.3,4567.1,4566.3,4112.8,4112.8,4109.9,4539.8,4526.9,4520.1,4503.4,4057.7,4034.9,4009.3,3976.7,4374.2,4335.6,4292.1,4246.6,4197,4157,4120.7,4096,4085,4066.2,4055.9,4053.8,4057.6,4058.7,4057.4,4058.1,4053.5,4048,4039.4,4041.7,4041.2,4040.7,4040,4033.4,4043.3,4059.1,4069.3,4085.5,4104.6,4119,4131.1,3724.2,3722.9,3713,3703.8,4098.3,4087.6,4053,3606.9,3601.3,3576.7,3562.5,3543.8,3528.7,3958,3943.6,3518.9,3925.6,3918,3915.9,3907.7,3899.5,3887.2,3879.9,3869.1,3855.4,3432.1,3828.6,3822.3,3827.9,3838.2,3425.1,3422.4,3414.9,3411.8,3400.6,3382.2,3361.6,3741.8,3700.7,3269.7,3231.5,3206.8,3582.8,3562.1,3546.4,3535.6,3142,3515.6,3106.9,3088.9,3073.6,3442,3068.3,3116.9,3429,3117.8,3076.1,3103.8,3125.3,3144.1,3161.1,3166.7,3203,3201.2,2855.9,3184,3520.4,3520.8,3514.2,3497.2,3474.8,3110.3,3431,3407.2,3385.4,3363,3335,3312.6,3299.5,3293.9,3279,3277.1,3275.1,3277.3,2947.8,2946.4,3258.7,3250.3,3225.7,3200.6,3182.6,3164.4,3151.1,3133.1,3116.6,3106.7,3103.4,3103,3106.1,3098.9,3099.8,3101.3,3101.5,2805.2,2803.6,3104.9,3112.5,3117,3118.8,3112.3,3099.2,2785.9,3062.3,3040.3,3021.9,2712.1,2989.6,2971.4,2952.5,2936.4,2922.2,2898.4,2868,2834.5,1971.7,2792.8,2772.9,2757.3,2737.3,2729.1,2722.6,2721.1,2728.1,2724.2,2721.4,2712,2701.7,2690.9,2674.3,2656.9,2638.2,2623.5,2606.3,2591.2,2570.7,2556.2,2541.4,2284.6,2265.5,2483.8,2464.6,2446.8,2438.1,2429.9,2421.9,2416.2,2410.4,2408.5,2403.7,2398.3,2390.9,2383.8,1412.4,229.8,0,0,0,0,0,0,0,220.7,663.7,1099.7,1092,1085,1078.9,2123.9,2120.8,2113.4,2109,2103.4,2090.9,2089.5,2088.8,2084.5,2081.8,2075.7,2070.3,2064.1,2057.8,2051.5,2044.6,2037.9,2033.7,2027.6,2022.4,2015.8,2006.5,1997.9,1991.5,1986.4,1981.3,1976.1,1969.9,1966,1962.2,1961,1959.2,1955,1950.8,1946.6,1941.4,1938.4,1934.1,1931.8,1928.2,1924.5,1924.5,1925.1,1923.4,1922.8,1922.8,1924.5,1924.5,1924.9,1925.5,1924.9,1922.3,1922.3,1921.7,1921.1,1921.1,1920.7,1918.7,1918.1,1918.2,1917.7,1916,1915.5,1915,1912.6,1912.6,1914.4,1915.1,1913.9,1913.9,1913.2,1915,1914.9,1914.9,1916.1,1725.5,1726.1,1724.9,1726.2,1727.3,1727.4,1919.8,1919.8,1919.2,1917.5,1916.2,1915,1913.3
4709.8,4728.1,4747.3,4770.2,4801.2,4809.9,4822,4822.5,4835.6,4842.4,4838.9,4846,4848.8,4856.3,4866.5,4881.1,4891.3,4898.6,4901.9,4913.4,4928.7,4948.3,4956.1,4976.4,4996.5,5000.4,5016.7,5024.7,5033.1,5028.5,5024.5,5028.3,5020.4,5020.2,5015.9,4999.4,4991.2,4991.2,4983,4983,4979.2,4979.1,4963,4955.3,4943.8,4912.5,4904.6,4908.1,4919.8,4923.6,4927.1,4946.7,4966.7,4990.9,5023.4,5064.8,5081.4,5102.7,5123.9,5137.2,5146.4,5138,5130,5126.9,5114.7,5112,5108,5112,5107.9,5107.6,5111.4,5107.3,5115.3,5115.8,5115.8,5120,5107.7,5120,5132.7,5166.8,5175.7,5205.2,5222.3,5235.4,5230.5,5221.5,5239.7,5248.9,5248.9,5258.5,5254.1,5259.6,5259.8,5259.6,5264.2,5260.4,5255.4,5241.7,5234.3,5230.8,5232.2,5232.9,5226.8,5246.5,5258.4,5253.4,5277.8,5292.4,5316.1,5340.4,5351.5,5370.5,5381.2,4851.1,3878.9,3877.2,3881.2,3870.5,3865.8,3858.8,3847.5,3840.8,3839.4,3832.5,3831,3824.6,3823.7,3808.8,3798.2,4324.3,4784.9,5365.7,5356.3,5346.1,4737.1,4714.2,4684.5,4641.6,4107.9,4077.1,4510.4,4470.2,4442.5,4411.1,4389.8,4378.7,4822.5,4818.1,4798.7,4789.4,4776.3,4768.9,4752.5,4748.1,4728.1,4724.5,4713.3,4713.8,4713,4691.5,4687.2,4160.7,4649.5,4635.6,4617.8,4603.7,4593.9,4590.5,4583.5,4578.9,4122.7,4125.9,4122.1,4552.3,4552.9,4545.5,4079.9,4512.7,4060.4,4044.1,4434.7,4408.2,4365.3,4321.3,4269.5,4219.4,4176.1,4139.7,4114.9,4104.1,4082.4,4071.8,4066.9,4069.9,4070.9,4074.5,4073,4059.8,4057,4051.5,4051.1,4050.8,4045,4044.5,4046.1,4050.7,4058.6,4071.7,4090.9,4107.5,4119.2,3729.1,3727.5,3726.1,3714.2,4126,4112.6,4091.1,4067.7,3623.4,3616.7,3590.1,3575.9,3561.4,3546.1,3540.4,3534.2,3532.4,3936.6,3927.5,3929.6,3921.6,3910.1,3909.1,3900.4,3889.7,3873.6,3459.9,3856.5,3850.8,3856,3870.4,3456.6,3456.6,3448.9,3440.4,3423.6,3404.7,3794.8,3757.8,3721.1,3284.8,3244.2,3219.2,3590.9,3573,3164.5,3158.1,3153,3137.6,3117.8,3101.5,3097.6,3458.5,3089.8,2509.6,3145.1,2474.7,3112.1,3135.3,3150.4,3161.4,3171.3,3529,3533.9,3535.1,3538.2,3532,3533.5,3537.7,3537.2,3524.4,3511.5,3151.5,3467.7,3447.3,3427,3404,3373.3,3350.5,3336.7,3321.1,3309.4,3307.3,3305.8,3302.2,2973.4,2967.7,3283.3,3273,3249.8,3224.4,3204.2,3184.4,3171.3,3153.6,3135.1,3123.7,3118.5,3118.3,3121.4,3115.9,3114.8,3119.2,3117.5,3112.6,2822.6,2827.1,3127.8,3130.7,3132.5,3122.8,3109.8,3091.2,2778.3,3052.5,3031.3,3016.6,2711.3,2985.2,2970.2,2953.9,2938.2,2912.4,2881.4,2850.3,2534.2,2805.1,2785.2,2764.5,2749.2,2739.8,2728.7,2728.3,2731.5,2731.2,2727.5,2717.9,2706.3,2692.3,2673.2,2659,2641.4,2622.5,2604.4,2587.6,2570.7,2555.8,2538.9,2520.7,2500.6,2477,2460.3,2443.7,2435.8,2428.7,2421,2416.2,2410.4,2408.5,2402.8,2396.4,2391,2380.1,934.2,457,0,0,0,0,0,0,0,220.7,662.9,1098.1,1090.4,1085,1078.1,2123.2,2119.3,2111.8,2108.3,2100.5,2090.9,2088.8,2087.3,2081.5,2078.1,2074.1,2068.1,2061.2,2055,2050.2,2041.9,2036.5,2029.5,2025.1,2019.1,2012.4,2003.2,1996,1990.8,1984.6,1982,1975.5,1971.2,1966.7,1962.2,1961,1959.2,1955.6,1950.9,1947.3,1941.4,1939,1935.3,1932.3,1928.8,1926.4,1925.8,1925.7,1924.6,1925.2,1925.7,1925.6,1925.6,1926.1,1925.5,1924.8,1923.6,1922.9,1923.5,1922.3,1921.7,1922.4,1918.8,1917.6,1918.2,1918.4,1917.2,1915.4,1914.9,1913.2,1913.2,1913.2,1914.4,1912.7,1913.2,1720.2,1720.2,1914.3,1913.1,1913.7,1916.1,1724.3,1725,1919.8,1919.8,1919.1,1919.2,1918.6,1919.2,1918.7,1916.8,1915.7,1915.1
4670.5,4692.1,4717.9,4744.4,4768,4784.4,4799.8,4815.3,4815.8,4835.6,4846.2,4846.2,4860.2,4856,4874.2,4884.4,4891,4898.1,4905.1,4920.8,4936.1,4948.3,4967.7,4983.5,4999.9,5004,5020.4,5028.5,5040.7,5032.4,5032.4,5024.4,5028.3,5028.1,5011.7,5011.7,4999.2,4995.3,4991.5,4983.3,4987.1,4983.1,4967,4951.2,4935.8,4920.5,4912.5,4912.5,4916.3,4923.9,4927.7,4947.1,4970.8,4982.8,5031.8,5056.4,5094.1,5115.4,5128.2,5145.5,5141.4,5137.4,5137.4,5125.2,5117.6,5109.4,5114,5123,5118.2,5122.9,5135.5,5140.7,5157.9,5153.8,5154.2,5158.7,5154.6,5167.3,5179.6,5192.1,5205.3,5236.4,5244.9,5240.3,5226.4,5230.7,5230.7,5235.5,5244.3,5236.4,5232,5232,5237.1,5232.4,5236.8,5232.5,5222.9,5218.7,5210.7,5203.4,5209.1,5210.7,5217,5218.8,5248,5248.4,5260,5285.5,5300.2,5320,5343.5,5353.3,5378.9,4843.4,4842.3,4853.7,4350.3,3856,3851.4,3845.9,3837.6,3836.2,3824.6,3818.1,4329.1,4327.6,4326.9,4326.2,4795.9,4787.3,5349.5,5349,5338.7,5325.6,5315.7,5302.2,4679.9,5221,5169.9,4560.1,4512.8,4475.1,4446.2,4408.8,4390.9,4857.5,4835.4,4811.6,4799.8,4783.7,4775.2,4763.5,4754.8,4746.6,4738.6,4735.2,4731.9,4721.9,4717.6,4710.3,4695.7,4680.1,4658,4643.2,4628.8,4614.6,4603.7,4600.1,4596.6,4589,4588.4,4591.4,4577.9,4568.5,4561.8,4561.9,4548.2,4538.7,4522.5,4502.2,4466.5,4433.1,4396.3,4348.6,4293.1,4245.4,4199,4162,4134.1,4114.9,4101.3,4081.8,4082.5,4077.6,4078.3,4082,4079.7,4072.1,4061.7,4056,4053.3,4055.4,4055.1,4054.6,4048.3,4050.5,4061.3,4069.4,4091,4104.8,4122.4,4128.9,4138.3,4134.3,4131.2,4130,4116.5,4103.1,4081.7,4060.1,4059.3,4043.3,4031.5,4021,3996.2,3981.9,3976.2,3964,3951.8,3944.2,3938.6,3933.8,3930.5,3926,3914,3910.3,3889.1,3877.7,3876.9,3871.7,3877.2,3886.1,3891.7,3894.6,3889.8,3875.6,3853,3834.2,3810.2,3772.4,3732.5,3700.8,3652.5,3624.6,3602.7,3584.5,3566.2,3552.4,3548.9,3527.7,3504.1,3492.9,3104.6,3102.3,3479.5,2519.8,2528.9,2851.8,2870.3,3519.9,3530.9,3539.1,3538.3,3532.1,3533.6,3535.2,3534.4,3529.3,3534.6,3542.6,3546,3189.2,3522.7,3506.6,3490.2,3122.5,3106.9,3085.4,3398,3375.1,3358,3343.2,3332,3325.8,3322.2,3320.6,3313.6,3310.1,3299.8,2977.2,2957.1,2939,3223.6,3203.7,3188.9,3171.2,3154.3,3139.6,3131,3130.7,3133.9,3128.4,3129.1,3133.3,3132.7,3127.4,3130.7,2843.3,2849.4,2850.7,3148.4,3133.8,3119.1,3102.3,3091.7,2774.8,3044.1,3030.4,2725.5,3003.7,2987.5,2973.8,2956.3,2931.5,2896.9,2863.5,2548.4,2815.2,2793.8,2775.4,2756.3,2747.1,2732.3,2734.3,2736.2,2736.1,2731,2721.5,2709.7,2694.8,2671.3,2656.8,2640.4,2621.5,2605,2585.4,2571.6,2553.3,2538.8,2518.3,2495.8,2473,2456,2189,2433.8,2427.5,2421,2415.2,2411.3,2407.5,2403.8,2396.3,2387.5,2377.3,932.5,455.3,452.8,0,0,0,0,0,0,220.7,880.5,1097.3,1088.8,1081,1076.6,2121.7,2117.1,2111.1,2107.6,2099.8,2090.2,2087.9,2084.3,2081.5,2076,2072.6,2066,2059.8,2055.1,2048.8,2040.5,2032.3,2028.2,2023.1,2017.8,2010.4,2000.7,1994.7,1989.1,1983.2,1980.7,1974.9,1971.2,1967.3,1963.5,1961.6,1958,1954.4,1950.9,1946.7,1942.1,1937.8,1932.9,1931.8,1928.8,1927.6,1927,1926.3,1926.3,1925.7,1926.3,1925.6,1926.1,1927.2,1927.2,1926,1926,1926,1925.3,1924.8,1924.8,1923.6,1920.6,1920.1,1920.1,1919,1918.4,1916.6,1916.1,1914.9,1913.7,1914.3,1913.7,1913.1,1719.4,1720.6,1720.6,1913,1913,1914.3,1721.3,1723.1,1724.9,1918.5,1919.1,1917.9,1917.3,1917.3,1917.9,1916.6,1917.3,1914.5,1913.9
4642.2,4652.7,4671.1,4714.7,4737.7,4763.9,4779.5,4806.1,4806.6,4825.8,4833.4,4840.7,4855.6,4858,4864.7,4867.5,4882.3,4893.2,4904.2,4908.1,4919.8,4935.1,4951.3,4975.4,4987.3,4999.6,5015.7,5020.1,5028.5,5036.8,5032.7,5028.3,5020.4,5003.8,5004.1,5000,4987.5,4983.4,4979.3,4975.5,4971.4,4963,4959.2,4939.7,4936.3,4912.6,4916.4,4912.8,4924.2,4912.2,4920.1,4943.5,4962.9,4982.9,5027.7,5056.4,5098.4,5119.5,5136.6,5149.5,5158.2,5158.2,5158.7,5150.2,5141.7,5133.9,5138.1,5138.5,5138.8,5138.8,4625.6,4652.4,4660.9,4648.6,4666.3,4670.2,4670.9,4678.9,4697.3,4706.2,4727.4,5244.8,5245,5239.9,5231.1,5230.8,5230.8,5217.8,5218.6,5205.5,5214.1,5214.2,5218.7,5223.2,5219.1,5205.8,5209.5,5196.8,5192.4,5197.8,5190.7,5200.8,5207,5218.3,5243.7,5243.6,5255.5,5281,4779.1,5315,5353.2,5373.6,5382.6,4836.3,4840.6,3849,3847.1,3841.9,3836.3,3834.8,3832.4,3826,3819.4,3808.5,3807.5,3802.2,3791.5,4316.9,4297.1,4774.5,5357.8,5337.2,5338.3,5323.2,5309.1,5309.7,5281.5,4645.3,5199.5,5151.6,4530.9,4488.3,4454.3,4422.4,4396.4,4370.5,4847.4,4832.4,4805.2,4792.5,4773.3,4768.8,4760.7,4756.4,4748.9,4733.8,4738.4,4746.9,4740.4,4729.4,4710.2,4698.9,4680,4658.1,4653.9,4629.4,4621.3,4617.6,4614,4606.1,4605.4,4601.5,4601.7,4588.5,4584.9,4581.3,4575.1,4558.3,4552.1,4525.1,4492.1,4451.8,4425.2,4379.3,4320.6,4272.2,4225.3,4181.9,4159.6,4142.8,4117.9,4098.3,4096,4088.2,4094.3,4092.4,4089.9,4082.2,4068.9,4066.3,4060.7,4055,4057.7,4051.7,4048.3,4053.2,4058.9,4074.8,4085.8,4108,4119.6,4129.5,4136.3,4140.8,4143.2,4142.8,4129.4,4121.5,4102.7,4078.9,4082.9,4064.3,4050.1,4042.7,4020.4,4006,3989,3979.9,3967.8,3960.2,3956.4,3951.6,3950.2,3947.4,3933.2,3933.2,3908.4,3899.7,3893.3,3891,3891,3894.5,3897.4,3898.3,3892.8,3881.5,3858.6,3836.8,3812.8,3782.1,3741.7,3705.2,3667.2,3630.7,3608.7,3598.3,3581.4,3565.5,3556,3533.4,3513.5,3500,3111.7,3117.4,3490.6,2528.4,2854.5,2859.6,3199.6,3531.3,2792,2792.7,3530.8,3526.2,3530.4,3530.4,3532.2,3194.4,3530.5,3545.2,3551.8,3191.5,3534.2,3520.8,3500.2,3485.3,3468.3,3104.4,3078.4,3396.8,3373.3,3360.4,3345.1,3337.4,3335.4,3331.9,3323.4,3316,3310.9,2986.4,2966.2,2947.9,3232.4,3212.4,3197.7,3178.4,3161.6,3146.5,3134.5,3130.9,3129.3,3130.4,3130.8,3136.8,3139.6,3137.7,3140.8,3148.2,2857.9,2859.3,2861,3146.7,3125.7,3108.9,3093.7,3077.6,2764.7,3041.7,3025.7,3016,2715,2982.1,2970.2,2939.1,2906.8,2869.1,2557.7,2817.8,2800,2781.7,2758.9,2750.9,2738.4,2736.7,2738.8,2738.4,2733.6,2720.3,2708.7,2688.2,2665.9,2652.7,2635,2618.6,2599.7,2580.6,2567.2,2552.1,2535.2,2515.6,2489.8,2466.5,2449.6,1936.2,2429.8,2427.5,2420,2414.2,2412.1,2404.7,2403.9,2396.3,2385.7,2374.7,929.8,452.8,449.4,0,0,0,0,0,0,441.4,880.5,1096.5,1088.8,1081,1075.9,2122.4,2114.8,2111.1,2104.8,2097.7,2090.1,2085,2082.9,2078.8,2073.9,2069.7,2064,2057.9,2050.9,2045.9,2037.8,2031,2025.7,2021.1,2014.5,2006.3,2000.1,1993.4,1989.1,1983.2,1979.4,1976.3,1971.8,1967.9,1965.4,1961,1956.2,1954.5,1950.3,1945.4,1941.6,1936.6,1933.5,1930.5,1929.3,1928.2,1927.6,1926.9,1926.3,1925.7,1927.3,1927.2,1926.6,1927.2,1929,1929,1926.6,1927.8,1926.6,1925.4,1924.2,1924.2,1923,1921.9,1921.4,1920.2,1920.2,1917.8,1917.8,1916.6,1916,1915.5,1914.9,1913.7,1720.5,1719.9,1720.5,1912.9,1913,1913,1913.6,1914.2,1915.9,1917.3,1917.3,1916.7,1916.1,1917.3,1917.8,1916.6,1916.6,1914.3,1913.7
4607.5,4628.4,4649.1,4681.5,4707.1,4733,4744.2,4770.2,4796.8,4804.3,4823.5,4834,4841.8,4844.7,4855.5,4858.6,4869.3,4876.6,4880.4,4895.7,4895.8,4911.3,4926.8,4954.4,4962.4,4974.8,4983.1,4999.5,5004,5003.9,5000.1,4996.3,4992.2,4987.9,4987.9,4971.3,4959.5,4959.6,4955.6,4955.6,4959.7,4955.6,4947.6,4928.5,4920.7,4913.1,4909.3,4920.9,4909.6,4913.3,4928.3,4932.1,4951.6,4971,5027.9,5052.7,5077.9,5102.9,5115.4,5141,5149.9,5158.5,5167.4,5141.8,5133.4,5124.7,5133.7,5125.5,5125.5,5138.4,5142.8,5156.2,5169.6,5173.7,5178.3,5201.2,5196.9,5201.1,5223.1,5240.9,5244.9,5262.8,5266.7,5243.9,5243.8,5230.6,5226.7,5213.9,5214.2,5210.5,5197.3,5197.2,5193,5196.9,5196.7,5192.3,5187.7,5182.9,5179.1,5180.5,5186.3,5191.6,5207,5209.7,5233.7,5243.8,5255.5,5267.9,5297.3,5320.7,5353.6,5377.6,5387,5397.3,4849,4855.4,4856.6,4350.4,3840.1,3843.8,3826.8,3825.4,3818.9,4335.2,4315.6,4309.7,4304.8,4786.7,4775.2,5349,5325.1,5321.7,5316.1,5319.2,5308.9,5308.3,5285.7,5254.2,5216.7,5177.2,5135.3,5075.9,5022.7,4978.6,4929,4889.1,4369.5,4357.3,4822.7,4799.3,4791,4775.4,4774.9,4756.2,4752.2,4748.8,4752.7,4754.1,4751.2,4736.2,4725.1,4710.3,4691.3,4669.2,4665.1,4643.3,4631.9,4624.8,4624.6,4613.3,4608.8,4608.8,4605.1,4605.1,4588.6,4592.5,4578.7,4565.1,4555,4531.9,4505.2,4468.6,4431.5,4389.4,4330,4284.4,4234.3,4193.5,4165.1,4151.3,4123.1,4098.4,4090.5,4093.7,4096.8,4089.3,4084.4,4076.8,4063.6,4060.7,4058.1,4052.5,4044.3,4044.4,4035.3,4035.2,4043.3,4059.2,4075.2,4091.8,4108.4,4126.3,4138.6,4140.2,4139.9,4150.9,4134.9,4119.3,4105.8,4092.2,4090.4,4071.3,4060,4047,4022.5,4008.1,3995.3,3988.3,3976.2,3971.4,3967,3962.2,3961.9,3955.9,3950.9,3941.7,3930,3919,3902.1,3896.8,3895.4,3901,3904.1,3905.3,3892.1,3866.8,3839.3,3818.4,3789.9,3755,3713.7,3682.5,3642.3,3608.6,3592.9,3572.7,3551.9,3543.9,3542.3,3519.2,3497.6,3488.2,3149.8,3486,3505.2,2157.2,2484.4,2485.2,3152.4,3166.6,3170,3162.7,3534.3,3533.6,3531.9,3537.2,3537.5,2541.7,3544.5,3562,3571,3566.7,3552.6,3542.7,3533.1,3518.7,3504.1,3479.3,3450,3423.9,3400.1,3383.1,3363.9,3350.2,3341,3327.1,3320.2,3312.7,3295.4,3281,3256.2,3228.5,3206.1,3192.8,3171.1,3151.5,3132.2,3117.4,3109.3,3104.3,3102.5,3098.8,3106.3,3108.8,3110.2,3106.9,3117.5,3125.5,3131.8,3141.6,3146.4,3135,3115.8,3097.2,3085.3,3071.1,3049.9,3038.7,3023.9,3012.8,2996.6,2979,2959.4,2934.7,2897.2,2862.8,1989.3,2251.4,2795.1,2777,2755.4,2747.5,2733.8,2732.1,2734,2732.5,2728.8,2715.6,2704.2,2682.6,2663.8,2647.2,2353.4,2336.7,2320.2,2303.2,2286.8,2274.1,2260.7,2244.5,2224.9,2209.3,2197.8,2184.4,2428.7,2426.6,2421.6,2413.2,2413,2404.8,2403,2396.3,2386.6,2372.9,0,452,448.6,0,0,0,0,0,0,663.7,880.5,1095.7,1088,1081,1075.9,2121.7,2113.4,2110.4,2104.8,2099.1,2088,2085.7,2083,2077.4,2071.9,2068.4,2062.6,2057.2,2049.5,2043.8,2037,2030.3,2024.4,2018.6,2012.4,2004.5,1998.7,1992.1,1985.1,1983.8,1978.2,1975,1970.4,1967.8,1966,1961,1956.2,1953.2,1947.8,1942.8,1940.9,1935.4,1933.1,1930.6,1928.8,1928.2,1928.3,1928.1,1928.7,1928.5,1928,1928,1929,1930.2,1929.6,1929.6,1929.7,1928.5,1927.9,1926.6,1927.2,1926.7,1924.9,1923.6,1923.7,1922.6,1920.8,1919,1917.8,1917.8,1917.3,1916.7,1916.1,1914.8,1721.6,1720.4,1721,1912.2,1912.8,1914.6,1913.5,1914.1,1915.3,1914.7,1915.3,1914.1,1913.5,1915.4,1915.3,1915.4,1914.9,1913.1,1912.5
4587.3,4607.9,4625,4652.7,4681.4,4713.9,4735.7,4750.5,4768.8,4787.6,4806.5,4821.4,4825,4828,4835.2,4834.9,4845.9,4849.5,4849.2,4849.1,4856.8,4872.1,4891.5,4914.8,4930.5,4942.6,4958.7,4967.4,4979.7,4980.2,4980.2,4968.1,4968.1,4959.8,4947.9,4943.7,4931.7,4936,4936,4932.3,4932.3,4936.3,4928.2,4924.7,4913.1,4906.1,4901.5,4905.5,4913.4,4913.4,4932.6,4940.8,4956.1,4975.9,5016,5036.3,5069.3,5098.6,5132.9,5149.6,5167.2,5167.2,5167.2,5154.6,5150.4,5129.3,5124.7,5129.4,5129.6,5146.9,5155.6,5160,5172.9,5177.5,5195.5,5201,5205.1,5218.6,5236.3,5250.1,5258.4,5253.8,5249.2,5249.5,5227,5213.7,5218,5213.9,5201.1,5201.2,5197.2,5188.2,5188.2,5188,5187.5,5191.5,5178.5,5178.5,5170.3,5170.8,5188.6,5199.4,5202.2,5225.8,5222,5244,5259.5,5275.3,5299.5,5320.1,5371.3,5381.2,5399.5,5408.7,4851.3,4859.1,4860,4864.1,4857.5,4347.4,3826.8,3825.4,3813.9,4326.2,4315.8,4305.6,4792.9,4788.5,5374.8,5334.9,5316.7,5317.9,5322,5316.8,5320.2,5313.9,5300.4,5287,5256.2,5211.7,5155.1,5112.8,5066.5,5014.6,4958.9,4920.5,4896.7,4356.3,4344.1,4332.6,4809.5,4801.7,4782.3,4782.7,4774.8,4774.8,4775.8,4785,4782.1,4767.1,4745,4729.9,4715.1,4696.1,4674.3,4659.5,4640.3,4629.6,4628.9,4620.8,4616.2,4611.8,4612.2,4598.8,4589.3,4586.2,4583.4,4568.9,4559.1,4536.1,4513.3,4475.8,4445.8,4402.8,4340.1,4285,4237.5,4197,4165.5,4145.8,4115.1,4096.1,4085.4,4083.3,4081.2,4084.5,4077,4069.6,4054,4043.1,4038.1,4030.2,4017.3,4009.4,4003.6,4003.2,4013.4,4025.3,4048.7,4069.9,4094.3,4114.8,4129.6,4142.3,4149.8,4162.2,4149,4136,4119.3,4102.1,4103.8,4085,4072.9,4062.5,4040.4,4023.7,4014.9,4011.8,4005.5,4002.8,4002,3998,3997.2,3994.1,3982.9,3979.8,3962.4,3948.3,3933.1,3921.7,3919.7,3920.5,3913.8,3904.3,3873.6,3846.3,3810.5,3786.4,3752.4,3713.4,3676.7,3647.5,3616.8,3586.9,3567.2,3543.3,3522.2,3513.9,3521,3498.6,3475.7,3465.6,2451.8,3484,3503.7,2144.2,3139.8,3140.7,3154,2784.8,2782.3,3534.3,3522.7,3527,3525.2,3528.9,3518.4,2520.8,2858.7,3543.5,3546.7,3548.3,3538.7,3528.9,3520.6,3508.7,3495.9,3481.2,3450.6,3430.3,3405.8,3378.6,3348.5,3327,3308.3,3291.7,3282.9,3266.9,3249,3232.2,3207.9,3184.6,3166.3,3151.1,3136.5,3115.3,3097.9,3082.1,3074,3069.3,3067.7,3069.2,3072,3075.8,3080.3,3077.3,3081.7,3095.8,3103.7,3113.3,3121.3,3108.5,3091.1,3071.1,3059,3044.7,3020.2,3005.4,2992.2,2975.1,2956.8,2943.5,2925.2,2901.5,2872.5,2843.6,2540.1,2798.6,2782.8,2766.3,2752.3,2748.1,2730.4,2727.5,2728.2,2725.3,2721.6,2710,2695.1,2676.1,2652.8,2362.5,2349.3,2330.8,2315.4,2300.3,2283.8,2271.8,2258.8,2238.8,2219.1,2203.1,2190.8,2178.6,2424.8,2423.8,2421.6,2414.1,2412.1,2405.8,2402.1,2395.4,2386.6,2369.3,0,450.3,446.2,440.6,0,0,0,0,0,663.7,882.1,1095.7,1088.1,1081,1076.7,2120.2,2115.6,2108.3,2102.7,2097.6,2088.1,2085,2081.6,2076.1,2071.2,2064.9,2060,2052.9,2046.6,2041.8,2036.4,2029.6,2024.5,2018.6,2012.5,2005.2,1998.1,1990.8,1985.1,1983.1,1980.1,1975,1971,1968.5,1964.6,1959.8,1955,1951.4,1947.8,1942.8,1937.8,1933.5,1929.8,1926.8,1926.8,1927.5,1927.5,1929.3,1929.2,1928.6,1930.3,1930.9,1932.1,1932.1,1932.9,1933,1932.4,1931.2,1931.1,1930.5,1928.6,1929.1,1927.9,1926.1,1924.3,1925,1924.4,1922.1,1921.4,1919.6,1919,1919,1917.9,1915.9,1915.3,1722.3,1912.8,1912.8,1912.3,1912.8,1911.7,1912.8,1914,1914.1,1914.1,1913.5,1913.5,1914.1,1914.1,1915.3,1914.9,1913.1,1913.7
4570.9,4581.1,4604.9,4625,4670.3,4691.7,4713.1,4734.9,4756.7,4767.6,4789.8,4808.5,4812.4,4819.6,4819.5,4815.6,4815.4,4822.8,4822.6,4818.8,4826.4,4837.8,4860.8,4879.8,4891.4,4899.3,4923.4,4931.6,4943.5,4952.3,4952.3,4940.4,4936.1,4928.6,4920.5,4920.5,4908.9,4905,4901.2,4905.5,4905.5,4909.1,4909.1,4897.5,4897.3,4894,4905.5,4901.4,4909.6,4909.9,4917.5,4933.3,4957,4964.6,4995.7,5024.3,5048.8,5077.7,5107.1,5140.9,5141.2,5154.3,5150,5146.2,5120.9,5116.6,5104,5108.1,5112.5,5120.9,5142.6,5151.3,5173.7,5182.7,5191.4,5205.5,5210.7,5206.6,5215.4,5211.3,5219.9,5219.7,5220.4,5205.7,5205.5,5201.2,5209.5,5192.1,5196.2,5196.5,5192.6,5196.9,5187.9,5179.2,5178.7,5178.6,5186.8,5178.2,5178.4,5188,5193.6,5203.2,5218.6,5234.1,5238.7,5254.5,5267.3,5278.6,5308.6,5340.2,5368.4,5407.1,5407.1,5420.1,5434.8,4876.5,4872.3,4880.7,4870.9,4850.8,4858.9,4856,4335.8,4327.1,4311.9,4807.5,4788.9,5403,4291.6,5332.9,4848.2,4857.3,5330.3,5327.6,5340.3,5343.5,5328.5,5318.5,5286.3,5245.8,5205.9,5153,5098.1,5044.9,4993.2,4950.4,4920.5,4888.3,4870.4,4341.9,4835.4,4831.8,4809.6,4806,4802,4802.5,4800,4801.9,4811.1,4799.6,4773.4,4748.1,4735,4716.7,4705,4671.3,4656.3,4638.1,4629.9,4629.1,4623.7,4619.9,4616.3,4602.5,4590.2,4594,4587.2,4573.4,4563.8,4541,4527.8,4494.8,4462.7,4419.8,4353.4,4298.1,4247.2,4209.2,4171.9,4146.2,4113.2,4085.8,4080.7,4081,4084.8,4077.4,4064.2,4059.8,4044.1,4034.3,4016,4004.2,3990.2,3976.9,3968.8,3973.3,3973,3997.5,4021.7,4052.2,4086.5,4111.9,4134.7,4150.2,4160.6,4182.1,4167.4,4154.9,4137.4,4128.3,4119.2,4102.1,4084.8,4073.1,4050.2,4041.1,4039.8,4038.8,4037,4031.9,4039.5,4038.8,4034.5,4031.4,4025.5,4014,4008.7,3977.3,3947.1,3927.5,3915.2,3912.9,3904.5,3881.5,3840.2,3812.8,3774.8,3752.1,3711.8,3669.7,3636.1,3617,3598.2,3566.2,3540.3,3514.4,3495.7,3500.4,3507.5,3479.4,3450.9,3441.4,2413.8,3093.4,3099.7,2096.4,2759.6,2761.9,2773.1,2779.9,3161.2,3149.2,3137.5,3137.4,3130.8,3130.1,3126.4,2122.2,2119.4,3139.4,3147,3147.8,3138.6,3137.5,3134.8,3124.8,3113.5,3094.7,3070.4,3052,3022.2,2995.6,2973.1,2956,3268.2,3248.6,3239.9,3228.7,3208,3194.8,3171.4,3146.2,3128,3119.4,3101.7,3080.7,3065.3,3052.6,3042,3041.7,3038.6,3038.7,3041.6,3045.9,3048.7,3047,3056.2,3065.3,3074.6,3082.3,3090.1,3086.8,3068,3052.6,3037.4,3017.9,2999.2,2975.7,2964,2942.6,2925.6,2911.4,2888,2577.7,2558.4,2539.9,2251,2512.6,2500.7,2490.4,2478.8,2474.7,2464.4,2457.6,2455.7,2454.4,2449.2,2441.3,2428.4,2672,2369.4,2080.2,2064.9,2051.4,2035.1,1743.1,1732.2,1993.9,1712,1704.7,1699.3,1947.6,1690.9,2179.4,2422.8,2423.8,2421.5,2415,2412.1,2404,2401.3,2394.6,2386.8,2368.5,472.8,449.4,447,440.6,0,0,0,0,221.5,664.5,1102.1,1096.5,1087.3,1081,1076.7,2121,2116.3,2109.7,2103.4,2096.9,2089.7,2082.9,2081,2074.7,2070.5,2064.8,2057,2051.5,2045.3,2039.7,2034.3,2028.4,2023.2,2018.5,2013.9,2005.2,1998.1,1990.2,1984.5,1981.3,1977.5,1974.3,1971.7,1968.5,1964.6,1958,1953.8,1949.6,1944.7,1941.5,1937.2,1931,1928,1926.2,1926.8,1926.8,1928,1930.5,1929.8,1929.8,1930.3,1931.5,1932.1,1933.5,1934.3,1933.6,1933,1932.4,1932.5,1931.8,1931.8,1931,1929.2,1928.5,1928.5,1926.7,1925,1925,1925,1922.6,1921.3,1920.7,1919.5,1725.3,1724.7,1724.1,1915.3,1913.5,1912.3,1912.3,1911.1,1912.2,1912.8,1912.8,1912.8,1912.9,1912.9,1913,1913,1914.1,1914.2,1914.3,1913.7
4561.7,4571.9,4595.4,4615.6,4646.6,4667.4,4691.7,4712.9,4738,4756.3,4785.8,4789.5,4796.9,4804.2,4804.2,4807.7,4800.2,4800.1,4792.6,4796.4,4796.4,4811.5,4834.1,4841.6,4864.5,4887.8,4892.4,4912.5,4916.6,4925,4925,4917.1,4913.3,4897.7,4893.7,4889.6,4878.3,4878.3,4866.9,4874.7,4886.5,4890.1,4890.4,4890,4882.3,4894.5,4898.1,4902.4,4910.2,4918.4,4922.1,4941.7,4953.8,4965.3,4996.8,4523.7,4039.1,2549.4,3071,2557.7,3084,2553.6,2553.9,2553.9,2558.2,2562.5,2558.4,2571.4,2575.5,2583.8,2592.7,2601.4,2605.7,2623.8,2628.4,2642,2646.7,2655.8,2660.2,2665.2,2669.5,2669.9,2669.7,3177.9,3173.3,4678.9,5170.9,5175.2,5179.1,5191.9,5200.6,5196.2,5196.6,5183.1,5182.8,5195.6,5199.4,5194.8,5199.8,5200.9,5210,5225,5235.8,5225.2,5250.5,5267.6,5278.2,5289.9,5319.5,5348.1,5390.2,5414.9,5428.2,5441.5,5450.5,4383.4,4380.4,4371.3,3856.9,3861.3,3849.2,3844,3823.3,4332.6,4323.2,4313.6,5437.7,3776.4,4298.9,4342.6,4868.7,4863.3,5329.8,5356,5359.1,5366.9,4892.8,5365.6,5335,5297,5256.2,3700.9,4634,4611.3,4569.5,4533.2,4508.2,4922.8,4902,4368.8,4349.3,4855.1,4844.4,4824.9,4821.1,4825.4,4821.4,4827.1,4820.2,4821.4,4795.4,4765.1,4746.1,4723.7,4704.8,4679.1,4663.8,4641.8,4630.9,4628.7,4624.3,4623.7,4616.4,4609.4,4590.3,4587.4,4587.9,4574.1,4571,4551.5,4525.2,4495.4,4477.6,4427.4,4354.5,4299.1,4251.4,4204.6,4167.3,4136.3,4105.7,4086.7,4079,4077,4078,4068.4,4052.8,4045.4,4030.3,4005.2,3986,3970.1,3951.3,3935.8,3924.5,3923.4,3936.3,3958.5,3983.8,4022.8,4061.1,4096.2,4129.5,4149.7,4165.8,3318.7,4169.4,4161.7,4146.3,4132,4129.8,4108,4093.2,4084,4065.6,4054.4,4046.6,4047.7,4043.7,4043.9,4049.3,4051.8,4044.5,4046.7,4035.5,4027.1,4007.2,3539.8,3923,3448.6,3053.2,3002.9,3413.2,3836.4,3387.4,3748.4,3341.9,3694.3,3657.1,3617.5,3582.6,3568.1,3548,3531.7,3181.3,3163.3,2821.8,2817.3,3156.3,2806.3,2766.7,3402.8,2020.7,2070.7,2062.8,1710.6,2044.1,2040.5,2043.5,2052.8,2044.6,2037.2,2029.8,2028,2031.5,2029.9,2029.9,1031.2,1026.6,2042.7,2048,2047.8,2037.3,2031.3,2026.5,2027,2025,2016.9,2006.5,1995.2,1986.9,1981.9,1972.4,1964.9,1963.1,1961.3,1959.3,2262,1946.5,1939.5,2227.4,2212.1,2198.9,2185.2,2171.9,2152.2,2141.4,2133.5,2127.5,2128.8,1828.2,2128.7,2131.5,2131.4,2136,2131.5,2140.4,2145.2,1856.8,1859.9,1859.8,2152.4,1846.9,1829.9,1814.7,1798.3,1773.6,1754,1454.2,1443.2,1717.6,1708.3,1700.4,1693.8,1693.7,1692.4,1416.4,1690.3,2222.2,2218.1,2208.7,1945.8,1933,1645.3,2185.8,2185.5,2180.6,2173.5,2164.3,2405.6,1836.8,1797.8,1784.3,1770.2,1753.6,1742.2,1732.1,1720.3,1713.8,1703.7,1700.2,1694.9,1690.9,2179.4,2423.8,2426.6,2422.4,2415.9,2414.9,2404.9,2400.3,2395.7,2386.7,2370.1,706.9,450.3,447,439.9,0,0,0,0,444.6,666.1,1102.9,1096.5,1088.1,1082.6,1077.4,2122.5,2117.1,2112.6,2104.8,2096.9,2091.2,2085.2,2080.9,2073.9,2070.4,2063.5,2056.3,2048.7,2043.9,2038.4,2033,2028.2,2023.2,2019.2,2013.9,2005.7,1998.1,1992.2,1985.8,1982,1977.5,1975.6,1971,1968.6,1963.5,1957.4,1952.6,1946,1942.1,1938.5,1934.1,1929.9,1926.9,1925.1,1925.7,1926.3,1928.6,1929.2,1929.8,1930.4,1930.3,1931.5,1933.6,1935.5,1936.1,1934.8,1934.7,1935.4,1935.4,1934.2,1932.3,1932.3,1932.3,1930.9,1930.3,1927.9,1926.2,1925.7,1925,1924.4,1923.3,1921.4,1919.6,1726.5,1918.9,1917.7,1916.6,1915.4,1913.5,1912.3,1912.9,1912.3,1911.7,1910.5,1912.3,1912.9,1913,1912.4,1912.4,1913.6,1914.8,1915.3,1915.4
4555.6,4569.6,4579.3,4609.5,4640.3,4660.8,4682.1,4703,4720.6,4738.4,4756.4,4778.4,4781.9,4789.3,4781.6,4781.6,4777.9,4774.1,4770.6,4770.6,4778.1,4785.5,4793,4811.7,4830.7,4846.1,4869.7,4885.5,4893.6,4901.7,4893.7,4890.1,4886,4878.9,4870.9,4863.3,4855.4,4848.2,4840.4,4848.5,4855.8,4863.5,4870.6,4882.6,4874.9,4882.7,4890.2,4906.1,4910.1,4918,4925.9,4933.9,4950.4,4965.8,4003.6,2536.7,2545.1,2540.8,2540.8,2545.1,2541,2541.2,2541.2,2545.6,2541.5,2554.1,2550,2558.4,2558.2,2571.2,2579.4,2592.7,2605.7,2614.4,2628,2637.4,2642.1,2651.5,2660.2,2665,2664.7,2664.7,2669.1,2664.5,3173,3172.9,3664.7,4169.6,5186.9,5195.2,5199.9,5199.9,5204.4,5208.9,5212.8,5221.3,5207.9,5208.2,5221.5,5218,5227.6,5242.6,5252.2,5243.2,5267.5,5275.3,5291.5,5303.3,5331.2,5364.2,5397.4,5426.4,5449.7,5453.5,4957.7,4395.5,4398.3,4394.3,3870.4,3865.2,3853.8,3848.6,3839.4,3824.4,3811.2,3792.8,4281.1,4784.1,3777.6,3772.6,4870.8,4878.1,5356.1,5391.7,5396.2,5417.7,4935.3,4916.1,4882.3,5336.9,5299.3,4723.9,3677.1,4143.6,4605.4,4564.8,4540.2,4515.9,4933.5,4918.2,4376.6,4369.9,4875.7,4856.1,4856.4,4852.7,4849.4,4854.3,4843.4,4835.5,4805.4,4789.7,4752.9,4729.9,4708.1,4685.7,4225.8,4646,4634.2,4632.7,4627.9,4626.8,4623.3,4606.3,4587.3,4591.2,4145.3,4156.2,4571.4,4555.8,4535.6,4059.6,3610.4,4428.1,4361.4,3465.3,3419.6,3786.9,4166,4135.5,4107.3,4088.4,4080.7,4078.6,4071.6,4069.8,4057.2,4037,4016.9,3987.9,3967.3,3944.4,3918.9,3189.4,3535.7,3533.4,3530.4,3195.4,3967.1,4009.3,4054.2,4094.1,4127.4,4149.8,4168.4,3326.4,4179.3,4163.1,4151.4,4138.5,4133.8,4117.3,4099.8,4090.8,4070.1,4067.6,4059.6,4055.4,4053.5,4051.6,4057,4064,4051.6,3618.1,3608.6,4042.3,4013.5,2705.9,2646.3,3008.8,2226.7,1825.1,2612.7,1818.4,1818.4,3008.8,3315,2934.9,3293.6,3257.5,2897.3,2886.4,3186.5,3504.3,2845.5,1842.6,2149,2469.3,2790.4,3086.4,3391.9,2074.3,1738.3,1730.1,1724.6,2060.4,2052.3,2048,2051.6,2056.5,2048.8,2039.6,2032.2,2028.6,1699.3,1701.1,1366.4,1028.3,1694.5,2041.8,2044.7,1657.6,2036.6,2029.8,2028.8,2029.9,2023.5,2021.1,2007.7,2003.1,1991,1610.9,1607.6,1604.1,1971.2,2267.3,2853.7,2546.3,2536.2,2822.6,2513.8,3081.3,3068.2,3056.8,2730.3,3023.6,2686.3,2108.9,2697.2,2988.9,2982.8,2377.5,2988.8,2991.9,2994.8,2991.9,2708.7,2720.5,3017.3,2721.4,2739.6,2435.5,2430.5,1842.1,2104.2,1788.9,1463.6,1752.8,1743.6,1732.8,1722,1149,1703.4,1972.7,2237.4,2223.9,1933.3,2466.6,2741.2,2731.2,2724.7,2723.9,2146.3,1865.8,2425.2,2423.9,2420.4,2687.5,2673.9,2379.4,1810.4,1795.7,1783.3,1769.2,1756.6,1743.2,1731.9,1721,1715.6,1702.6,1701.1,1694.9,1214.4,2424.7,2426.6,2428.4,2423.3,2416.8,2414.9,2404.9,2403,2396.5,2383.7,2365.6,701.6,450.3,445.4,438.4,0,0,0,0,445.4,666.9,1104.3,1096.5,1090.4,1083.4,1289.7,2124.6,2117.8,2112.6,2104.8,2095.5,2091.9,2085.9,2078.7,2073.9,2067.6,2064.2,2054.9,2048.7,2042.5,2037.8,2033.1,2028.9,2025,2019.2,2014.5,2007.1,2000.6,1992.8,1987.1,1982.6,1979.5,1976.2,1970.4,1969.9,1964.1,1956.8,1951.4,1945.4,1940.3,1936.7,1930.5,1927.5,1922,1920.2,1923.9,1924.5,1927.4,1929.9,1929.8,1931.6,1932.8,1933.5,1935.4,1937.9,1937.3,1936.6,1937.8,1937.2,1935.4,1934.8,1935.4,1935.3,1934.1,1932.2,1932.3,1931,1928,1928,1928.5,1925,1923.9,1922.1,1920.8,1918.9,1920.2,1919.1,1918.5,1917.3,1916.6,1914.7,1914.1,1914.1,1914.1,1912.9,1912.3,1911.7,1912.3,1912.3,1912.9,1915.2,1915.3,1916,1916.1
4553.6,4560.7,4567,4604,4185.6,4651.7,4672.9,4690.4,4711.5,4724.9,4738.7,4753.1,4763.6,4759.7,4755.9,4752.2,4752.3,4752.3,4748.7,4748.9,4745.2,4749.1,4767.3,4785.7,4808.4,4819.9,4839.3,4847.7,4863.6,4871.3,4879.2,4871.6,4863.9,4852.5,4844.9,4837,4829.8,4825.5,4822.1,4825.8,4833.7,4844.6,4856.3,4859.9,4867.5,4875.5,4882.9,4894.7,4910.7,4922.7,4926.5,4938.4,4946.7,4954.8,4012,2545.1,2540.8,2536.5,2540.8,2536.7,2541,2537,2537.2,2537.2,2545.6,2545.6,2549.7,2549.8,2553.9,2566.4,2579.4,2588,2596.7,2610,2623.4,2641.7,2646.4,2655.8,2660.2,2664.7,2664.7,2669.1,2673.7,3678.9,4174.9,2655,3172.5,3172.3,5195.8,4699.4,5212.6,5216.7,5221,5225.8,5234.3,5238.9,5238.8,5234.2,5248.6,5227.4,5233.2,5234.4,5249.7,5260.7,5271.1,5286.5,5303.9,5314.8,5347.5,5372,5408.8,5438.1,5453.2,5470.9,4909.8,4404.7,4402.4,3885.1,3881.1,3875.6,3864.2,3859,4350.1,3826.6,4313.9,3805.2,4283.9,4269.8,3784.8,4288.7,4872.2,4880.2,4910.5,5401.4,4945.5,4964.7,4423.8,4939.9,4925.6,4351.5,5345.3,5293.8,4200.2,3671.4,4138,4605.5,4576.1,4539.5,4523.1,4507,4931,4389.9,4373,4896.2,4888.4,4888.8,4875.9,4877.4,4872.6,4846,4822.4,4796.2,4767.8,4737.4,4722.4,4229.9,4663.4,4646.1,4638.8,4206.3,4639.4,4627,4623.3,4617,4591.1,4166.9,3296.2,4588,4578.7,4562.2,4542.8,3246.6,4485.1,4447.6,3949,4306,2995.8,4212.2,3753.3,3728.4,4116.5,4094.7,4087,4091.3,4078.5,4068.9,4050.8,4036.2,4013.5,3987.7,3956.5,3936.5,2845.9,3173.2,3888.3,3892.1,3527.7,3546.6,3968,4012.4,4054.5,3704.9,3727.9,4158.1,4168.3,3326,3751.5,4170.4,4161.1,4145.6,4143.8,4118.9,4114.4,4101.7,4085.5,4077.4,4071.9,4065.2,4063.5,4067.1,4068.8,4071.2,4063.6,4067.6,3689.6,3683.3,3652,2709.9,2648.2,1474.2,1469.9,1829.7,1827.4,2217.3,1825.1,2280.2,2593.7,2932.7,3620.3,3245.1,3547.6,2837.3,3154.1,3142.8,2813.4,1851.5,2449.5,3083.9,3096.5,3072.1,2724.4,2402.3,1702.8,2014.7,2009.4,2005.1,2009.9,2004,2710.1,2063.1,2052.8,2043.3,1694,2036.4,2031,2028.8,2018.6,2006.4,2006.2,2347.2,2351.9,1964.4,2343,2335.1,2339.3,1945,1946.5,2333,2326.8,1976.6,1968.4,1958.8,1580,1578.5,1857.7,2529.4,2787,2436.3,2424.6,3090.4,2784.1,3047.4,2699.2,2690.4,2683.8,2672.8,2658.5,2094.4,2365.2,2647.5,2646.1,2646.4,2647.9,2648.1,2649.5,2650.8,2372,2377.8,2666.9,2670.9,2673.3,2101.8,2098.7,2090.1,913.6,1435.9,2015.7,1730.3,2008.7,2001.1,1986.4,1970.9,834.9,1939,2204.1,2189.8,2176.9,1886.6,2157.6,2152.1,2145.5,1861.3,1858.6,1856,2136.3,2691.1,2684.1,2675,2662.9,2373.1,1807.3,1793.7,1780.3,1769.3,1756,1741.3,1729.8,1721,1713.5,1703.5,1700.9,1697.7,974.8,1704,2426.6,2426.4,2424.3,2418.7,2414.9,2405.8,2401,2395.4,2382.8,2360.9,463.9,451.2,446.2,664.5,0,208.7,0,0,0,0,1108.3,1099.7,1091.2,1297.5,1711.7,2126.7,2120.7,2112.6,2106.2,2094.8,2088.9,2083.7,2078,2072.5,2067,2060.3,2053.5,2047.3,2043.2,2037.2,2033.7,2028.3,2025.6,2021.2,2015.8,2008.5,2002.5,1996,1989.6,1985.2,1981.3,1977.5,1973,1971.2,1965.4,1956.2,1951.4,1944.8,1939.1,1933.5,1928.6,1923.1,1918.9,1918.5,1921.4,1923.2,1927.4,1929.2,1930.3,1931.5,1934,1934.1,1934.8,1937.9,1937.9,1939.1,1938.5,1937.2,1936.6,1936,1935.4,1936.6,1936,1934.7,1933.5,1932.3,1931,1929.3,1928.6,1927.3,1926.2,1925,1922.5,1922,1922,1920.8,1919.7,1918.5,1919.1,1918.4,1917.2,1916.5,1915.8,1914.1,1914.1,1912.9,1913.5,1913.5,1914.6,1915.9,1916.6,1916.6,1919
4544,4558.3,4568.7,4148.6,3729.7,4635.6,4657.3,4681.2,4691.4,4694.1,4714.5,4724.5,4731,4730.7,4730.6,4726.8,4719.6,4723.2,4719.8,4716.4,4716.3,4260.6,4738.1,4749,4775.3,4801.5,4809.1,4836.2,4844.5,4852.3,4852.3,4852.3,4841.2,4826.4,4822.3,4810.4,4810.4,4810.7,4806.8,4810.9,4818.4,4837.4,4845,4848.6,4859.9,4864.2,4875.4,4887,4903.3,4915.3,4919.1,4930.8,4947.1,4962.7,4966.6,3021.9,3041.3,2540.8,2536.7,2541,2541,2537,2537,2541.3,2541.3,2545.3,2545.3,2549.5,2553.6,2566.4,2574.8,2583.4,2592.3,2610,2618.8,2632.5,2637,2650.8,2655.1,2659.9,2668.9,2673.7,3195.3,5185.1,4683.9,3185.9,3185.9,3181.3,4195.7,4712.9,5229.9,5234.3,5242.8,5252,5256.1,5261,5274.5,5244.4,5249.8,5246.3,5247.8,5257.9,5268.6,5275.3,5280.2,5291.5,5299.6,5319.6,5347.2,5380.3,5412.9,5441.9,5465.4,5476.1,4918.2,4409,3899.9,3884.8,3880.8,3880.5,3870.1,3860.9,4944.7,4912.3,4885.6,3328.7,3793.6,4775.1,3778.2,4760.7,4864.8,4882.1,4906.8,4923.8,4955.8,4974.7,4974.1,4964.1,4414.1,3839.5,4867.8,4820.2,5283.6,4199.1,3670.6,4132.9,4600.3,4580,4555.3,4531.2,4524.6,4951.3,4944.3,4931.8,4923.5,4919.8,4908.2,4905,4892.6,4417.9,4841.5,4808.3,4773.8,4747.3,4721.6,4225.3,4670.5,4649.4,4645.7,4206.3,4631.8,4633.9,4626.5,4613.3,4594.3,4167.1,4170.2,4591,4129.5,4566.5,3679.9,4523.1,3621.7,4024.1,4380.2,4318,2998.3,3792.9,4177.6,4147.2,4122.3,4106.1,4095.7,4094.7,4084.3,4072.1,4059.5,4034.4,4004.6,3980.7,3950.1,2851.5,3189.7,3887.5,3882.3,3885.7,3901.4,3549.5,3576.7,4012.9,4057.3,3705,3733.3,4155.3,4177,3323,4181.7,4180.6,4168.6,4153.3,4148.8,4131.3,4122.4,4109.6,4098.8,4093,4084.3,4074.5,4072.8,4078.9,4083.8,4083.3,4087.3,3711.4,3696.7,3260,2814.5,1936.6,1931.6,1483.8,1479.4,2264.1,2675.3,1804.1,1793.4,2284.8,2599,3312.4,3627.5,2543.8,3194.5,2846,2785.3,2783.5,2454.7,1493.2,1792.9,2482.4,2787,2433.1,2381.6,2067.6,1664.7,1980.3,1975.9,2670.8,2672.7,2669,2384.9,2039.9,1715.2,1705.7,1698.3,1365.3,1361.7,1704.6,2027.5,2354.1,2704.3,2713.1,2356.7,1615,1995.4,2331.5,2338,2341,2337.5,2324.2,2656.5,2667.3,2943.6,2564.6,2547.3,2540.9,2488.3,2462.7,2448.4,2430.6,2416.2,2403,2106.5,2377.4,2682.2,2675.6,2672.3,2333,2331.6,2093.1,2364.1,2327.5,2327.7,2645.4,2645.4,2646.8,2328.7,2326.9,2366.2,2378.2,2653.5,2659,2660.2,2655.3,2094,1768,1451.2,593.6,1421.2,1997.1,1712,1981.8,1967.5,1948.4,1933.4,1627.2,1895.8,1883.1,1876.2,1866.4,1861,1857.8,1853.8,1852.8,1849.1,1848.7,1848.2,2680.1,2674.3,2664.1,2380.4,2093.9,1804.1,1792.7,1780.4,1766.4,1756,1743.4,1731.9,1720,1713.5,1703.4,1701.8,1698.6,974.8,1943.6,2428.4,2428.3,2425.3,2422.5,2416.9,2405.8,2400.9,2395.4,2381,2358,1158.4,451.2,447.8,664.5,212.3,209.5,0,0,0,0,223.9,1101.3,1305.1,1297.5,2135.8,2129,2121.5,2114.1,2105.5,2095.6,2089.7,2082.9,2076.6,2069.6,2065,2057.7,2052.9,2046,2041.8,2037.1,2033.8,2029.6,2028.2,2023.8,2017.9,2009.8,2003.9,1998.5,1991.5,1986.4,1983.2,1978.1,1975,1971.2,1965.4,1956.8,1949,1943,1939.2,1932.3,1925.9,1921.9,1918.3,1916.1,1919.5,1922,1926.2,1928,1929.8,1929.7,1932.7,1934.2,1935.4,1937.2,1938.5,1938.4,1939.7,1939.6,1938.4,1937.8,1939.1,1938.5,1936.5,1937.2,1934.8,1934.2,1932.4,1931.8,1930.5,1928,1928.5,1927.8,1926.3,1925.1,1925.1,1924.8,1924.3,1923.2,1922.6,1922.5,1920.7,1919.4,1918.8,1917.5,1915.9,1913.5,1914.6,1915.8,1916.5,1917.7,1918.3,1918.4,1922.2
3668.5,4115.8,4123.3,3256.9,2395.2,4631.1,4644.4,4657.9,4664.7,4677.3,4690.7,4696.8,4699.4,4694.9,4698.3,4705.4,4694.9,4695.1,4695.1,4691.7,4695.1,4699.1,4709.4,4727.5,4753,4771.8,4794.7,4806.1,4817.6,4829.3,4841,4837.3,4818,4810.6,4799.2,4799.2,4795.1,4791.4,4791.7,4792.3,4795.7,4807.1,4822.3,4825.9,4841.1,4848.9,4864.1,4875.8,4899.7,4903.9,4911.4,4927.5,4927.8,4947.5,4954.4,4488.4,2540.6,3049.7,2536.7,2545.3,3062.8,2541.2,2541.2,2541.2,2541.3,2549.6,2541,2545.1,2557.9,2562,2574.8,2588,2596.6,2610,2618.8,2627.8,2636.8,2650.5,2659.7,2668.9,2668.9,3169.9,4692.9,3696.1,3704.3,3704.3,4192.3,3194.9,4705,4717.6,5235.1,5239,5248.1,5252.7,5256.9,5271.1,5275.9,5263.1,5269.1,5265.7,5267.2,5268,5273.1,5288.9,5295.9,5306.8,5308.4,5315.3,4816.8,5369.7,5417.5,5447.1,5465.2,5474.6,5487.9,4418.1,4422.4,3895.3,3891.3,3881.9,3871.4,4432.5,4923.8,4893.3,4885.3,4281,3765.2,4753.5,4739.5,4751.1,4754.4,5335.1,5368.4,5402.4,4937.6,4373.5,4968.9,4963.7,4939.5,3848,4345,4316.9,5301.4,5251.2,4184.3,3665.5,4132.4,4600.9,4584,4559.7,4561.2,4984.2,4968.2,4960.1,4951.7,4944.7,4939.9,4928.5,4907.8,4887.5,4852.5,4821.5,4777.1,4750.2,4727.5,4221.6,4666.1,4652.2,4637.6,4640.6,4635.5,4641.2,4630.5,4613.9,4597.7,4598.5,4595.3,4170.4,4123.2,4563.8,4554.3,4527.8,4503.1,4464.2,4393,3896.4,2998.2,3795.9,4186.4,4149.9,4128.1,4106.3,4098.9,4098,4093.8,4078,4060.4,4037.8,4008.1,3977,2861.5,3196.1,3900,3881.8,3875.1,3885.7,3901.4,3935.4,3968.9,4013.2,4063,3707.8,3730.6,4157.8,4176.6,3325.6,4175.2,4175.3,4163.3,4155.4,4148.6,4136.7,4130.1,4114.1,4108.9,4102.3,4096,4089.7,4087.2,3704.5,3311.3,2928.3,2930.4,2916.6,2907.2,2901,1596.9,1157,712,1155,1489.1,1463.2,2645.9,2273.6,1873.1,1094.5,1094.5,1475.8,2511.6,2138.2,2104.7,2096.7,2418.6,2411.8,2085.2,1124.5,1114.7,1108.1,1397.4,1385.4,2053.8,1978.6,1676.5,1242,1963.5,1974.4,2685.7,2027.8,1351.4,1354.9,1360.2,1367.5,1030.7,1030.7,1030.7,1344,1332.7,1318,2002.7,1999.5,1998.6,1610.9,1996.9,1984.5,1297.7,1627.8,1303.9,1303.9,1306.1,1606.4,1594.2,1894.4,1885.1,1877,1865.1,1478.4,1470.1,1456.7,1443.4,1788.9,1778.7,1421,1728.9,1725,1729.6,1724,1721.2,1163.6,1436.8,1719.6,1722.4,1720.1,1721.7,1719.5,1718.9,1718,1715.8,1450.8,1424.9,1724.8,1724.7,1722,1719,1172,1170,1168.5,587.8,1414.6,1704.4,1414.3,1681.4,1668.9,1652.6,1639,1624.7,1615.3,1607.7,1604.4,1856.8,1850.3,1591.8,1591.8,1591.8,1589,1589.9,2416.8,2135.8,2129.1,2121.4,2092.9,1806.5,1792.7,1778.3,1769.6,1754.3,1742.6,1734.6,1723,1713.5,1706.1,1701.8,1696.6,1453,2184.2,2430.3,2430.3,2426.5,2422.5,2417.9,2406.7,2155.7,2391.6,2379.2,2352.6,1381.4,452.8,448.6,659.1,648.3,636.4,0,0,0,0,224.7,1315.2,1307.5,1302.7,2139.6,2131.2,2123.7,2116.3,2106.9,2092.7,2089.7,2083.5,2074.5,2068.9,2062.9,2056.3,2050.1,2046.7,2041.9,2038.4,2033.2,2031.7,2029.6,2025.7,2019.8,2013.8,2007.9,2001.1,1995.4,1991.4,1984.4,1979.4,1975.7,1973.2,1966.1,1957.4,1948.4,1943,1936.8,1929,1925.3,1919.5,1914.2,1915.5,1918.9,1922.6,1926.8,1927.4,1929.8,1930.3,1932.8,1934.3,1936.1,1937.3,1938.5,1937.1,1939,1939.7,1939.7,1939.8,1940.4,1939.7,1938.4,1939.7,1937.8,1936.6,1934.8,1933,1933.6,1932.4,1931.7,1929.1,1928.5,1926.7,1927.3,1927.3,1926.8,1926.2,1925.4,1924.7,1923.5,1922.3,1923.6,1923,1920,1918.9,1918.8,1919.4,1920.6,1921.3,1922,1923.9,1926.3
3234.7,3245.7,3697.3,2830.5,3717.3,4613.7,4624.3,4640.9,4644.5,4653.5,4659.6,4661.8,4661.1,4667.3,4670.3,4670.2,4670.4,4673.9,4674.1,4677.5,4677.5,4688.5,4695.3,4720.4,4731.2,4756.8,4779.2,4790.4,4813.3,4817.2,4824.9,4813.2,4809.8,4802,4791.1,4783.7,4780,4780,4780.3,4784.1,4791.5,4810,4821.7,4829.3,4845.1,4852.8,4856.6,4884.1,4892,4899.8,4907.7,4919.8,4927.9,4935.4,4946.5,4488.1,4488.5,4014.9,3542.7,3049.9,3045.8,3050.1,2541.2,2545.5,2541.2,2545.5,2549.4,2549.4,2557.9,2562,2574.8,2583.7,2592.3,2605.4,2614.4,2627.8,2645.8,2655.1,3168.4,3177.5,3683.4,5194,4705.7,4710.3,4209.6,4214.2,5231.7,4209.3,4727.1,5257.4,5248.4,5266.4,5266.4,5279.9,5276.2,5285.4,5286.6,5283.6,5275.1,5271.9,5273.7,5274.9,5272.3,5277.5,5288.4,5303.7,5305.4,5325.7,5348.9,5376.2,5403.7,5431.9,5441.3,5460.4,5469.7,4929.4,4419.5,4410,3898.2,3884.5,4908.9,4894.6,5338.5,5317.7,5297.6,4730.6,4735.3,4732.2,4731.1,4728.6,5290.1,5317.7,5355.7,5384.4,5420.5,5422.9,4956.2,4935.7,4925.3,3847.2,4339.6,4284.5,4787.7,5235.4,5199.7,4158.9,4146,4617.3,4609.9,4589.4,4573.8,4571,4991.8,4984.2,4968.5,4964.7,4955.8,4948.1,4939.3,4902,4424.3,4299.3,4783.6,4753.4,4730.7,4224.4,4669.4,4648,4637.6,4636.6,4638.5,4638.5,4627.2,4610.2,4595,4588.2,4592.4,4589.6,4583.5,4571.5,4555.5,4528.5,4509.7,4467.9,4392.7,3893.3,3853.9,4217.6,4189.3,4155.2,4128.1,4112.1,4102.5,4104.2,4097.5,4082.1,4064.6,4036.4,4006.9,3246.3,3584.5,3917.7,3897.4,3881.8,3875.3,3886.9,3902.1,3932.3,3970.9,4015.4,4065.3,3705.2,3730.6,4155.2,4170.9,3327.8,4177.4,4172.2,4167.8,4163.2,4155.6,4144.2,4137.4,4128.4,3735,3340.6,3330.8,2944.3,2934.6,2936.8,2933.5,2928.3,2921,2913.4,2907.2,2897.9,2027.5,2009.6,1984.6,1973.8,1915.2,2717.7,1904.8,1851.6,1807.2,1164.8,1394.4,1068,2511.8,2469,1783.8,1775.6,2092.3,2421.5,2090.2,1446.9,1438.8,1437.4,1438.7,1394.2,1712.6,1673.5,1359.6,1353.7,1680.7,1998.5,1673.3,1691.3,1694.8,1367.4,1369.4,1713.4,1719.2,1717.6,1719.9,2065.1,2052.6,1365.8,2030.9,1726.9,1722.1,1329.8,1713.2,1710.4,2015.7,2013.3,1671.3,1669.5,1633.1,1626.6,1613.8,1927.1,1283.5,1282.2,1587.1,1877.2,1197.8,888.8,1180.8,1801,1781.3,1479.4,2032.6,2026.3,2027.4,2022.9,1741.4,1451,1734.7,2015.9,2018.8,1722.9,2020.7,2021.1,2020.1,2019.4,1735.7,1745.9,2024.7,2027.3,2032.4,2027,2023.7,2024.4,1461.5,1461.3,1455.5,875.7,1719.2,1704.4,1118.5,1684.2,1666.6,1928.9,1910.8,1893.1,1610.4,1874,1868.8,1862.6,1857.1,1855.1,1852.7,1853.3,1851.8,2400.2,2120.4,1838.9,1829,1825.1,1812.7,1799.7,1786.3,1774.4,1760,1746.2,1733.7,1722.9,1712.5,1705,1700.8,1696.6,1454,2425.8,2429.4,2428.5,2426.5,2421.6,2415.2,2403.6,1907.9,2382.6,2371,2106,1373.7,677.5,449.4,655.9,865.9,856,211.6,0,209.5,416.8,647.5,1320,1312.2,1304.3,2144.1,2133.3,2125.9,2115.5,2106.9,2094.1,2088.1,2082.1,2073.8,2067,2062.2,2056.3,2050.8,2046.6,2040.6,2039.2,2035.1,2034.4,2032.4,2026.4,2022.3,2015.7,2011.3,2005.8,1999.3,1992.8,1986.3,1982.5,1977,1972.6,1966.8,1957.4,1949.6,1942.3,1936.2,1928.4,1923.6,1918.9,1914.8,1914.3,1917.8,1922.1,1924.3,1926.8,1929.2,1932.3,1932.9,1934.1,1936.2,1936.7,1937.3,1938.5,1938.5,1939.7,1940.4,1940.4,1940.4,1939.1,1940.3,1941.6,1940.3,1938.4,1937.8,1937.2,1936.6,1936.1,1934.8,1934.7,1932.2,1931,1932.2,1932.2,1931.7,1929.9,1929.8,1928.4,1927.2,1927.2,1926.6,1926.6,1926,1924.2,1924.3,1926.1,1926.1,1926.7,1925.6,1926.8,1927.5
3671.9,2808.9,2819.8,3710.8,4600.6,4613.8,4617.7,4620.6,4626.5,4625.9,4635.1,4641.1,4636.7,4639.7,4646.3,4656.5,4656.5,4660,4663.5,4674.1,4670.6,4685,4699.1,4716.6,4734.7,4760.2,4778.7,4793.7,4805,4816.5,4820.2,4816.7,4805.1,4797.5,4786.5,4779.1,4782.8,4775.5,4772,4783.6,4790.9,4809.5,4817.6,4837.2,4840.9,4856.2,4867.9,4880.3,4888.2,4900.2,4907.9,4911.6,4923.8,4931.1,4946.5,4957.4,4969.1,4491.7,4500.1,4019.2,3530.7,3041.5,3046,2541.2,2541.2,2549.6,2553.7,2558.1,2562.2,2570.5,2574.8,2588.1,2596.8,2605.8,2618.8,2628.1,2646,3636.9,3653.3,4154.8,5177.5,4702.3,5219.9,5232.6,5236.7,5245.3,5254.2,5253.9,5262.3,4753.5,5279.8,5275.8,5285,5285.7,5295.7,5296.4,5301.9,5288.8,5281.5,5283.3,5271.7,5278.4,5275,5276,5295.3,5295.7,5309,5327.7,5345.7,5378.3,5400.7,5424.6,5453.2,5457.3,5462.2,4412.1,4916.7,4404.1,3895.5,4388.5,4870.3,5336.8,5296.6,5273.3,5257.9,5234.7,4716.9,5248.4,4714,4784.4,4796.5,5298.9,5335.9,5363.8,5388.4,5411.9,5409,5407.2,4894.2,4360.1,4335.8,4799.2,4766.8,4739.5,5185.7,5149.7,4138.7,4125.9,4602.8,4589.5,4586.5,4575.4,4567.7,5004.1,4993.3,4988.4,4975.9,4959.9,4951,4462,4870.3,4310.8,4787.2,4763.3,4729.9,4697.6,4672.5,4647.6,4640.7,4636.6,4642.8,4638.1,4631,4607.4,4605.2,4598.9,4599.5,4596.6,4587.1,4571.8,4558.7,4535.3,4513.8,4468.4,4399.1,4332.7,3853.1,4230.7,4207.7,4170.7,4146.3,4124.7,4114.4,4113.6,4104.2,4091.6,4071.7,4041,4008.4,3976.6,3947.9,3927.5,3902,3890.2,3889.6,3897.3,3912.6,3586.9,3977.7,4020.9,4063.9,4104.3,4143.6,4158.4,4170.9,3319.5,4175.5,4171.2,4161.9,4157.6,4150.7,4139.2,4137.6,3750.6,3345.1,2962.8,2954.2,2944.3,2938,2940,2936.7,2928.3,2917.7,2913.4,2904,2898,2873.7,2420.9,2384.5,2748.9,2730.8,2729.1,2727.5,1902.9,2210.1,2184.1,1850.9,1764.7,2108.7,2518.6,1826.1,2157.7,2146.8,2471.2,2455.5,2123.5,2119.2,1795.3,1802.4,1089.3,1392.9,1378.9,1059.8,2066.2,2065.2,2397.7,1690.2,2082.3,2416.5,1373,1753.4,2458.8,2457.2,2460.5,2454.6,2440.7,2427.8,1370.3,2409,1733.4,1728.6,1711.8,2100.5,2100.6,2421.7,2412.7,2059.3,1724.9,2044.6,2356.7,2336.8,2307.6,2291.4,2277.4,2268.6,2247.9,1590.8,1518.7,897.1,1196.3,1517,1502.6,1779.5,2068.2,1757,2062.1,2056.2,1469.6,1469.6,2053.4,2054.8,1756.1,2053.9,2055.5,2057.3,2057.6,1761.8,1180.4,2057.8,2061.7,2065.7,2061.5,2058.3,2053.4,2054.3,1467.8,1462.4,1462.6,868,1730.2,1709.7,1410.2,1975.6,1952.5,1933.6,1916.6,1622.8,1890,1881,1872.4,1864.8,1861.5,1860.2,1860.8,1858.2,1857.7,1854.1,1846.5,1836.5,1829.3,1823,1808.3,1791.3,1777,1764.9,1746.2,1737.4,1724.7,1714.4,1705.9,1699.9,1697.6,1692.6,2427.7,2428.6,2426.7,2424.6,2419.1,2413.4,1917.8,1903.4,1895,1881.3,1622.3,1598.1,677.5,669.6,655.1,1080.5,1067.7,633.4,210.9,418.2,418.2,1325,1326.4,1316.9,1309,2147,2139.3,2127.3,2119,2107.6,2094.8,2088.1,2081.4,2073.8,2067,2061.6,2057,2051.5,2045.2,2041.8,2039.9,2038.4,2035.7,2032.5,2029.9,2025,2021.1,2013.8,2008.5,2000,1995.4,1990.2,1984.3,1979.4,1975.6,1967.4,1958,1949.6,1942.3,1936.2,1929,1923.5,1918.2,1915.3,1914.2,1916.6,1921,1923.8,1926.1,1927.9,1929.8,1931.1,1933.5,1935.5,1936.1,1936.1,1937.3,1938.5,1940.3,1942.2,1941.5,1942.8,1942.1,1942.2,1943.4,1941.6,1940.9,1938.5,1939.1,1939.7,1938.5,1936.6,1937.2,1935.8,1935.2,1936.6,1936.7,1936.8,1934.9,1935.4,1934.8,1932.8,1932.1,1933.3,1930.9,1929.7,1929.7,1929.1,1929.1,1930.3,1930.4,1930.4,1930.4,1934
4115.8,4563.6,4563.6,4583.6,4600.5,4599.9,4606.8,4613.8,4609.4,4615,4614.6,4620.5,4616.2,4622.5,4629.3,4639.5,4642.9,4646.3,4656.7,4660.4,4674.4,4681.4,4706.4,4723.8,4745.4,4763.8,4778.4,4797.3,4808.5,4819.8,4819.9,4816,4808.2,4804.4,4785.8,4785.9,4778.4,4771.3,4775.3,4782.9,4797.8,4805.9,4825.2,4840.7,4848.6,4856.3,4868.1,4884,4896.1,4904.1,4907.9,4916,4915.8,4935,4938.4,4949.5,4960.9,4976.3,4984.7,4992.4,4992.4,5004.5,5008.8,4516.3,2554,2554,2562.5,2557.9,2562,2575.1,2579.2,2588.1,2601.2,2610.2,2619.1,2632.7,5067.4,5091.4,5127.8,5152.9,5177.5,5194.5,5219.9,5237.2,5245.6,5258.3,5267.6,5281,5289.6,5298.1,5293.4,5298.7,5299.6,5304.8,5314.9,5314.9,5312.7,5301.1,5288.5,5286.6,5279.1,5286.3,5283,5288.2,5294.8,5304.3,5306.3,5330.3,5348.8,5375.7,5396.6,5435.3,5444.9,5455.3,5451.7,4921.1,4892.2,4880.3,4852.9,4860.7,4857,5309.4,5276.2,5255.8,5237.3,5218.8,5222.8,4697.8,5223.1,4760.4,5230,5267.1,5302.7,5340.3,5359.8,5376.7,5360.4,5368.6,4858.8,4834.4,4317.3,4778,4746.1,4718.5,5157.8,5128,5105.5,4616.7,4616.6,4599.9,4591.8,4588.1,4568.3,5016.8,5008.5,5004.8,4992.2,4984.5,4954,4933.9,4442.3,4842.4,4796.6,4766,4729.3,4700.2,4672,4661.5,4650.8,4646.5,4646.2,4652.6,4635,4624.4,4608.2,4609.2,4613.4,4603.3,4600.1,4580.5,4561,4536.9,4525.1,4482.9,4416.3,4349.8,4297.7,4252.9,4226.7,4194.9,4169.9,4142.6,4132.1,4125.8,4116.8,4098.6,4081.2,4055.3,4022.2,3992.8,3970.9,3944.5,3930.2,3914.9,3918.2,3928.7,3936.4,3966.4,4002.4,4038.9,4081.1,4114,4146.2,4164.1,4179.3,4185,4173,4166.5,4165,4158.1,4155.4,4142.2,3357.1,3353.3,2970.7,2966.2,2954.2,2947.7,2944.3,2940,2936.7,2928.3,2917.7,2916.6,2907.2,2901,2876.6,2834.2,2789.7,2759,2747.6,2745.5,2749.1,2737.5,1843.4,2679.1,2213.3,1871.3,2174.5,2137.4,2556.8,2543.5,2532.3,2532.8,2520.5,2512.6,2498,2497.9,2508.4,2168.3,1809.6,1790.6,2426.8,2418.9,2093.3,2432.8,1710.4,2437.5,2445.1,2079.4,2471.7,2474,2475.8,2472.1,2469.6,2459.4,2453.4,1377.5,2439.5,1738.3,1741.3,1716.5,2452,2112.4,2455.1,2443,2428.6,1733.9,2401.9,2388.2,2371.2,2347.9,2336.4,2327.2,2323.6,2307,1960.5,1893.9,1553.3,601,598,596.5,1537.4,2127.1,1801.5,2116.1,2103.7,2099.2,1804.3,2098.8,2098.7,1789.5,2099.1,2100.8,2099.6,2101.3,1792,1809.4,1522,919.3,1224.1,2096.5,2093.2,2088.6,2087.2,2084.8,2080.9,2078.6,2073.4,2061.4,2050.1,552.3,840.2,851.2,1122.8,1661.4,1365.4,1910,1898.4,1885.8,1874.8,1867.8,1866.7,1866.2,1867,1864.4,1861.8,1854.1,1843.2,1834.5,1828.2,1818.7,1801.7,1782.1,1764.8,1750,1737.3,1725.6,1715.4,1706.1,1699.9,1694.7,1691.6,2426.7,2427.7,2427.6,2422,2418.2,2409.4,2398.1,1897.8,1888.4,2115.5,2092.6,1594.1,677.6,671.2,870.4,1081.2,1072.8,635.6,421.1,419.6,630.5,1554.7,1540.6,1531.6,1735.5,2150.8,2140.9,2128.8,2120.6,2107.6,2094.7,2088.1,2081.5,2075.2,2069.7,2063,2057.6,2052.2,2048,2045.2,2041.8,2039.7,2037.8,2035.7,2031.9,2027.7,2023.1,2016.9,2009.9,2004.4,1998.6,1991.5,1984.3,1981.2,1976.3,1968,1959.8,1950.8,1944.1,1934.8,1928.4,1923.5,1918.2,1915.2,1915.4,1917.9,1921.5,1923.8,1924.9,1927.3,1929.8,1930.4,1932.2,1934.3,1935.5,1937.3,1938.5,1939.7,1941.5,1943.5,1944.1,1944.1,1944.1,1944.2,1945.4,1944.8,1943.4,1942.8,1942.2,1941.6,1941.6,1942.4,1941.7,1941.6,1941.7,1941.6,1940.4,1940.4,1940.4,1939.8,1938.6,1937.9,1938.4,1936.6,1936.6,1935.3,1932.2,1932.8,1934,1933.3,1934,1932.8,1934.6,1739.7
4115.8,4556.1,4566.5,4572.9,4589.8,4592.4,4588.7,4588.8,4595.1,4590.9,4593.7,4599.9,4599.4,4599.2,4605.7,4612,4622.5,4629.3,4646.8,4657,4663.9,4681.7,4699.3,4727.4,4741.6,4752.5,4771,4785.8,4804.5,4815.8,4815.7,4819.4,4804.2,4793,4789.2,4785.5,4781.8,4785.8,4785.8,4790.3,4797.8,4817,4832.6,4848.6,4852.6,4860.8,4872.3,4888.2,4892.2,4900.6,4904.2,4908.3,4916.5,4927.8,4926.5,4941.7,4960.9,4968.7,4984.7,4984.4,4992.8,5004.8,5004.6,5001.7,4986.3,4024.5,3524.7,3055.1,3529.4,3533.7,4036.2,4514.3,4523.3,4527.6,4549.6,5043.7,5072.1,5087.7,5121,5145.2,5183.3,5204,5220.9,5242.2,5259.4,5272.5,5276.7,5285.1,5307.5,5302.9,5308.2,5322.7,5319,5319.6,5321.6,5308.9,5314.7,5298.9,5296.6,5285.5,5287.3,5289.4,5282.4,5282.6,5310.6,5313.8,5319,5327.4,5356.7,5374.6,5402,5426,5449.2,5445.9,5446.6,4900.7,4894.1,5385.5,5356,4838.5,5299.5,4817.2,5249,5234.4,5204.1,5192.9,5193.3,5198.1,5200.2,5198.7,5205,5245.9,5271.9,5303.3,5326.9,5332.9,5335.2,5325.2,5301.2,4707.7,4677.6,4748.2,4716.6,4689.9,5123.7,5105.9,5092.5,5079.6,5071.6,5063.5,5052.6,5041,5028.7,5023.7,5015.9,5012.7,5004.4,4437.8,4433.5,4936.8,4893.1,4845.8,4799.6,4773.4,4732.9,4696.4,4675,4653.8,4650.5,4650,4650,4655.6,4642,4631.8,4622.2,4622.3,4619.7,4615.9,4609.7,4593.5,4570.1,4552.2,4527.3,4482.3,4426.1,4361.9,4311.8,4266.6,4234.4,4208.5,4185.9,4158.2,4139.5,4133,4123.7,4103,4088.1,4059.9,4029.8,4012.3,3986.5,3963.8,3950.9,3944.7,3948.4,3961.6,3977.6,4000.9,4033.1,4061.1,4096.2,4127.4,4154.4,4167.1,4176.9,4179.4,4159.5,4161.3,4159.6,4152.8,4150.9,3360,3354.7,3354.4,2970.7,2966.2,2957.6,2947.7,2941.1,2936.9,2936.7,2928.3,2920.9,2913.4,2907,2898,2873.6,2842.5,2806.4,2785.5,2776.1,2776.1,2776.6,2774.4,2748.4,2733.4,2720.7,2713.1,2683.1,2647.5,2174.7,2608.9,2590.8,2585.4,2575,2560.2,2545.7,2536.6,2207,2198.3,2519.6,2495,2477,2470.4,2125.9,2474.6,2120.9,2474.6,2479.1,2483.7,2492.6,2497.8,2496.3,2496.4,2493.2,2490.8,2488.9,2118.4,2483.7,2130,2133,2137.5,2497.1,2135.2,2494.4,2485.2,2481.2,1759.8,2456.9,2444.3,2426.4,2403.6,2393.4,2387.7,2383.2,2371.4,2007.7,2334.9,1964.6,1942.8,2252.6,1587.5,1570.1,2182.3,2174,2164.4,2154.6,2147.9,2142.9,2141,2143.9,2142.2,2140.8,2145.2,2145.4,2147,2147.2,1846.8,1550.8,1549.3,1543.2,2136.4,2128.7,2118.3,2114.4,2113.5,2113.1,2109.6,2109.1,2100.5,2088.8,2068.8,1464.3,1448.3,1994.2,1410.3,561.1,1647.8,1912.3,1896.2,1885.1,1875.7,1873.3,1872.9,1874.8,1872.2,1867.3,1860.7,1849.6,1840.9,1832.2,1822.4,1805.7,1786.1,1769.8,1750.9,1737,1725.6,1713.4,1703.9,1695.9,1691.9,1688.9,2422.7,2423.9,2422.9,2417,2412.3,2403.7,2393.6,2134.6,2360.4,2343.6,2323.4,1592.4,675.9,893.5,1091.9,1081.2,1074.3,1068.5,1063.2,1057.4,1287.9,2195.5,2180.8,1958.8,1950.2,2151.6,2142.4,2130.2,2122.7,2108.3,2094.7,2088.1,2083.8,2076.5,2069.7,2065.2,2059,2052.8,2050.8,2046.6,2045.2,2042.5,2041.1,2039.1,2034.5,2029.8,2025.9,2018.2,2013.6,2005.8,1999.9,1994.7,1988.2,1984.2,1977.5,1967.9,1961.1,1953.2,1945.3,1936.7,1931.1,1924.7,1918.8,1915.8,1916,1919.6,1920.8,1923.2,1924.9,1927.9,1929.2,1930.4,1931,1934,1935.4,1936.7,1937.3,1939.7,1940.9,1942.9,1943.5,1944.2,1945.4,1946,1947.8,1946.6,1946,1945.3,1946,1945.4,1946,1945.4,1944.8,1944.1,1944.7,1945.9,1944.6,1944,1944,1943.4,1942.8,1942.2,1941.7,1941.5,1939.6,1938.4,1937.8,1937.8,1937.7,1938.4,1937.2,1937.7,1741.5,1741.5
4545.8,4549.5,4559.1,4576,4582.4,4588.6,4581.2,4577.7,4581.3,4573.7,4576.4,4579.3,4579.6,4582.1,4589.1,4599,4609.3,4619.7,4640.8,4654.4,4661.5,4678.6,4696.2,4720.6,4734.4,4759.9,4778.3,4793.1,4804.5,4808.3,4819.5,4815.7,4807.9,4800.4,4789.1,4789.2,4782,4785.7,4785.9,4793.8,4813.1,4821.2,4837,4852.7,4860.9,4869.6,4881.1,4885,4885,4888.8,4892.8,4900.6,4908.5,4911.2,4926.7,4941.7,4956.8,4964.6,4972.2,4980.3,4988.4,5008.7,5009,5005.8,4991.1,4984.4,4973.3,4961.2,4966.5,4971.3,4980,4989,4997,5010.6,5031.6,5048.4,5073.7,5097.3,5130.3,5151.1,5175.5,5200.6,5221.3,5247,5268.6,5272.7,5299.6,5308.8,5317.3,5321.6,5322.5,5328,5328.4,5320.7,5322.7,5315.9,5313,5306.8,5290.7,5292.3,5290.3,5282.4,5285.3,5305,5314.5,5315.1,5326.6,5341.9,5355.7,5377.6,5410.4,5419.9,5442.3,5446.5,5431.4,4892,4879.9,5367.5,5334.4,5292.8,5279.2,5259.7,5234.3,5207.7,5187.6,5171.3,5178.8,5176.1,5182,5180.7,5177.4,5214.3,5254.7,5266.9,5280.4,5305.5,5303.1,5283.5,5268.3,4677,4149,4628.1,5138.5,5125.5,5104.6,5087.1,5065.8,5069.1,5059.6,5057.1,5036.5,5041.5,5025.3,5024.4,5012.3,5020.4,5009.1,4445.2,4433.4,4949.2,4897.4,4854.7,4807.4,4770.4,4736.9,4707.8,4664.5,4649.7,4646.3,4646.4,4653.3,4656.5,4645.3,4635,4629,4629.6,4626.9,4627,4614.5,4597.4,4566.3,4545.5,4523,4484.5,4428.6,4370.4,4317.1,4280.7,4248,4216.3,4190.6,4165.5,4146.7,4137.5,4128.2,4110.4,4092.4,4072.8,4043.9,4028.7,4010.2,3999.1,3985.5,3986.4,3990,4001.3,4012.7,4040.4,4063.4,4087.5,4118.2,4141.9,4157.9,4170.2,4177.1,4176.5,4162.3,4158,4151.4,4144.7,3759.4,2978.6,2977.8,2972.1,2967.5,2960.9,2959.8,2948.7,2941.1,2933.7,2933.7,2925.2,2917.8,2907,2901,2891.9,2873.4,2851.1,2831.3,2815.3,2810.6,2810.6,2811.1,2811.1,2794.8,2783.9,2778.7,2762.3,2741,2710.7,2686.6,2666.6,2640.9,2627.8,2616.2,2594.5,2576.4,2565.8,2574.4,2560.8,2552,2535.3,2518.4,2518.8,2517.5,2521.5,2519.9,2518.4,2515,2515.6,2514.4,2511.6,2508.2,2500.5,2503.2,2501.6,2501.4,2498.2,2507.7,2511.8,2526.5,2527.6,2531.5,2530.8,2524,2518.2,2512.2,2500.6,2493.8,2482.4,2467.9,2448.3,2439,2435.1,2432.3,2422.1,2407.4,2391.2,2361.2,2335.8,2304.7,2275.3,2245.2,2231.1,2219.4,2210.8,2198.8,2188.5,2183.1,2180.7,2180.3,2180,2182.9,2184.3,2185.7,2187.2,2185.7,1877.8,2188.9,2187.2,2182.6,2164.2,2153.5,2143.2,2142.5,2135.9,2133.9,2133.8,2132,2126.2,2117.8,2102.2,2081.1,2051.9,2018.9,1984.7,1406.1,1664.9,1643.3,1900.8,1886,1876.9,1873.2,1873.7,1873.7,1873.3,1869.6,1860.6,1849.6,1840.7,1834.4,1823.5,1806.8,1786.1,1768.6,1750,1736.1,1723.6,1712.5,1701.2,1693.2,1689.2,1686.1,2418.2,2419.9,2417.9,2410.6,2405,2398.3,2387.3,2369.5,2355.2,2335.7,2087.6,2059.1,1567.5,1550.2,1092.7,1084.4,1078.2,1070.6,1064.7,1058.8,1748.1,2194.1,2181.5,2170.5,2161.9,2151.8,2143.9,2130.9,2122,2109.7,2095.4,2090.2,2084.5,2077.2,2071,2065.8,2059.6,2056.3,2050.8,2050.8,2045.9,2045.3,2042.5,2039.8,2037,2031.8,2026.5,2020.3,2014.9,2008.6,2003.2,1996,1990.2,1986.9,1980,1969.8,1962.5,1955,1947.8,1939.7,1932.4,1927.4,1923.1,1918.4,1919.6,1920.2,1921.4,1923.7,1924.2,1926.7,1927.3,1929.1,1930.9,1932.8,1934.8,1936,1938.5,1940.4,1942.3,1944.8,1946.6,1946.6,1946,1948.4,1949.6,1949,1947.8,1947.8,1948.4,1948.4,1949.6,1949,1948.5,1947.7,1947.7,1948.3,1949,1948.3,1947,1946.5,1945.9,1945.3,1945.3,1943.4,1943.2,1941.4,1940.2,1940.2,1939.6,1940.8,1940.3,1937.3,1742.4,1743
4538.6,4549.5,4555.5,4565.1,4571.4,4574.5,4570.3,4570.3,4563.1,4559.6,4563,4562.7,4565.6,4572.5,4575.8,4582.5,4599.9,4610.3,4624,4641.3,4651.5,4683.4,4696.9,4717.4,4738.5,4763.6,4774.5,4789.5,4808.2,4815.9,4815.8,4823.3,4808,4804.6,4793.2,4789.5,4789.5,4793.6,4801.3,4805.1,4824.9,4832.8,4848.6,4860.8,4877.1,4877.8,4881.6,4889.8,4893.6,4893.6,4897.6,4896.9,4901.2,4904.1,4919.1,4937.4,4941,4960.5,4980.1,4987.9,4992.7,5000.5,5021.4,5013.7,5007.4,4984.4,4976.9,4970.6,4979.3,4980,4984.4,5001.8,5011.1,5027.3,5040.2,5056.9,5086.3,5106.9,5130.5,5150.7,5172.1,5196.8,5218.4,5247.8,5260.2,5291.4,5304.2,5308.3,5336.1,5331.4,5336.2,5342.3,5333.8,5336.5,5320.2,5325.7,5305.7,5295.5,5292.3,5291.7,5283.8,5287.5,5296.9,5302.6,5303,5319.8,5320.4,5345.1,5362.9,5380.8,5413.6,5423.4,5438.8,5434.1,5418.3,4882.2,4870.3,5353.3,5313.8,5272.8,5260.4,5237.7,5219.6,5191.6,5169.9,5157.1,5164.4,5161.7,5154.8,5155,5155.7,5176.2,5208,5231.9,5253.1,5263.1,5260.5,5249.9,5229.4,4661.9,4630.9,4604.5,4578.4,5098,5073.7,5055.9,5046,5050.9,5049.8,5032.1,5041.8,4573.9,4566,5029.8,5021.3,4568.5,4568.4,4560.5,4996.5,3967.3,4379.9,4349.2,4808.6,4766.5,4747.9,4704.8,4678.6,4657.3,4649.8,4653.5,4653,4659.9,4659.9,4642.9,4632.5,4630.4,4633.6,4620.9,4614.4,4597.4,4569.2,4548.2,4519.6,4484,4424.8,4376,4319.8,4280.2,4250.4,4224.3,4189.9,4164.7,4143.2,4139.2,4127.4,4112.4,4092.3,4069.2,4056.4,4038.1,4027,4015.9,4004,4007.5,4019.2,4031.2,4040.7,4063.5,4087.5,4106.8,4132.5,4150.5,4166.2,4173.5,4177.4,4176.5,4162.3,4150.3,4148.6,4142.2,4146.2,3361.3,3361.4,2969.8,2967.5,2965.4,2959.7,2948.7,2944.5,2937.1,2933.7,2925.2,2914.7,2907,2895,2891.9,2873.5,2856.7,2842.5,2831.6,2829,2829.3,2831.9,2832.3,2823.9,2812.3,2803.8,2792.9,2778.9,2750.1,2729.8,2704.3,2672.1,2657.4,2638,2619.1,2596,2589.6,2589.7,2577.9,2571.1,2562.6,2545.5,2543.5,2541.9,2542.4,2541.1,2530.6,2526.9,2522.2,2520.9,2514.2,2508.7,2510,2506.5,2508.8,2509.4,2512.3,2517.9,2530.3,2542.2,2545.5,2547.2,2552.8,2547.4,2539.9,2533.6,2524,2513.2,2506.1,2489.1,2473.3,2463.5,2459.3,2462.9,2454.8,2446.1,2427.2,2404.6,2380.4,2349.3,2317.4,2291.2,2271.4,2259,2247,2232.7,2218.5,2211,2210.4,2211.5,2207.7,2210.3,2211.6,2214.4,2215.9,2215.8,2217.4,2220.7,2217.5,2209.6,2191,2172.5,2162.4,2155.5,2152.2,2147.3,2147.3,2145.7,2146.4,2134.1,2124.9,2108.3,2074.6,2037,1999.2,1128.8,1947.2,1925.3,1906.7,1888.3,1876.7,1874.3,1873.7,1874.6,1873.1,1869.6,1862.9,1851.6,1840.4,1834.2,1823.5,1805.6,1784.9,1764.4,1748.1,1732.4,1720.7,1708.5,1701.2,1692.3,1687.4,1683.4,2417.3,2415.2,2411.5,2405.2,2400.3,2392.7,2381.7,2363.2,2348.1,2328.7,2311.1,2293.3,1812,2258.1,1562.5,1552.3,1779.6,1772.6,1763.3,1308.5,1977.7,2195.5,2182.5,2172,2163.3,2153.2,2142.5,2131.6,2122.7,2109,2097.7,2093.8,2085.1,2079.4,2073.8,2068.3,2063.7,2058.2,2054.3,2052.2,2049.4,2047.3,2045.2,2041.9,2037.7,2031.7,2029.8,2023.1,2016.9,2011,2005.2,1997.9,1992.7,1987.6,1981.3,1972.4,1963.7,1956.3,1949.6,1942.1,1936,1930,1925.5,1921.5,1920.9,1922.5,1924.9,1924.9,1924.9,1926.1,1928.5,1928.5,1930.9,1933.4,1935.4,1936,1937.2,1940.3,1943.4,1944.1,1947.8,1947.1,1947.7,1950.2,1950.8,1949.6,1950.8,1949.6,1951.4,1952,1952.1,1952.1,1953.4,1952.2,1950.9,1950.3,1950.9,1950.9,1949.6,1949.6,1948.3,1947.1,1945.8,1945.2,1943.3,1942.1,1941.6,1941.6,1942.3,1941.1,1940.5,1939.3,1742.6,1742.5
4535,4546.1,4549.1,4558.3,4567.8,4570.3,4563,4559.4,4555.9,4556.3,4556.3,4553.2,4560.5,4563.4,4573.9,4577.4,4587.5,4608.3,4615.3,4635.5,4649.2,4669.8,4697.6,4718,4735.1,4767.7,4778.5,4800.7,4808.4,4819.7,4819.7,4820,4812.2,4804.6,4804.9,4793.6,4797.7,4797.9,4806,4817.2,4837.1,4849,4861.3,4873.3,4885.8,4890.3,4894.6,4905.7,4901.9,4909.7,4901.3,4901.3,4892.9,4892.6,4907.4,4922.1,4940.9,4956.4,4975.8,4984.1,4992.3,4996.6,5013.2,5009.9,5008,4988.7,4985.6,4979.3,4988.3,4980.8,4989.8,5007.1,5020.7,5032.7,5053.3,5074.5,5086.4,5115.1,5131.9,5156.1,5172.1,5192.4,5222.4,5244.2,5269.7,5287.3,5295.8,5317.8,5340.7,5349.4,5346.3,5347.4,5353.7,5336.5,5324.3,5317.8,5298.8,5298.8,5286.6,5283.9,5277.1,5284,5289.3,5296.5,5304.6,5316,5331.2,5340.1,5357,5381.4,5394.1,5418.6,5424.5,5427.3,5414.3,4874.6,4857.3,5336.1,5296.2,5256.1,5240.4,5217.6,5197.7,5178.6,5148.5,5143.1,5146.6,5146.7,5144.1,5136.7,5131.7,5154,5175.2,5198.5,5213.8,5212.1,5216.4,5198.8,5188.3,5151.6,4602.3,4576.8,4559.4,5062.6,5040.9,5029.8,5020.2,5019.9,5031,5022.3,5024.8,5018.1,5019,5014.5,4569.4,5013.3,4563.9,4564.1,4555.3,4417.6,4392.2,4354.4,4821.7,4782.4,4748.9,4708.2,4678.8,4654.3,4651,4646.1,4659.6,4655.8,4648.6,4639.3,4630,4634.2,4627.2,4618.3,4600.9,4583.5,4560.1,4537.8,4520,4474.5,4421.2,4366.7,4316.8,4277.3,4247.5,4215.6,4190,4159,4140.3,4131,4124.8,4104.4,4087.2,4069.9,4051.9,4041.1,4029.4,4026.5,4014.2,4015.7,4027.4,4036.9,4043.3,4069,4093,4109.6,4129.6,4150.4,4166.2,4172.9,4176.8,4173.9,4159.8,4150.3,4146.2,4139.8,4140.6,3366.1,3349.6,2969.8,2963.2,2959.7,2957.5,2945.5,2944.5,2937.1,2930.6,2925.2,2914.7,2907,2895,2891.9,2873.5,2856.7,2842.5,2828.2,2828.5,2825.9,2831.4,2831.5,2829,2820.6,2803.5,2798.2,2784.3,2757.9,2734.7,2709.1,2681.7,2230.7,2642.6,2623.7,2605,2596.2,2591.7,2586.7,2579.9,2573.5,2562.9,2564.9,2563.3,2561.8,2553.7,2545.4,2540.1,2532.7,2525.3,2518.6,2515.6,2506.8,2507.2,2510.2,2507.8,2510.1,2518.6,2533,2542.3,2550.4,2552.1,2550.5,2549.8,2547,2540.8,2531,2524.8,2515.3,2502.5,2491,2481.1,2483.5,2478.1,2474.5,2466.9,2454.2,2429.6,2408.8,2381,2353.5,2324.8,2307.8,2290,2279.3,2259.1,2249.5,2236.8,2234.5,2232.2,2231.3,2235.7,2240,2241.3,2245.9,2249.3,1923.2,2250.8,2247.6,2238.3,2214.4,2193.9,2176.3,2167.6,2161.2,2156.7,2156.5,2156.3,2155.4,2148.5,2135.3,2125.2,2093.9,2054.3,2012.8,1695.1,1951.9,1656.5,1909,1889.5,1878.9,1874.3,1874.8,1873.3,1874.2,1870.7,1862.9,1851.6,1840.4,1834.2,1823.5,1801.5,1781.9,1761.5,1746.9,1729.6,1717.6,1706.7,1697.4,1691.4,1683.7,1680.6,2414.6,2412.5,2407.9,2401.5,2394.7,2387.1,2375,2359.7,2344.7,2325.1,2082.4,2296.1,2279.6,2264.1,2252.8,2241.7,2239.1,2017.5,1580.4,1785.2,1779.2,1769,1971.6,2170.5,2162.4,2154.6,2143.1,2130.9,2125.6,2108.3,2101.3,2095.3,2088.8,2083.7,2077.2,2071.7,2065,2059.6,2056.3,2054.2,2052.1,2050.1,2046.6,2044.6,2040.5,2035,2029.8,2023.7,2018.3,2010.9,2005.2,1999.2,1993.3,1988.2,1980.6,1972.4,1964.9,1958.1,1952,1944.6,1937.8,1931.8,1928.7,1925.1,1925.1,1925.6,1925.6,1926.2,1925.6,1926.8,1926.8,1928,1929.9,1933,1932.4,1936,1937.8,1939.6,1942.7,1944.7,1945.9,1946.5,1948.3,1951.4,1953.2,1952,1951.4,1950.2,1953.3,1954,1954.6,1955.2,1955.2,1954.6,1952.8,1952.7,1952.1,1952.7,1950.8,1949.6,1948.8,1947,1946.4,1945.2,1943.9,1943.9,1941,1941.7,1941.1,1940.5,1940.5,1939.3,1741.5,1740
4545.7,4542.6,4542.5,4554.8,4561.1,4556.3,4563,4559.4,4552.5,4559.8,4560.1,4560.2,4560.6,4560.6,4565,4575.2,4589.2,4603,4616.3,4631,4647.3,4232.4,4698.8,4718.7,4743.2,4290.7,4778.5,4793.4,4808.4,4820.1,4824,4823.7,4816.3,4809.1,4805.9,4805.8,4813.5,4806.1,4818.1,4825.8,4845.1,4857.4,4873.7,4881.9,4889.9,4894.9,4894.9,4898.2,4898.5,4898.5,4890.3,4893.7,4893.7,4888.7,4899.4,4918.3,4929.2,4956.6,4968.6,4984,4992.3,5000.6,5009,5010.7,5000.2,4989.1,4982.6,4979.3,4985.4,4990.5,4990.5,5015.7,5029.7,5042.1,5053.3,5075.3,5091.9,5115.6,5137,5162,5187.8,5185.6,5214.6,5240.3,5261.4,5279,5297.1,5319.2,5337.1,5355.7,5356.7,5352.6,5340.2,5337.8,5321.4,5320.4,5295.9,5289.6,5275,5273.5,5276.3,5285.4,5292.7,5298.5,5314.8,5319.2,5327.2,5332.8,5341.3,5381,5392,5405.8,5422.7,5414.3,5402.9,4863.5,4841.1,5312.2,5272.9,5239.8,5218.8,5196.2,5178.8,5159,5138,4644.5,5132.9,5127.3,5120.5,5115.3,5113.6,5127.3,5144.6,5162,5172.8,5175.2,5176.6,5157,5143.1,5116.5,4576.3,5072,5047.9,5025.8,5006.7,4993.7,4990.3,4988.8,4992.2,4990.4,4998.7,5003,5003.6,3993.5,5006.7,4557.3,4560.5,4569.1,4547.6,4521.2,4389,4351.3,4325.1,4786.7,4752.9,4705.2,4675.7,4654.8,4643.7,4635.6,4649.1,4652.1,4645.5,4639.3,4629.6,4630.9,4620.3,4614.6,4593.9,4570,4553,4535.2,4503.7,4464.6,4412,4363.5,4313.5,4265.2,4241.7,4209.9,4172.8,4150.8,4132.4,4117.4,4105.9,4095,4079.8,4065.6,4050.2,4032.3,4024,4020,4010.4,4009.1,4015,4032.4,4046.8,4061.4,4088,4106.9,4137.9,4147.5,4159.7,4172.7,4176.9,4175.2,4161.5,4144.9,4143.7,4138.8,3754.9,3747.5,3354.3,2964.4,2960.1,2956.6,2957.5,2945.5,2937.9,2933.9,2927.4,2918.9,2914.7,2904.3,2891.9,2885.8,2870.5,2853,2838.5,2825.6,2823,2825.9,2825.9,2828.9,2820.4,2817.8,2806.3,2795,2788.4,2311.7,2288.6,2263.8,2676.9,2223.7,2208.1,2613.9,2593.2,2584.7,2584.7,2577.8,2573.3,2566.6,2564.1,2555.7,2555.9,2561.1,2557.2,2542.9,2539.4,2527.8,2518.1,2511.4,2502.8,2499.6,2498.7,2498.5,2500.8,2503.8,2511.8,2523.3,2533.7,2148.5,2546.5,2545.7,2542.6,2539.7,2530.9,2528.5,2523.8,2510.4,2497.7,2483.9,2478.7,2474.2,2473.6,2467.5,2456.3,2436.7,2410.3,2385.7,2360.5,2333.7,2305.8,1949.2,1940.8,1923.2,2236.6,2222,2216.4,2214.2,2213.8,1897.5,2217.9,2220.4,2225,2228.2,2229.7,2233.1,2234.7,2228.4,2215.8,2194,2174.1,2159.7,2148.2,2143.4,2137.3,2134.3,2136,2129.5,2128.1,2118.8,2110.5,2083.1,2048.9,2011.9,1407.4,1954.5,1931.3,1911.2,1890.7,1877.6,1871.7,1873.5,1873.2,1874.3,1869.5,1861.6,1850.5,1840.4,1825.6,1816.2,1797.3,1776.7,1760.6,1745.6,1730.6,1717.6,1705.8,1696.5,1689.5,1682.7,1925,2410.9,2408.8,2406,2396.8,2390.9,2383.4,2371.4,2356.1,2341.1,2320.8,2081.4,2071.6,2284.8,2271.8,2025.3,2254.3,2249.6,1591,1586.2,1556.9,1992.8,1983.6,2180.7,2171.1,2161.7,2153,2141.5,2133.1,2126.3,2111.1,2103.4,2099.2,2092.3,2085.2,2079.4,2073,2067.8,2063,2059,2055.6,2053.5,2051.4,2048.7,2045.2,2042.5,2037,2030.5,2024.3,2018.4,2011.6,2005.8,2000.6,1993.3,1988.2,1980.5,1973.8,1966.1,1959.9,1953.2,1946.5,1939.1,1934.3,1928.6,1928.2,1926.3,1925.7,1928.1,1926.9,1926.3,1928.8,1928.2,1930.1,1930.7,1932.4,1934.3,1935.5,1937.8,1940.8,1942.7,1943.3,1945.8,1947,1948.3,1951.3,1952.6,1953.3,1953.3,1953.9,1955.1,1957,1956.4,1956.4,1957,1955.8,1957,1955.2,1953.2,1952,1950.1,1948.2,1947,1948.2,1945.8,1944.5,1943.4,1941.6,1940.4,1940.5,1938.7,1938.7,1936.9,1937.4,1738.8,1737.5
4535.2,4542.5,4542.5,4554.8,4554.5,4557,4556.9,4557,4553.5,4560.7,4557.4,4564.8,4568.8,4566.1,4566.1,4576,4587.7,4598.5,4605.1,4625.3,4649.4,4226,4686.1,4708.5,4736.4,4290.9,4767.8,4786.1,4800.9,4812.6,4824,4824.3,4809.3,4817.1,4814.1,4810.2,4810.7,4822.3,4830,4838.3,4850.3,4862.1,4873.9,4894.1,4895.1,4899.4,4898.7,4894.6,4903.1,4899,4890.9,4882.9,4886.7,4890,4888.8,4907.1,4925.5,4960.7,4968.6,4976.3,4988.5,5000.6,5005.2,5006.9,4995.8,4989.6,4986.9,4980.8,4989.8,4985.9,4999.4,5015.7,5033.6,5050.4,5066.5,5088.4,5109.2,5124.5,5150.3,5171.7,5179.4,5191.3,5211.6,5237.3,5249.8,5267,5289.8,5310.5,5338.2,5347.2,5348,5349.4,5335.8,5337.9,5326.5,5311.5,5296.1,5276.9,5275,5273.8,5271.4,5269,5285.3,5296,5300.2,5319,5320.9,5332.9,5336.8,5367.6,5382.3,5391.8,5407.1,5403.1,5383,4837.6,4833.7,4795.2,5256.9,4764.5,5202.9,5180.3,5159.4,5142,5129.6,5118.7,5120.3,5117,5106.8,4170.6,4643.2,5095.2,5116.8,5129.1,5139.2,5134.4,5132.8,5113.4,5107.4,5084.2,5057.9,5042.7,5011.5,4987.6,4024.4,4525,4519.7,4527.6,4958.2,4529.5,4980.5,4983.7,4984.3,4987.1,4071.1,4549.6,4553.7,4557.1,4552.8,4522.1,4487.8,4348.4,4322.4,4787.6,4745.2,4709.2,4676.4,4647.4,4640.3,4635.6,4638.5,4640.8,4641.3,4631.7,4625.8,4623.1,4609.4,4593.4,4579.6,4566.2,4545.8,4525.5,4496.6,4461.1,4405.2,4357.2,4310.5,4265.4,4233.1,4201.4,4167.4,4140.4,4122.2,4107.5,4096.1,4090.6,4073.4,4058.9,4047.1,4028.2,4023,4016.5,4017.2,4010.5,4016.6,4027.6,4047.9,4067.4,4088,4107.1,4126.6,4152.8,4165.1,4177.7,4176.5,4175.3,4169.1,4154.7,4144.8,4138.1,4139.8,4128.7,3741.5,2958,2960.1,2953.5,2945.7,2942.4,2934.8,2930.8,2924.3,2918.9,2911.5,2904.3,2888.8,2885.8,2867.6,2853,2835.8,2824.7,2822.1,2820.4,2825.9,2828.9,2820.4,2812.2,2801,2794.3,2780.1,2752.1,2283.7,2701.2,2233,1899.4,2201.3,2190.5,2588.7,2580.2,2578,2577.8,2573,2566.6,2559.3,2555.7,2195.6,2562.8,1799,2548.7,2536.9,2145.3,2518.6,2509,2498.1,2493.3,2492.4,2490.1,2490.8,1738.2,2498.5,1749.8,1751.9,1754.2,2537,2146.2,2536.8,2529,2523.7,2134,2511.9,2505.7,2491.7,2479.2,2469.5,2468,2465.1,2458.4,2074,2424.2,2031,2013.4,2348.5,2318.5,2291.2,2273.6,2258.2,1925.1,1909.1,2210.6,2202.1,2198.3,2198.1,1892.9,2203.6,2209.5,2212.5,2220.5,2220.5,1892.7,1913,1906.3,1893.7,2181.6,2159.2,2144.8,2139.1,2128.6,2122.6,2120.6,2121.5,2119.1,2113.5,2102.8,2094.2,2070.4,2038.2,1149.8,847.7,1949.7,1926.4,1907.7,1888.1,1877.7,1870.5,1871.1,1873.2,1872,1867.3,1858.1,1849.4,1837.6,1821.6,1810.1,1793.3,1775.7,1760.6,1742,1729.5,1716.7,1705.6,1693.8,1687.6,1681.8,1922.1,2410.8,2407.9,2403.3,2396.8,2389.9,2380.6,2371.4,2354.4,2338.5,2320.9,1851,2304,2290,2280.2,2270.6,2263.2,2260.6,1812.7,1589.2,1560.7,1995.8,2194.1,2179,2169.3,2160.1,2149.1,2141.3,2133.1,2124.8,2111.8,2106.2,2099.9,2094.5,2087.3,2081.6,2076.6,2070.6,2064.3,2061,2057,2055.6,2052.1,2049.3,2047.3,2042.5,2036.4,2030.5,2025.7,2019,2012.9,2007.1,2001.3,1994,1987.6,1980.5,1971.8,1966.1,1959.8,1955,1947.7,1941.5,1936.7,1932.4,1930,1930,1928.7,1928.9,1929.5,1928.3,1928.9,1928.9,1930.1,1931.9,1931.8,1934.3,1936.6,1937.8,1941.5,1942.1,1944.5,1945.2,1946.4,1947.6,1950.6,1951.3,1952.7,1953.9,1955.1,1956.3,1957,1958.2,1958.8,1958.1,1956.9,1956.3,1955.1,1953.9,1952.5,1950.1,1949.5,1947,1946.4,1944.6,1942.8,1941.6,1940.5,1938.2,1937.7,1936.5,1935.3,1934.6,1935,1935,1735.1
4535.2,4542.5,4542.5,4551.9,4558.1,4558,4554.5,4554.5,4551,4558.2,4561.7,4565.6,4566.6,4570.2,4570.6,4582,4589.8,4596.8,4604.2,4619.8,4183.9,4209.5,4202.3,4232,4718.7,4742.8,4756.9,4771.5,4793.9,4809.1,4817.2,4817.2,4817.8,4821.9,4818.8,4822.6,4823.3,4831.3,4839.5,4836.3,4848.2,4859.3,4875.7,4891.4,4892,4891.8,4895.5,4894.9,4898.7,4890.6,4890.9,4882.9,4879.2,4878.6,4884.8,4899.3,4925.8,4949.3,4968.4,4980.3,4984.4,4996.8,5001.4,5002.5,4992.1,4986.2,4979.5,4981.2,4986.6,4983.1,4992.1,5013,5034.6,5051.7,5074.9,5095.8,5117.9,5134.8,5154.9,5172.4,5188.3,5205,5208.8,5221.4,4724.8,5263.8,5272.7,5294.2,5320.7,5329.5,5349.2,5339.7,5337.1,5320.4,5322.4,5306.1,5295.4,5273.4,5262.4,5256,5262.5,5265.3,5272.3,5285,5300.1,5301.7,5308.7,5317.5,5342.6,5354.3,5374.2,5376.6,5383.9,5382.1,5354.6,4829.7,4812.7,5275.8,4297,4741.4,4738.6,4722.3,4708,5130.3,5122.5,4631.3,5096.4,4656.6,4191.4,4158.6,4619,5080.7,5088.4,5092.5,5101.5,4587.4,5096.4,5076.9,5068.3,5039.9,5015.1,5002.4,4972.8,4957.1,4947.8,3989.2,4492.8,4496.1,4491.1,4942.2,4941.8,4515.3,4961.7,4969,4979.5,3614.9,4553.9,4553,4545.1,4068.2,4484.4,4439.8,4824.3,4780.7,4742.9,4702.5,4669.8,4640.4,4626.2,4624.8,4627.6,4627.3,4626.9,4617.3,4607.8,4601.3,4598.7,4578.5,4571.7,4551.9,4535.3,4514.2,4489.4,4445,4402.2,4354,4298.8,4262.4,4224.5,4195.9,4156.8,4129.7,4111.8,4100.3,4094.4,4080.3,4072.1,4054.8,4042.5,4027.1,4024.3,4017.9,4008.5,4009.5,4020.6,4032.1,4043.1,4068.1,4083.1,4107.4,4126.7,4155.4,4170.2,4179.8,4183.9,4183.2,4171.2,4156.5,4149.7,4148.1,4141.4,4124.5,4117.6,3342.7,3329.2,2947.1,2945.7,2935.9,2934.8,2924.3,2921,2915.7,2908.5,2901.3,2888.8,2879.8,2861.7,2847.1,2832.9,2818.9,2816.3,2819.2,2819.2,2823.4,2812.2,2803.6,2800.2,2791.8,2777.4,2747.2,2721.7,2304.2,2285,1836.6,1875,2599.9,2584.3,2580.2,2575.8,2197.7,2190.6,2559.6,2559.3,2557.2,2193.1,2557.9,1798.4,2546.3,2536.9,2145.2,2516.2,2505,2496.2,2489.3,2484.6,2477.8,2482.4,1733.7,2489.2,1745.1,1743.6,1748,2525.1,2139.3,2523.6,2524.3,2509.5,1751.5,2504.8,2498.6,2484.7,2470.2,2463.4,2461.3,2457.6,2445.7,1695.7,2056.2,1671.6,1656.3,2333.6,2306.2,1944.6,2258.6,2245.2,1909.1,1591.5,1236,1233.9,1564.2,2187.7,1891.1,2191.7,2196,2202,2205.1,1902.1,1574.3,1572.6,1564.4,1548.5,2171,2148.9,2137.4,2126.1,2116.9,2114.9,2108.9,2109.9,2107.2,2102.8,2090.5,2081,1764.1,2025.7,1993.4,1688.9,1386.1,1918.2,1898.5,1879.8,1870.7,1864.7,1864.5,1865.3,1865,1862.8,1853.7,1839.8,1829.1,1814.3,1802.8,1785.3,1770.8,1756.7,1738.3,1729.5,1715.6,1705.6,1696.5,1685.6,1681.8,2409.8,2407.8,2405.8,2401.3,2394.8,2388,2379.7,2368.7,2356,2339.3,2319.1,2309.8,2306.7,1624.3,2286.2,2277.3,2271.1,2265.2,2254.3,2023.2,2009.9,2211.9,2194.5,2178.8,2165.2,2158.4,2148.2,2139,2133,2125.5,2112.5,2107.6,2102.7,2096.1,2088.7,2083,2076.7,2073.4,2066.5,2061.6,2058.2,2056.9,2054.1,2050,2048,2043.2,2037.8,2032.4,2026.4,2021.1,2014.8,2007.1,2001.2,1994,1986.9,1979.3,1971.9,1966.7,1961.1,1955,1947.7,1942.7,1939.1,1934.3,1932.5,1932.5,1930.7,1930.2,1927.8,1928.4,1928.9,1929.6,1931.5,1930.8,1933.7,1935.6,1937.3,1939.7,1941.5,1943.4,1943.9,1943.4,1947.1,1947.1,1950.2,1950.7,1953.2,1953.9,1954.5,1955.1,1956.3,1958.1,1958.8,1958.2,1957.6,1958.2,1955,1955,1952,1950.7,1949.5,1946.4,1944.5,1942.8,1941.6,1940.4,1938.2,1936.4,1936.4,1934.7,1935.3,1935.2,1933.3,1933.2,1734.5
4531.8,4532,4539.3,4548.9,4554.8,4551.3,4558.7,4555.1,4559,4562.7,4569.6,4566.6,4577.8,4578.2,4575.2,4586.2,4590.4,4594.2,4595,4157.2,4174.4,3297.4,3739.7,4214.7,4241.1,4254.5,4738.7,4756.9,4786.5,4809.6,4817.5,4817.4,4818,4826.5,4823.6,4831.6,4828.1,4844,4851.6,4852.3,4864.4,4872,4880,4891.7,4892.2,4887.9,4892,4891.4,4887.3,4887.6,4879.4,4878.9,4864.3,4874.5,4889.2,4418.3,4437,4952.9,4968.1,4976.2,4988.5,4992.5,5001.1,4994.7,4988.2,4978,4987.9,4973.8,4978.2,4987.5,5001,5025.1,5046.6,5067.4,5082.4,5108.3,5129.6,5141.9,5167.6,5176.3,5192.2,5195.9,5209,5216.7,5242.8,5246.9,5264.4,5277.6,5298.9,5313,5330.1,5336.1,5332.8,5315.9,5308.1,5293.1,5281.2,5270.5,5255.8,5254.8,5259.3,5265.6,5259.7,5276.1,5292.3,5309.1,5302.4,5311.8,5319.7,5339.6,5350.5,5358.9,5361.6,5355.7,5341.4,4821,4799.1,4772.9,5218.1,4739.1,4722.2,5164.8,5135,5123.3,5112.5,5096,5089.2,4162.3,3271,3712.4,4610.2,5059.7,5067.3,5071.4,5073,4575.6,5059,5047.5,5033.9,5008.6,4995.5,4971,4952.4,4935.8,4920.9,4462,4406.7,4468,4910.5,4474,4489.6,4494.8,4940.5,4964.1,4970.4,4532.4,3610.6,4074.5,4544.6,4059.5,4025.7,4439.1,4392,4778.1,4746.6,4706,4658.6,4636.6,4618.5,4610.2,4616.6,4619.6,4615.9,4599.4,4592.9,4583.6,4573.5,4573.7,4560.3,4534.6,4520.9,4504.2,4485.6,4448.4,4402.4,4354.6,4305,4262.5,4233.4,4196.2,4157.1,4130,4118.4,4101.3,4090.1,4075.4,4066.7,4050,4035.4,4030.7,4022.4,4019,4009.8,4013.2,4019,4038.4,4042.1,3664,4091.8,4113.2,4140.5,4160.5,4178.3,4188,4189.2,4193.7,4175.7,4164.1,4157.1,4147.3,4140.7,4129.2,3730.8,3718,3322.7,2943.7,2942.3,2935.9,2931.4,2924.3,2921,2912.5,2908.5,2894.9,2885.8,2873.6,2858.8,2841.3,2829.7,2813.2,2810.6,2819.2,2819.2,2822.2,2809,2805.6,2797.1,2783.3,2769.1,2738.9,2711.1,2291.4,1458.8,1454.2,2192.2,2597.6,2168.8,1792,2193.1,2192.9,2185.8,2557,2554.6,2558.9,2190.7,2559.8,1797.8,2548.1,2540.4,2148.6,2517.9,2507.3,2493.9,2489.1,2482.3,2477.7,2474,1727.6,2480.9,1736.7,1738.9,1743.6,2513.4,2132.2,2516.5,2514.9,2504.7,1746.8,2500.1,2491.7,2482.3,2466.4,2457.4,2455.3,2453,2442.1,1690,2048.3,1664.1,1646.7,1976.4,2286.2,2256.5,1911,1604,1884.7,2187,1570.2,1566.4,1564.3,1850.4,1878,2170.4,2171.5,2179.1,2182.1,1880.3,1270.5,1561,1262.2,1538.4,2144.4,2126.7,2112.4,2104.2,2095.2,2090.2,2087.1,2086.5,2086.5,2076.2,2067.5,2054.9,2033.9,1724.9,1971,1387.6,1363,1904.1,1884.5,1870,1860.7,1855.7,1856.5,1857.6,1857.4,1852.8,1847.1,1829.2,1817.5,1805.2,1794.7,1779.6,1766.2,1752.8,1736.3,1726.6,1714.7,1703.6,1694.6,1688.3,1683.6,2409.7,2408.7,2405.8,2402.1,2392.8,2387.1,2378.8,2370.7,2358.5,2344.6,2322.6,1857.2,714.3,476.5,2070.8,2287.5,2279.5,2273.2,2263.7,2245.5,2225.7,1996.1,2191.2,1964.7,2165.1,2157.4,2144.4,2136.7,2131.4,2125.5,2111.8,2108.3,2103.3,2096.9,2090.9,2084.4,2078.9,2073.3,2068.6,2062.5,2058.2,2056.8,2054,2050,2047.3,2043.3,2037.8,2032.5,2026.3,2019.7,2012.9,2009,2000.5,1993.5,1986.9,1978.1,1971.8,1966,1961.6,1954.4,1948.9,1943.3,1940.3,1935.5,1933.7,1933.1,1931.4,1931.4,1929.6,1929.6,1930.2,1930.3,1930.8,1933.7,1934.3,1936.8,1936.9,1939.7,1941.5,1942.7,1943.2,1942.6,1945.1,1946.5,1948.4,1948.9,1950.2,1952,1952.6,1954.5,1955.1,1956.4,1956.4,1957,1956.4,1955.7,1955.1,1954.5,1953.2,1950.1,1947.7,1945.2,1943.2,1941.5,1940.3,1937.3,1937.4,1936.3,1934.5,1934.5,1933.8,1933.2,1933.9,1736.5,1735.8
4538.3,4535.5,4542.9,4552.5,4562.2,4562.2,4562.3,4562.5,4562.5,4570.4,4581.1,4588.8,4588.8,4590.2,4590.9,4588.5,4592.9,4596.5,4159.6,3715.5,3711.7,3290,3726.6,4197.1,4679.7,4703.4,4254.3,4275.8,4290.9,4798.9,4806.3,4822.3,4830.5,4831.6,4831.9,4837.1,4841,4856.8,4857.2,4861.5,4869.5,4873.3,4884.9,4888.8,4892.8,4892.5,4892.5,4883.2,4883.5,4887.6,4883.2,4879.4,4872.1,4883,4412.1,3941.5,4441.3,4456.3,4976.5,4984.4,4988.5,5000.6,5001.1,4998.2,4988.2,4973.6,4984,4981.2,4986.4,4987.5,5015.9,5029.5,5049.4,5078.6,5099.5,4611.3,4631.7,5141,5167.2,5188.1,5195.9,5196.5,5208.9,5217.5,5230.4,5243.6,5256.8,5273.9,5295.1,4786.5,5317.7,5318.1,5328.9,5311.8,5308.6,5305.8,4763.4,4753.7,5254.1,5261.1,5259.3,5267.6,5270.4,5282.8,5290.5,5305.3,5301.8,5310,5312.5,5324.7,5345.8,5348.5,5347.1,5349.1,5321.3,4798.1,4787.8,4757,4287.2,5176.1,4717.5,4704.5,4685,5119.6,5100.2,5087.6,4642.6,4160.2,3265.8,3250.4,4158.3,5050.7,5044.6,5047,5042.1,5044.7,5033,4538.6,5009.5,4996.4,4966.3,4953.8,4925,4913.6,4905.6,4884.9,4449.8,4883.4,4447.6,4450.8,4470.6,4910.9,4487,4498,4962.3,4967.8,4057.1,3032.9,4535.8,4047,4472.1,4431,4383.9,4349,4739.5,4221.1,4191.4,4632.6,4618,4606.6,4609,4605.3,4594.8,4588,4579,4571.9,4558.6,4556.5,4542.9,4526.5,4513.4,4503.3,4479.2,4448.1,4399.2,4348.5,4305.1,4260.3,4225.4,4196.8,4160.7,4128.5,4113.8,4102.4,4091,4079.7,4068.9,4046.3,3656.8,4023.8,3655.1,4014.4,4010.9,4006.9,3646.4,3657.8,4045.7,3662.5,4095.2,4116.6,4146.4,4166.3,4186.6,4193.4,4196.8,4193.2,4183.5,4174.4,4161.5,4149.8,4145.5,4128.3,3733.3,3716.9,3318.4,3319.9,2936,2926.2,2471.3,2921.1,2917.8,2912.5,2902.2,2894.9,2885.8,2873.6,2855.7,2838.1,2824.1,2816,2813.4,2816.3,2816.2,2816.3,2811,2797,2791.7,2780.6,2763.6,2731.2,1919.3,1469.9,1458.8,2200.8,2192.2,1812.7,2216.5,1431.7,1430,1828.3,1786.4,2557,1804.7,1807.1,2186,2557.4,1793.2,2547.7,2538.2,2146.3,2517.4,2504.4,2117.7,2484.5,2477.1,2473.3,2469.5,1723.1,2471.8,1729.9,1732.2,1739.1,2121.4,2123,2504.8,2120.5,2115.2,2113.1,2490.9,2484.7,2473.3,2457.4,2080.6,2080,2447.2,2427.6,1330.5,1692.9,1319.9,1977.6,1615.5,1933.4,2243.1,2223.6,1890,1873.5,1858.8,1847.1,1843.8,2152.6,2148.9,2148.8,2154.8,2157.2,2163,2162.9,1863.8,1546.3,2168.4,1844.5,1828.7,2126.5,2105.9,2093.3,2086.5,2080.3,2075.3,2072.1,2071.3,2070.1,2061.6,2048.4,2034.8,2011.5,1986.2,1954.3,1649.1,1908.4,1890.2,1876.8,1860.7,1855.2,1850.4,1851.1,1849.6,1849.6,1846.3,1839.8,1822.8,1810.4,1800,1786.9,1775.8,1762.3,1748,1734.4,1725.6,1712.9,1703.5,1696.4,1687.4,1686.2,2410.4,2410.4,2409.4,2402,2397.4,2390.9,2384.3,2373.4,2363.9,2348.8,2328.7,1864.2,717.9,239.6,2063.9,2295.5,2288.1,2280.7,2269.6,2249.2,2013.5,1562.9,1334.1,1322.2,1736.7,2153.6,2144.2,2135.9,2130.6,2124.7,2111.9,2106.8,2101.8,2096.7,2091.7,2085.4,2079.1,2072.3,2066.6,2062.5,2057.6,2058.2,2054.7,2049.9,2045.8,2042.6,2036.5,2031.9,2026.3,2019.7,2013.6,2008.4,2000.5,1993.5,1986.9,1978.1,1971.2,1966.7,1961.7,1955.6,1949.5,1944,1939.6,1936,1934.9,1934.3,1933.2,1931.3,1931.4,1931.4,1931.4,1932,1933.1,1933.1,1934.9,1936.8,1938.5,1939.7,1940.9,1943.9,1943.2,1942,1943.9,1946.4,1946.4,1947.1,1948.4,1950.3,1951.5,1953.9,1953.9,1954.5,1955.1,1955.7,1955.1,1954.5,1953.3,1952.7,1951.4,1947.7,1945.8,1943.9,1942,1940.3,1937.3,1935,1936.2,1935.1,1933.9,1933.9,1933.8,1932,1932.6,1737.7,1735.9
4534.6,4538.8,4542.5,4549.3,4562.1,4569,4572.7,4580.3,4580.7,4584.6,4592.9,4592.9,4600.6,4598.4,4599.1,4596.5,4597.3,4598.1,3714.5,3709.6,3283.8,3279.8,4165.5,4184.2,4652.2,4222.9,4247.3,4269.1,4287.7,4791.5,4806.7,4822.8,4831.2,4835.7,4848.9,4850.3,4854.2,4854.6,4866.9,4878.8,4883.2,4882.2,4886,4897.4,4893.1,4893.1,4888.3,4884.2,4884.3,4887.8,4888,4875.7,4406.2,4409.2,4415.7,4430.6,4453.1,4464.1,4475.8,4483.7,4988.4,4996.8,4997.1,5001.8,4983.9,4973.6,4983.2,4989.2,4985.6,5014.9,5031.3,5048.2,5065.2,5090.3,5103.2,5127.6,4653.4,5161.7,5174.7,5187.7,5200.3,5209,5213.4,5226.3,5231.1,4730.9,5250.1,5261.5,5278.8,5300.7,5305.9,5319.5,5320.7,5321.2,5318,5316,4768.9,5280.8,5271.4,5260.4,5272.7,5267.8,5279.7,5281.1,5288.2,5288.4,5298,5302.7,5306.9,5314.9,5320.1,5332.6,5344,5323.4,5306.2,4787.7,4776.7,4759.5,4278.1,4260,5161.5,4699.2,4685.2,5114.1,5100.3,5092.9,5083.5,4165.2,3260.6,3693.4,4126.1,4594.4,5043,5044.1,5036.8,5034.6,5027.3,4525.2,4997,4975.5,4955.4,4938.4,4913.1,4908.5,4897.2,4398.8,4876,4383.2,3927.3,3933.2,4887.1,4462.1,4482.7,4485.6,4505.2,4954.1,4979.6,4528.6,3012.5,4498.7,4008,4435,4376.5,4337.8,4306.4,4201.1,4180,4161.4,4599.2,4599.4,4601.8,4597.5,4577.1,4574.3,4561.2,4564.7,4554.7,4544.8,4535.4,4519,4512.5,4492.6,4472.4,4444.3,4395.6,4348.1,4302.9,4261.8,4224.3,4188,4158.2,4128.7,4111.2,4102.3,4085.2,4076.6,4070.1,4047.4,4035.7,3661.2,3650.7,4004.6,3993.2,3993.9,3647.4,4016.3,4037.9,4062.4,4089.3,4117.5,4144.6,4169.4,4189.7,4204.3,4199.3,4209.1,4189.1,4176.8,4161.7,4155,4144.7,4133.4,4119.7,4106.6,3701.5,2934.8,2932.6,2473.4,2922,2921.1,2917.8,2910.4,2905.2,2894.9,2885.7,2873.6,2855.7,2838.1,2827,2810.1,2807.5,2807.9,2816.2,2813.9,2808.3,2797,2786.5,2775.5,2756,2723.7,1916.1,1859.7,2212.2,2611.2,2187.9,2181.7,2168.8,2167.5,2165.8,2166.5,2166.5,2164.8,2165.1,2165.4,2186,2552.8,1793.2,2545.4,2540.5,2146.3,2519.7,2506.1,2495.6,2483.9,2477,2470.4,2468.9,1721,2096.3,1352.1,1729.9,1736.9,2499.3,2120.6,2500.1,2496.2,2493.2,2110.8,2488.6,2482.4,2471,2453.1,2080.6,2080,2074.1,2422,1694.9,2047.2,1668.3,1965.6,2284.4,2258.5,2228.6,2214.9,2204.9,2182.2,2164.2,2151.3,2143.3,1528.7,1835.9,1829.5,1833.7,2145.9,2151.6,2151.3,2155.4,1842.6,1856.4,1848.3,1835.6,2114.8,2098.8,2086,2080.8,2074.5,2068.3,2065.1,2065.4,2059.9,2052.9,2038.3,2026.5,2000.6,1970.3,1665.5,1639.4,1896.7,1882.1,1865.4,1853.1,1849.7,1841.4,1842.2,1844.2,1840.9,1840.9,1826.9,1812.2,1802.1,1790,1779,1769,1757.3,1746.2,1731.2,1721.6,1712,1703.5,1698.2,1690.1,1689,2413.1,2417,2415.1,2405.5,2402.8,2395.4,2390.9,2378.9,2369.5,2356,2338.4,1184.3,716.1,0,2315.8,2304.3,2297.7,2288.8,2276.2,1818.2,1150.6,1134.5,1118.7,1106.7,1310.5,2152.8,2142,2134.5,2129.9,2123.3,2111.9,2106.8,2101.7,2096.7,2089.7,2084,2077.9,2070.9,2065.2,2061.8,2058.3,2056.1,2052.7,2049.9,2046.6,2041.3,2036.6,2031.2,2024.4,2020.2,2013.6,2009.1,2001.1,1993.5,1985.6,1978.2,1970.6,1965.4,1962.3,1955.6,1950.2,1945.9,1940.2,1937.2,1936.6,1934.8,1933.6,1931.8,1933.1,1932.5,1932.5,1931.3,1933.7,1935.4,1936.7,1937.8,1940.3,1942.1,1942.7,1943.8,1942,1942,1942,1944,1944,1944,1946,1946.6,1948.4,1950.8,1951.4,1952.6,1953.2,1955.1,1953.9,1953.3,1953.3,1950.3,1950.2,1947.6,1945.2,1942.7,1941.4,1939.7,1936.7,1936.1,1935.6,1935.6,1935,1933.9,1933.2,1932.6,1736.5,1737.7,1737.6
4530.6,4534.9,4542,4548.8,4568.3,4579.5,4575.8,4579.9,4583.8,4595.3,4600.8,4600.8,4609.2,4606,4603.3,4604.4,4608.2,4601.1,4154.4,3729.1,3280.6,3725.9,4148.6,4160.5,4628.5,4208.7,4233.2,4243.6,4276.7,4302.8,4803,4823,4834.8,4844.3,4857.1,4862.8,4859.5,4874.8,4875.3,4880.1,4887.4,4887,4890.8,4889.8,4885.4,4889.4,4884.8,4884.8,4883.9,4888,4879.7,4888,4883.6,4890.8,4912.8,4445.9,4460.7,4476.2,4491.7,4496,5004.8,5004.8,5001.1,4994.3,4999.5,4984.8,4995,4992.2,5005.9,5026.7,5043,5064.6,5081.3,5105.9,5123.4,4634.8,5164.8,5169.5,5191.5,5191,5203.8,5213.2,5222,5217.9,5227.8,5236.9,5245.4,5254.6,5271.4,5289.3,5302.5,5316.7,5312.4,5323,5319.7,5311.1,4285.4,5293.3,5294,5269.9,5274.8,5281,5282.2,5281.8,5287.9,5295.3,4780.1,5295.3,5304,5306.5,5314.4,5329.6,5328.8,5319.3,5310.8,4790.9,4775.3,4758,4274.6,4256.8,4705.3,5138.3,4676.4,5107.4,4654.7,4624.7,5077,4163.3,3255.4,3691.6,3679.8,5045.8,5048.5,5054.4,5038.8,5033.1,5018.4,5001.6,4983.8,4482.2,4943.5,4923.1,4905.7,4890.2,4872.4,4868.5,4863.8,4411.8,4863,3922,4442,4458.3,4469.5,4485.9,4497.1,4500,4968.3,4975.1,4511,2984,3526.8,4420.1,4369.6,4334.5,4296.6,4693.6,4646.3,4156.9,4146.6,4594.7,4580.5,4583.8,4573.4,4556.8,4553.7,4546.8,4543.3,4540.6,4530.9,4511.8,4509,4489.1,4482.3,4441.3,4402,4352.1,4309.9,4259.2,4230.8,4197.5,4159.1,4130,4115,4106.6,4091.9,4083.1,4068.3,4048.1,4028.7,4016.7,4008.5,4005.4,3639.3,3634.8,3998.6,4011.8,4034.2,4063.2,4092.4,4112.5,4147.5,4175,4200.7,4212.6,4213.3,4214.8,4199.2,4186.7,4163.7,4151.7,4144.1,4130.3,4116.6,3722.4,2944.7,2936,2933.8,2929.6,2924.1,2917.9,2912.5,2906.4,2905.2,2889.8,2876.5,2873.6,2852.8,2838.1,2824.1,2807.3,2804.7,2808,2810.8,2811,2800.7,2787,2773.4,2762.9,2746.9,2716.5,2306.2,2658.2,2626.6,2607.5,2588.5,2177.3,2169,2161.1,2548.3,1808.5,1804.7,2542.8,2156.6,2159.2,2181.8,2548.6,1788.6,2541.4,2538.3,2144.1,2517.4,2509.9,2494.9,2485.5,2477.9,2468.1,2468.1,1721.7,2462.2,1724.6,1726.8,1738.4,2490.2,2113.8,2495.4,2493.9,2486.2,2108.5,2484,2480.1,2468.7,2450.9,2442.8,2439.2,2434.8,2414.5,1691.3,2045.2,1662.8,1952.5,2267.9,1949.3,2213.5,2201.5,2189.9,2167.8,2147,2135.8,2128.1,1819.6,2119.5,1814.3,1820.3,1828.6,2132.9,2132.8,2135.4,1829.2,1842.4,1835.5,1824.5,2099.3,2083.3,2071.9,2068,2064.9,2055.5,2053.4,2052.5,2050.1,2040.3,2030,2012.8,1990,1682.7,1659.4,1085.8,1892.2,1877.5,1863,1852,1844.9,1840.3,1841.1,1843.1,1839.8,1836.6,1819.5,1804.2,1795.2,1783,1775.4,1763.9,1751.6,1742.2,1730.2,1723.4,1713.7,1704.4,1699.9,1692.8,1692.6,2417.8,2420,2419.9,2412,2409.2,2402.9,2396.3,2387.3,2380.8,2369.5,2350.7,1192.6,959.5,961.3,2084.9,2317.6,2309.3,2076.2,1404.1,1169,1152.2,907.2,1116.3,1105.9,1096.6,2150.4,2141.3,2134.4,2130,2122.6,2111.9,2109,2102.3,2096,2089.8,2084.2,2077.2,2073,2066.8,2062.7,2056.4,2055.5,2052.1,2047.4,2044.6,2041.2,2035.2,2030.5,2024.4,2020.9,2013.7,2007.8,2000.5,1993.4,1985.6,1978.1,1970,1966.6,1962.3,1954.4,1949.6,1945.2,1942.1,1938.4,1936.6,1934.8,1933.6,1932.4,1933,1933,1933,1934.3,1934.8,1937.2,1939.1,1940.8,1942.1,1942.7,1943.9,1942.6,1942,1941.4,1942.1,1942.1,1941.4,1942.8,1944.7,1945.3,1946.6,1949.6,1949.6,1951.4,1952,1952.6,1953.3,1953.3,1952.7,1950.9,1948.9,1947,1945.2,1942.7,1942,1940.8,1937.3,1936.7,1937.3,1936.2,1936.2,1934.4,1935.6,1739.4,1738.2,1739.9,1739.3
