1931,1931,1928,1928,1928,1928,1930.5,1927.5,1930.5,1933.5,1933.5,1933.5,1933.5,1930.5,1930.5,1933.5,1937,1937,1937,1937,1937,1943,1943,1946,1943,1946,1946,1949,1952,1955,1955,1955,1958,1961.5,1961.5,1964.5,1964.5,1961.5,1958,1958,1955,1952,1952,1946,1946,1943,1939.5,1934,1931,1928,1928,1931,1931,1930.5,1930.5,1933.5,1939.5,1946,1952,1955,1961,1961,1964,1967,1970.5,1967,1967,1967,1964,1964,1964,1961,1958,1958,1955,1955,1955,1955,1952,1952,1952,1952,1952,1952,1952,1949,1946,1946,1943,1943,1940,1936.5,1933.5,1927,1927,1921,1918,1915,1912,1909.5,1906.5,1906.5,1901,1898,1898,1898,1892,1889,1886,1880,1880,1877,1874.5,1872,1869,1866,1863,1860,1855,1855,1849,1849,1846.5,1841,1841,1838.5,1832.5,1827.5,1824.5,1822,1819.5,1819.5,1817,1811,1808.5,1803.5,1800.5,1798,1795.5,1793,1787.5,1788,1785,1787.5,1793,1798,1803,1803,1814,1819,1825,1830,1830,1833,1835.5,1838.5,1838.5,1843.5,1841,1841,1841,1838,1841,1841,1841,1838.5,1832.5,1838.5,1838.5,1838.5,1838.5,1835.5,1832.5,1830,1830,1824.5,1830,1824.5,1824.5,1822,1822,1824.5,1830,1830,1835.5,1832.5,1832.5,1835.5,1838,1841,1835.5,1833,1833,1827.5,1824.5,1824.5,1824.5,1827.5,1827.5,1827.5,1830,1832.5,1838.5,1843.5,1846.5,1846.5,1849,1849,1852,1852,1854.5,1854.5,1854.5,1857.5,1863,1863,1869,1869,1874.5,1874.5,1874.5,1877.5,1877.5,1877.5,1874.5,1877.5,1877.5,1874.5,1871.5,1874.5,1874.5,1869,1869,1869,1874.5,1874.5,1877.5,1883,1889,1895,1903.5,1915.5,1924,1930.5,1939.5,1949,1955,1958,1955,1952,1949,1943,1943,1937,1933.5,1927,1927,1927,1927,1927,1930.5,1930.5,1933.5,1933.5,1936.5,1936.5,1936.5,1936.5,1939.5,1939.5,1942.5,1942.5,1945.5,1945.5,1949,1949,1955,1958.5,1964.5,1967.5,1967.5,1970.5,1973.5,1976.5,1976.5,1973.5,1973.5,1973.5,1973.5,1977,1977,1977,1977,1977,1977,1980,1980,1977,1977,1977,1977,1973.5,1967.5,1967.5,1967.5,1967.5,1964,1964,1964,1961,1961,1961,1958,1955,1952,1949,1946,1946,1943,1937,1937,1936.5,1933.5,1936.5,1936.5,1936.5,1936.5,1936.5,1939.5,1939.5,1939.5,1942.5,1942.5,1942.5,1942.5,1945.5,1945.5,1945.5,1945.5,1948.5,1948.5,1952,1952,1955,1955,1952,1949,1949,1949,1952,1949,1949,1946,1946,1942.5,1942.5,1942.5,1936.5,1936.5,1936.5,1936.5,1933.5,1936.5,1936.5,1936.5,1933.5,1933.5,1933.5,1930,1927,1927,1924,1921,1918.5,1918.5,1915.5,1912.5,1909.5,1909.5,1906.5,1906.5,1903.5,1903.5,1903.5,1906.5,1906.5,1909.5,1912.5,1912.5,1918,1921,1924,1924,1924,1924,1924,1921,1918,1915,1912.5,1906.5,1904,1904,1903.5,1901,1901,1901,1901,1901,1901,1901,1901,1898,1898,1895,1898,1895,1892,1889,1886,1880.5,1880.5,1877.5,1877.5,1877.5,1871.5,1871.5,1871.5,1877.5,1877.5,1880,1883,1889,1895,1898,1904,1909.5,1912.5,1915,1918,1924,1924,1927,1927,1930.5,1933.5,1930.5,1930.5,1930.5,1927.5,1925,1925,1925,1925,1925,1922,1919,1919,1916,1916,1912.5,1909.5,1909.5,1909.5,1909.5,1909.5,1909.5,1909.5,1906.5,1906.5,1906.5,1909.5,1909.5,1909.5,1909.5,1909.5,1906.5,1903.5,1903.5,1900.5,1900.5,1897.5,1892,1892,1892,1892,1892,1894.5,1897.5,1900.5,1900.5,1906.5,1909.5,1916,1919,1922,1924.5,1927.5,1930.5,1930.5,1930.5,1933.5,1933.5,1936.5,1936.5,1943,1943,1942.5,1939.5,1936.5,1936.5,1931
1934,1931,1931,1931,1928,1931,1931,1928,1928,1930.5,1933.5,1933.5,1930.5,1927.5,1930.5,1930.5,1933.5,1937,1937,1937,1940,1940,1943,1943,1943,1943,1943,1946,1949,1952,1952,1952,1955,1958.5,1958.5,1955.5,1955.5,1955,1952,1952,1952,1946,1943,1939.5,1939.5,1934,1931,1931,1931,1928,1928,1928,1931,1933.5,1933.5,1939.5,1942.5,1949,1955,1961,1964,1964,1970.5,1974,1977,1977,1977,1977,1977,1973.5,1973.5,1973.5,1967.5,1967.5,1964,1967.5,1964,1961,1958,1958,1955,1955,1952,1952,1952,1949,1946,1946,1943,1940,1940,1933.5,1933.5,1927,1924,1921,1918,1918,1912,1909.5,1909.5,1909.5,1906.5,1909.5,1906.5,1903.5,1903.5,1901,1901,1901,1898,1895,1895,1889,1889,1889,1886,1886,1880,1877,1874.5,1872,1866,1863,1857.5,1857.5,1852,1849.5,1841,1838.5,1835.5,1835.5,1827,1827,1819.5,1811.5,1809,1803,1803,1800.5,1795.5,1795.5,1795.5,1795.5,1798,1803,1809,1809,1814,1822,1827.5,1830,1832.5,1830,1835.5,1838.5,1843.5,1843.5,1843.5,1841,1841,1841,1841,1843.5,1843.5,1838.5,1832.5,1838.5,1838.5,1838.5,1838.5,1835.5,1832.5,1830,1827.5,1824.5,1827.5,1824.5,1824.5,1822,1824.5,1827,1830,1835.5,1835.5,1835.5,1838.5,1841,1841,1841,1838.5,1833,1833,1827.5,1824.5,1824.5,1822,1822,1822,1825,1825,1827.5,1832.5,1838.5,1841,1841,1838.5,1841,1841,1846.5,1846.5,1849,1849,1846.5,1854.5,1854.5,1860.5,1863,1866,1866,1869,1871.5,1871.5,1868.5,1868.5,1866,1866,1863,1863,1863,1863,1860,1863,1863,1863,1869,1869,1874.5,1877.5,1883,1895,1903.5,1909.5,1918,1924,1933.5,1943,1943,1943,1940,1933.5,1930,1927,1927,1921,1918,1915,1918,1921,1924,1924,1924,1927,1927,1930.5,1930.5,1930.5,1930.5,1933.5,1936.5,1936.5,1936.5,1939.5,1939.5,1945.5,1945.5,1952,1958.5,1958.5,1961.5,1964.5,1967.5,1970.5,1973.5,1973.5,1973.5,1973.5,1970.5,1974,1974,1974,1974,1974,1977,1980,1980,1980,1980,1980,1977,1977,1977,1977,1970.5,1970.5,1970.5,1967.5,1967,1967,1964,1964,1961,1961,1958,1955,1952,1952,1943,1943,1940,1937,1933.5,1933.5,1936.5,1936.5,1933.5,1933.5,1933.5,1936.5,1939.5,1939.5,1942.5,1945.5,1945.5,1945.5,1949,1949,1949,1945.5,1948.5,1948.5,1952,1952,1952,1952,1949,1952,1952,1952,1955,1952,1952,1949,1946,1943,1943,1943,1939.5,1936.5,1936.5,1936.5,1936.5,1936.5,1939.5,1939.5,1943,1940,1937,1933.5,1930.5,1930.5,1927.5,1924.5,1922,1915.5,1915.5,1912.5,1909.5,1909.5,1906.5,1903.5,1903.5,1900.5,1900.5,1903.5,1906.5,1909.5,1912.5,1915,1921,1921,1924,1924,1924,1924,1924,1918,1915,1912,1909.5,1904,1898,1898,1898,1898,1892,1892,1892,1892,1895,1895,1898,1895,1895,1895,1892,1889,1889,1886,1883.5,1880.5,1880.5,1877.5,1877.5,1877.5,1874.5,1874.5,1877.5,1877.5,1880,1886,1889,1892,1898,1904,1909.5,1912.5,1915.5,1918,1924,1927,1927,1930,1933.5,1933.5,1936.5,1936.5,1936.5,1933.5,1933.5,1933.5,1930.5,1930.5,1928,1925,1925,1925,1919,1916,1916,1912.5,1906.5,1906.5,1906.5,1906.5,1906.5,1909.5,1903.5,1903.5,1903.5,1903.5,1903.5,1903.5,1906.5,1903.5,1903.5,1900.5,1900.5,1900.5,1897.5,1895,1894.5,1894.5,1892,1892,1894.5,1894.5,1894.5,1897.5,1900.5,1903.5,1903.5,1909.5,1916,1919,1924.5,1924.5,1927.5,1930.5,1933.5,1936.5,1939.5,1943,1943,1949,1949,1949,1949,1945.5,1942.5,1939.5,1936.5
1943,1937,1934,1934,1931,1931,1925,1928,1928,1931,1928,1928,1930.5,1927.5,1927.5,1930.5,1930.5,1933.5,1933.5,1933.5,1940,1940,1943,1939.5,1939.5,1939.5,1943,1943,1946,1949,1952,1949,1952,1952,1952,1955.5,1948.5,1945.5,1945.5,1945.5,1942.5,1939.5,1939.5,1934,1934,1928,1928,1928,1925,1925,1928,1925,1931,1933.5,1936.5,1939.5,1942.5,1952,1955,1964,1967,1974,1974,1977,1983,1983,1983,1980,1983.5,1980,1983.5,1976.5,1973.5,1973.5,1970.5,1970.5,1967.5,1964,1964,1961,1961,1958,1958,1958,1952,1949,1946,1943,1943,1940,1936.5,1933.5,1927,1924,1924,1918,1915,1915,1912,1907,1909.5,1906.5,1906.5,1903.5,1909.5,1909.5,1909.5,1909.5,1912.5,1912.5,1915,1912.5,1912,1909.5,1909.5,1909.5,1909.5,1909.5,1904,1904,1898,1895,1892,1886,1883,1880,1877.5,1869,1863,1857.5,1857.5,1852,1846.5,1844,1832.5,1827.5,1819,1814,1814,1809,1806,1803,1800.5,1803,1809,1811.5,1814,1814,1819,1825,1830,1835.5,1838,1838,1841,1841,1843.5,1846.5,1846.5,1846.5,1841,1841,1846.5,1846.5,1843.5,1838.5,1832.5,1838.5,1838.5,1841,1835.5,1835.5,1830,1827.5,1824.5,1824.5,1824.5,1822,1819.5,1822,1822,1824.5,1830,1835.5,1835.5,1835.5,1838.5,1841,1841,1841,1841,1833,1833,1830.5,1824.5,1824.5,1822,1825,1822,1822,1825,1825,1827.5,1838.5,1838.5,1835.5,1835.5,1838.5,1838.5,1841,1843.5,1843.5,1843.5,1844,1846.5,1846.5,1852,1854.5,1857.5,1857.5,1857.5,1857.5,1863.5,1863.5,1860.5,1860.5,1857.5,1857.5,1857.5,1857.5,1857.5,1857.5,1855,1857.5,1857.5,1863,1863,1866,1869,1874.5,1883,1889,1898,1901,1912.5,1921,1924,1927,1927,1924,1924,1918,1915,1909.5,1909.5,1906.5,1906.5,1906.5,1906.5,1906.5,1909.5,1912.5,1915,1915,1918,1921,1924.5,1922,1925,1928,1928,1933.5,1933.5,1933.5,1939.5,1945.5,1948.5,1948.5,1952,1958.5,1961.5,1964.5,1964.5,1967.5,1967,1967,1967,1967,1970.5,1970.5,1970.5,1974,1974,1977,1977,1977,1980,1980,1980,1980,1977,1977,1977,1974,1974,1974,1967,1967,1964,1967.5,1967.5,1964.5,1961,1958,1958,1955,1949,1946,1943,1943,1937,1937,1933.5,1933.5,1933.5,1933.5,1933.5,1933.5,1936.5,1936.5,1939.5,1945.5,1945.5,1942.5,1949,1952,1952,1949,1949,1952,1952,1952,1955,1955,1955,1952,1952,1955,1955,1955,1955,1949,1949,1946,1946,1946,1943,1943,1940,1943,1943,1943,1943,1943,1943,1940,1937,1937,1933.5,1930.5,1927.5,1927.5,1922,1922,1915.5,1912.5,1912.5,1909.5,1906.5,1903.5,1903.5,1903.5,1900.5,1903.5,1903.5,1906.5,1912.5,1912.5,1915,1918,1918,1924,1924,1924,1924,1921,1918,1912,1912,1909.5,1907,1901,1901,1895,1892,1892,1886,1889,1889,1889,1889,1889,1889,1889,1889,1892,1889,1886,1886,1883.5,1883.5,1883.5,1880.5,1880.5,1880.5,1880.5,1877.5,1880.5,1886,1886,1892,1895,1901,1904,1912.5,1915,1918,1921,1924,1930.5,1930.5,1933.5,1937,1937,1940,1940,1943,1942.5,1942.5,1939.5,1939.5,1933.5,1933.5,1930.5,1928,1925,1925,1925,1916,1916,1912.5,1909.5,1906.5,1906.5,1906.5,1906.5,1906.5,1903.5,1903.5,1900.5,1900.5,1897.5,1897.5,1897.5,1897.5,1900.5,1900.5,1897.5,1897.5,1897.5,1895,1894.5,1894.5,1894.5,1894.5,1894.5,1894.5,1894.5,1897.5,1903.5,1903.5,1906.5,1912.5,1916,1919,1927.5,1927.5,1933.5,1936.5,1939.5,1943,1946,1949,1949,1952,1952,1952,1955,1952,1948.5,1945.5,1942.5
1943,1940.5,1937,1934,1937,1934,1931,1928,1928,1928,1931,1928,1928,1927.5,1924.5,1927.5,1930.5,1930.5,1933.5,1933.5,1936.5,1936.5,1939.5,1939.5,1939.5,1939.5,1943,1943,1946,1943,1946,1949,1949,1952,1952,1945.5,1942.5,1942.5,1942.5,1939.5,1936.5,1936.5,1931,1928,1925,1925,1922,1922,1922,1922,1925,1925,1928,1933.5,1936.5,1939.5,1946,1952,1958,1964,1967,1974,1977,1977,1983,1986.5,1986.5,1986.5,1986.5,1986.5,1983.5,1983.5,1976.5,1976.5,1973.5,1973.5,1970.5,1967.5,1964,1961,1958,1955,1955,1952,1952,1949,1946,1943,1939.5,1936.5,1933.5,1930.5,1927.5,1924,1918,1918,1912.5,1909.5,1907,1907,1907,1906.5,1906.5,1906.5,1909.5,1912.5,1912.5,1915.5,1915.5,1918,1918,1921,1924,1921,1927,1927,1927,1927,1927,1927,1924,1918,1915,1912,1909.5,1906.5,1901,1895,1886,1883,1877.5,1874.5,1869,1863,1854.5,1846.5,1835.5,1830,1827.5,1825,1819,1816.5,1816.5,1814,1819,1822,1819,1825,1827.5,1830,1838,1841,1843.5,1843.5,1843.5,1849.5,1849.5,1852,1849.5,1846.5,1843.5,1846.5,1846.5,1846.5,1843.5,1838.5,1835.5,1838.5,1841,1838,1835.5,1832.5,1827.5,1827.5,1822,1822,1819.5,1819.5,1817,1817,1819.5,1824.5,1830,1832.5,1835.5,1835.5,1838.5,1838.5,1841,1841,1841,1838,1833,1830.5,1830.5,1830.5,1825,1825,1822,1822,1822,1827.5,1830,1832.5,1838.5,1838.5,1835.5,1835.5,1841,1841,1841,1841,1843.5,1841,1843.5,1844,1846.5,1849.5,1849.5,1849.5,1846.5,1852,1852,1852,1852,1849.5,1849.5,1846.5,1846.5,1849,1849,1849,1849,1849,1852,1852,1857.5,1857.5,1860.5,1866,1871.5,1877.5,1883,1889,1898,1904,1909.5,1909.5,1909.5,1909.5,1907,1907,1904,1898,1898,1895,1895,1898,1898,1898,1898,1901,1904,1904,1906.5,1909.5,1915.5,1915.5,1919,1922,1925,1928,1928,1931,1933.5,1939.5,1942.5,1948.5,1949,1949,1952,1955,1958,1958,1961,1961,1964,1964,1964,1967.5,1967.5,1967.5,1970.5,1977,1977,1977,1980,1983,1980,1980,1980,1980,1977,1974,1977,1974,1970.5,1970.5,1967.5,1967.5,1967.5,1964.5,1964.5,1958,1958,1955,1949,1949,1946,1943,1940,1937,1933.5,1933.5,1933.5,1933.5,1933.5,1933.5,1936.5,1939.5,1942.5,1945.5,1945.5,1949,1952,1958,1958,1955,1958.5,1955.5,1952,1955,1958,1958,1958,1955,1955,1955,1955,1958,1952,1952,1952,1946,1946,1946,1946,1943,1943,1943,1940,1940,1943,1943,1943,1940,1940,1936.5,1933.5,1930.5,1927.5,1924.5,1922,1915.5,1915.5,1912.5,1909.5,1906.5,1906.5,1903.5,1903.5,1906.5,1903.5,1903.5,1906.5,1912.5,1912.5,1915,1918,1918,1921,1924,1924,1921,1921,1918,1918,1915.5,1912.5,1909.5,1906.5,1903.5,1898,1895,1892,1889,1886,1883,1886,1886,1886,1886,1886,1886,1886,1886,1886,1886,1883.5,1883.5,1883.5,1883.5,1883.5,1886,1886,1886,1883,1886,1892,1895,1898,1904,1906.5,1912.5,1915,1921,1924,1927.5,1933.5,1936.5,1940,1940,1943,1943,1946,1946,1949,1946,1946,1946,1942.5,1939.5,1936.5,1933.5,1930.5,1927.5,1925,1925,1919,1912.5,1912.5,1909.5,1909.5,1906.5,1906.5,1906.5,1906.5,1906.5,1903.5,1900.5,1900.5,1900.5,1897.5,1895,1895,1897.5,1897.5,1894.5,1894.5,1894.5,1894.5,1894.5,1894.5,1894.5,1894.5,1894.5,1894.5,1894.5,1900.5,1903.5,1906.5,1906.5,1912.5,1919,1919,1927.5,1933.5,1936.5,1936.5,1946,1949,1952,1952,1952,1955,1955,1955,1955,1952,1948.5,1945.5,1942.5
1949,1943,1940.5,1937.5,1937,1934,1928,1928,1925,1925,1925,1925,1928,1925,1924.5,1924.5,1930.5,1930.5,1933.5,1936.5,1939.5,1939.5,1942.5,1942.5,1942.5,1939.5,1946,1946,1946,1949,1946,1946,1949,1949,1949,1945.5,1939.5,1939.5,1939.5,1933.5,1930.5,1928,1928,1925,1925,1922,1922,1922,1922,1922,1925,1925,1930.5,1933.5,1936.5,1942.5,1946,1955,1958,1964,1970.5,1977,1977,1980,1983.5,1986.5,1986.5,1986.5,1989.5,1986.5,1983.5,1983.5,1976.5,1976.5,1976.5,1976.5,1970.5,1967.5,1961,1958,1958,1955,1952,1952,1949,1943,1943,1939.5,1936.5,1933.5,1930.5,1927.5,1924,1921,1915.5,1912.5,1909.5,1906.5,1906.5,1904,1904,1904,1909.5,1909.5,1912.5,1912.5,1915.5,1918.5,1924.5,1924.5,1927.5,1930.5,1933.5,1933.5,1936.5,1939.5,1939.5,1943,1943,1940,1943,1940,1933.5,1930,1930,1927,1921,1915,1912,1904,1901,1895,1892,1883,1877.5,1868.5,1860.5,1852,1849,1844,1841,1835.5,1830,1830,1832.5,1832.5,1832.5,1832.5,1838.5,1838.5,1843.5,1849.5,1849.5,1849.5,1852,1854.5,1854.5,1857.5,1854.5,1849.5,1846.5,1846.5,1846.5,1846.5,1843.5,1838.5,1835.5,1832.5,1832.5,1832.5,1830,1825,1822,1822,1819.5,1814,1814,1811,1811,1811,1816.5,1816.5,1822,1832.5,1832.5,1835.5,1838.5,1838.5,1841,1841,1841,1835.5,1833,1833,1827.5,1827.5,1827.5,1825,1822,1822,1824.5,1827,1830,1835.5,1835.5,1838.5,1835.5,1838,1841,1841,1841,1841,1841,1841,1841,1844,1844,1843.5,1843.5,1841,1841,1841,1844,1841,1843.5,1838.5,1841,1841,1844,1844,1844,1844,1844,1844,1846.5,1846.5,1849.5,1852,1852,1860.5,1866,1866,1871.5,1874.5,1883,1886,1892,1895,1895,1892,1892,1892,1889,1889,1886,1886,1883.5,1886,1886,1886,1886,1886,1886,1889,1892,1895,1898,1900.5,1903.5,1909.5,1912.5,1916,1919,1922,1930.5,1930.5,1933.5,1939.5,1942.5,1946,1946,1946,1949,1949,1952,1952,1955,1955,1958,1958,1964.5,1964.5,1967.5,1970.5,1973.5,1977,1977,1980,1980,1980,1980,1977,1977,1977,1977,1973.5,1970.5,1970.5,1970.5,1970.5,1970.5,1967.5,1964.5,1961.5,1958,1955,1952,1949,1946,1943,1943,1940,1937,1936.5,1933.5,1933.5,1930.5,1933.5,1939.5,1939.5,1942.5,1945.5,1945.5,1949,1952,1958.5,1961.5,1958.5,1958.5,1958.5,1955,1958,1961,1961,1958,1955,1955,1955,1958,1955,1955,1949,1949,1949,1949,1949,1943,1943,1943,1943,1940,1940,1940,1940,1937,1937,1933.5,1930.5,1930.5,1927.5,1921,1918.5,1918.5,1915.5,1915.5,1909.5,1906.5,1906.5,1906.5,1906.5,1906.5,1906.5,1909.5,1909.5,1912.5,1912.5,1915,1918,1921,1921,1921,1927,1930.5,1927,1924,1921,1921,1918,1915.5,1915.5,1909.5,1906.5,1900.5,1897.5,1889,1889,1886,1883,1883,1880,1880,1880,1880,1880,1883,1883,1883,1883,1883.5,1883.5,1883.5,1886,1886,1886,1889,1889,1889,1895,1901,1904,1906.5,1912.5,1912.5,1918,1924,1927,1930.5,1933.5,1936.5,1943,1943,1946,1946,1952,1955,1952,1952,1949,1949,1946,1946,1942.5,1939.5,1939.5,1933.5,1927.5,1925,1925,1919,1915.5,1912.5,1909.5,1909.5,1909.5,1909.5,1909.5,1909.5,1903.5,1903.5,1903.5,1900.5,1900.5,1900.5,1898,1898,1895,1895,1897.5,1894.5,1894.5,1894.5,1894.5,1894.5,1894.5,1894.5,1897.5,1897.5,1897.5,1900.5,1903.5,1906.5,1906.5,1912.5,1919,1922,1927.5,1933.5,1936.5,1939.5,1949,1949,1955,1955,1958,1958,1958,1955,1955,1952,1948.5,1942.5,1939.5
1952,1946,1943,1937,1937,1934,1931,1928,1925,1925,1925,1922,1922,1922,1925,1927.5,1930.5,1933.5,1936.5,1939.5,1943,1946,1946,1946,1942.5,1946,1946,1949,1949,1949,1949,1949,1949,1949,1949,1942.5,1936.5,1936.5,1933.5,1930.5,1927.5,1927.5,1922,1922,1919,1916,1919,1922,1922,1922,1925,1925,1930.5,1933.5,1939.5,1942.5,1949,1955,1961,1964,1970.5,1973.5,1980,1983.5,1983.5,1983.5,1986.5,1989.5,1989.5,1986.5,1983.5,1983.5,1976.5,1976.5,1976.5,1973.5,1967.5,1964.5,1958,1958,1955,1952,1952,1949,1943,1943,1939.5,1933.5,1933.5,1933.5,1930.5,1927.5,1921,1918.5,1915.5,1909.5,1909.5,1909.5,1906.5,1904,1907,1909.5,1912.5,1915.5,1918.5,1915.5,1922,1925,1930.5,1930.5,1933.5,1933.5,1939.5,1942.5,1942.5,1949,1949,1952,1952,1952,1952,1949,1952,1943,1943,1940,1936.5,1933.5,1927,1924,1918,1915,1909.5,1906.5,1901,1892,1883.5,1874.5,1874.5,1868.5,1863.5,1857.5,1854.5,1854.5,1854.5,1857.5,1854.5,1854.5,1854.5,1860.5,1860.5,1863,1863,1866,1863,1866,1866,1866,1863,1857.5,1857.5,1854.5,1852,1852,1849.5,1841,1838.5,1835.5,1835.5,1835.5,1833,1825,1825,1816.5,1814,1814,1811,1808.5,1808.5,1806,1811.5,1814,1822,1827.5,1832.5,1835.5,1835.5,1838.5,1843.5,1843.5,1841,1835.5,1835.5,1833,1833,1830,1830,1827.5,1822,1824.5,1824.5,1830,1833,1835.5,1835.5,1835.5,1838.5,1841,1841,1841,1844,1841,1841,1838.5,1838.5,1838,1838,1835.5,1838.5,1835.5,1835.5,1835.5,1835.5,1832.5,1832.5,1830,1833,1833,1835.5,1835.5,1835.5,1835.5,1838,1838,1841,1841,1844,1844,1846.5,1849,1852,1855,1860,1863,1869,1874.5,1874.5,1877.5,1877.5,1877.5,1877.5,1877.5,1874.5,1874.5,1871.5,1871.5,1871.5,1874.5,1874.5,1874.5,1871.5,1871.5,1874.5,1877,1880,1883,1880.5,1886.5,1889.5,1894.5,1897.5,1900.5,1909.5,1909.5,1915.5,1918.5,1924.5,1924.5,1930.5,1933.5,1933.5,1937,1940,1943,1943,1946,1946,1949,1949,1955,1958.5,1961.5,1961.5,1967.5,1970.5,1973.5,1977,1977,1980,1977,1977,1980,1976.5,1970.5,1970.5,1970.5,1970.5,1967.5,1967.5,1967.5,1967.5,1967.5,1961.5,1961.5,1955,1955,1952,1949,1949,1943,1943,1940,1937,1937,1933.5,1930.5,1933.5,1933.5,1936.5,1939.5,1942.5,1942.5,1945.5,1945.5,1952,1955.5,1961.5,1958.5,1958.5,1961.5,1958,1961,1961,1958,1955,1955,1955,1955,1955,1955,1952,1952,1952,1946,1946,1946,1946,1946,1939.5,1939.5,1939.5,1939.5,1939.5,1936.5,1933.5,1933.5,1930.5,1930.5,1924,1921,1921,1918.5,1915.5,1912.5,1912.5,1912.5,1909.5,1909.5,1909.5,1912.5,1912.5,1912.5,1915.5,1915.5,1918,1921,1921,1924,1924,1927,1930.5,1930.5,1930.5,1930.5,1930.5,1927.5,1927.5,1921,1918.5,1915.5,1912.5,1906.5,1903.5,1897.5,1895,1889,1886,1880.5,1883,1877.5,1880,1880,1880,1880,1880,1880,1883,1883,1886,1886,1886,1889,1892,1892,1895,1895,1898,1904,1909.5,1912.5,1915,1918,1921,1921,1930.5,1933.5,1933.5,1939.5,1943,1946,1949,1949,1952,1955,1955,1955,1955,1955,1952,1952,1949,1946,1942.5,1939.5,1936.5,1933.5,1927.5,1927.5,1922,1915.5,1915.5,1912.5,1909.5,1909.5,1909.5,1909.5,1909.5,1906.5,1903.5,1906.5,1903.5,1903.5,1901,1901,1898,1898,1898,1900.5,1897.5,1894.5,1894.5,1897.5,1897.5,1897.5,1897.5,1897.5,1895,1898,1900.5,1900.5,1903.5,1909.5,1912.5,1915.5,1922,1927.5,1930.5,1936.5,1939.5,1945.5,1952,1955,1955,1958.5,1955,1955,1955,1955,1952,1945.5,1942.5,1939.5
1955.5,1949,1946,1939.5,1937,1937,1928,1925,1925,1919,1919,1922,1919,1919,1922,1925,1930.5,1933.5,1936.5,1942.5,1946,1946,1949,1949,1949,1949,1952,1952,1952,1952,1952,1952,1952,1949,1946,1939.5,1936.5,1930.5,1930.5,1930.5,1927.5,1924.5,1924.5,1922,1922,1919,1916,1919,1919,1925,1925,1928,1930.5,1933.5,1939.5,1946,1952,1955,1961,1967.5,1970.5,1973.5,1976.5,1983.5,1983.5,1983.5,1986.5,1983.5,1983.5,1983.5,1983.5,1980,1976.5,1973.5,1973.5,1967.5,1967.5,1961,1958,1952,1949,1946,1946,1943,1940,1936.5,1933.5,1933.5,1933.5,1930.5,1930.5,1924.5,1921,1918.5,1918.5,1912.5,1909.5,1909.5,1909.5,1906.5,1909.5,1912,1912.5,1918.5,1922,1922,1928,1930.5,1933.5,1936.5,1936.5,1942.5,1942.5,1945.5,1948.5,1949,1952,1955,1955,1955,1955,1958,1952,1952,1949,1946,1946,1940,1937,1933.5,1933.5,1930.5,1930.5,1927.5,1918.5,1915.5,1909.5,1903.5,1898,1898,1892,1886,1883,1883,1880,1877.5,1877.5,1874.5,1874.5,1874.5,1877.5,1877.5,1877.5,1877.5,1877.5,1877.5,1877.5,1874.5,1871.5,1869,1863,1860.5,1860.5,1854.5,1852,1846.5,1841,1838,1838,1835.5,1833,1830,1825,1822,1819.5,1817,1811,1808.5,1806,1806,1809,1814,1819,1825,1830,1832.5,1835.5,1835.5,1843.5,1843.5,1841,1838.5,1835.5,1835.5,1835.5,1835.5,1832.5,1827.5,1824.5,1824.5,1827,1833,1833,1835.5,1835.5,1838.5,1838,1838,1838,1841,1844,1841,1841,1841,1838.5,1841,1838,1835.5,1835.5,1835.5,1832.5,1832.5,1832.5,1832.5,1830,1827,1827,1827,1830,1830,1830,1830,1833,1833,1838,1838,1838,1835.5,1835.5,1838,1841,1844,1844,1849,1852,1857.5,1860,1863,1863,1863,1863,1863,1863,1863,1860.5,1860.5,1860.5,1860.5,1857.5,1857.5,1860.5,1860.5,1860.5,1860,1863,1866,1868.5,1871.5,1877.5,1883.5,1886.5,1892,1895,1897.5,1900.5,1906.5,1909.5,1912.5,1915.5,1921,1924,1924,1930.5,1933.5,1933.5,1936.5,1939.5,1942.5,1945.5,1948.5,1952,1955.5,1958.5,1964.5,1967.5,1970.5,1970.5,1974,1977,1977,1973.5,1973.5,1973.5,1973.5,1973.5,1970.5,1967.5,1964.5,1964.5,1964.5,1964.5,1964.5,1961.5,1961.5,1955,1955,1952,1949,1949,1946,1943,1943,1940,1937,1937,1930.5,1930.5,1930.5,1936.5,1936.5,1936.5,1939.5,1945.5,1945.5,1952,1958.5,1958.5,1955,1958,1961,1961,1958,1961,1958,1955,1955,1955,1955,1955,1955,1952,1952,1949,1949,1949,1949,1942.5,1939.5,1939.5,1939.5,1936.5,1936.5,1936.5,1933.5,1930.5,1930.5,1927.5,1924,1918,1918,1915.5,1912.5,1909.5,1909.5,1909.5,1909.5,1909.5,1912.5,1912.5,1918.5,1918.5,1918.5,1921,1921,1924,1927,1927,1930,1933.5,1933.5,1930.5,1933.5,1936.5,1936.5,1933.5,1933.5,1930.5,1930.5,1924.5,1924.5,1918.5,1912.5,1909.5,1900.5,1897.5,1894.5,1886.5,1883.5,1880.5,1874.5,1877.5,1874.5,1874.5,1874.5,1877.5,1880,1886,1886,1886,1892,1892,1895,1898,1901,1901,1904,1907,1909.5,1915,1915,1921,1924,1927.5,1930.5,1933.5,1936.5,1939.5,1942.5,1946,1949,1949,1952,1952,1955,1955,1958,1958,1955,1955,1952,1949,1949,1942.5,1939.5,1939.5,1933.5,1927.5,1927.5,1927.5,1918.5,1915.5,1912.5,1912.5,1912.5,1912.5,1909.5,1909.5,1906.5,1909.5,1910,1910,1907,1904.5,1904.5,1901,1901,1898,1900.5,1900.5,1897.5,1897.5,1897.5,1897.5,1897.5,1895,1898,1895,1895,1895,1903.5,1903.5,1909.5,1912.5,1912.5,1918.5,1924.5,1927.5,1936.5,1939.5,1945.5,1949,1955,1955,1955,1955,1955,1955,1955,1949,1942.5,1939.5,1933.5
1958.5,1952,1945.5,1942.5,1936.5,1934,1928,1925,1922,1919,1919,1916,1919,1919,1922,1925,1930.5,1933.5,1939.5,1946,1949,1949,1949,1955,1955,1952,1958,1955,1955,1952,1955,1952,1952,1949,1946,1940,1940,1933.5,1930.5,1927,1927,1924,1924,1921,1918.5,1918.5,1919,1922,1922,1925,1928,1930.5,1930.5,1936.5,1942.5,1946,1952,1958,1961,1967.5,1970.5,1973.5,1980,1980,1980,1980,1983,1983.5,1983.5,1980,1980,1980,1973.5,1973.5,1970.5,1967.5,1964,1958,1955,1952,1949,1943,1940,1940,1936.5,1936.5,1933.5,1933.5,1933.5,1930.5,1930.5,1927.5,1921,1921,1918.5,1921,1915.5,1918,1915,1915,1918,1915,1918,1921,1927.5,1930.5,1933.5,1936.5,1939.5,1942.5,1945.5,1945.5,1948.5,1948.5,1955.5,1955.5,1958.5,1958.5,1958.5,1958.5,1958.5,1955,1955,1952,1952,1949,1946,1943,1943,1936.5,1940,1936.5,1936.5,1933.5,1930.5,1930.5,1930.5,1927.5,1924.5,1921,1918,1912.5,1912.5,1909.5,1909.5,1909.5,1904,1904,1901,1898,1898,1898,1895,1892,1892,1892,1892,1886,1883,1880,1874.5,1869,1866,1860.5,1857.5,1855,1849,1844,1844,1844,1838,1833,1830,1827.5,1827.5,1822,1819.5,1814,1811.5,1811.5,1814,1816.5,1819,1825,1825,1830,1830,1835.5,1838.5,1841,1838.5,1838.5,1835.5,1835.5,1838.5,1838.5,1835.5,1833,1827,1830,1833,1835.5,1838,1838,1835.5,1835.5,1838.5,1841,1844,1844,1844,1844,1841,1841,1838.5,1841,1838,1833,1835.5,1832.5,1832.5,1832.5,1832.5,1827.5,1827.5,1824.5,1822,1822,1824.5,1824.5,1824.5,1822,1822,1824.5,1827,1830,1830,1830,1827.5,1830,1830,1827,1830,1830,1835.5,1838,1841,1844,1844,1844,1846.5,1846.5,1852,1849.5,1849.5,1849.5,1849.5,1849.5,1849.5,1849.5,1849.5,1849.5,1849.5,1849,1852,1857.5,1860.5,1863.5,1863.5,1868.5,1871.5,1877.5,1880.5,1883.5,1889,1892,1895,1898,1901,1907,1907,1909.5,1915.5,1915.5,1922,1927.5,1930.5,1933.5,1939.5,1942.5,1945.5,1952,1955.5,1958.5,1961.5,1964.5,1967.5,1970.5,1974,1973.5,1970.5,1973.5,1970.5,1967.5,1967.5,1967.5,1964.5,1964.5,1961.5,1964.5,1964.5,1964.5,1961.5,1958,1958,1955,1952,1952,1949,1946,1943,1943,1940,1937,1933.5,1930,1930,1930,1930.5,1930.5,1930.5,1936.5,1943,1943,1949,1952,1955,1958,1955,1955,1955,1958,1958,1958,1958,1955,1955,1955,1952,1952,1952,1946,1949,1946,1942.5,1942.5,1939.5,1939.5,1939.5,1939.5,1936.5,1933.5,1933.5,1927.5,1927.5,1924,1918,1918,1912.5,1912.5,1912.5,1906.5,1906.5,1909.5,1909.5,1909.5,1909.5,1915.5,1918.5,1918.5,1924.5,1927.5,1927.5,1930.5,1930.5,1933.5,1933.5,1937,1937,1936.5,1936.5,1936.5,1936.5,1936.5,1936.5,1936.5,1936.5,1933.5,1930.5,1927.5,1922,1916,1913,1906.5,1900.5,1894.5,1886.5,1883.5,1880.5,1874.5,1874.5,1872,1872,1874.5,1877.5,1880,1886,1889,1892,1895,1898,1901,1904,1904,1909.5,1909.5,1909.5,1915,1918,1921,1924.5,1930.5,1930.5,1936.5,1939.5,1939.5,1942.5,1949,1949,1952,1952,1955,1958,1958,1958,1958,1958,1958,1955,1955,1952,1949,1949,1942.5,1939.5,1936.5,1933.5,1930.5,1927.5,1924.5,1918.5,1918.5,1915.5,1912.5,1912.5,1912.5,1912.5,1912.5,1913,1913,1910,1913,1907,1907,1904.5,1904.5,1903.5,1900.5,1900.5,1897.5,1900.5,1897.5,1897.5,1898,1895,1895,1892,1892,1898,1901,1901,1906.5,1909.5,1912.5,1915.5,1921,1924.5,1933.5,1936.5,1939.5,1949,1952,1952,1952,1952,1952,1952,1949,1946,1936.5,1936.5,1933.5
1958,1955,1952,1942.5,1939.5,1933.5,1931,1925,1922,1916,1916,1919,1919,1919,1922,1925,1930.5,1939.5,1942.5,1946,1949,1952,1955,1958,1958,1958,1958,1958,1955,1955,1958,1955,1952,1949,1946,1943,1937,1933.5,1933.5,1927,1927,1924,1921,1924,1921,1922,1922,1925,1928,1928,1930.5,1930.5,1936.5,1939.5,1946,1949,1955,1958,1964.5,1964.5,1970.5,1973.5,1977,1977,1980,1980,1980,1976.5,1976.5,1980,1977,1977,1973.5,1970.5,1967,1964,1961,1955,1952,1949,1943,1940,1940,1936.5,1936.5,1930.5,1930.5,1933.5,1933.5,1933.5,1930.5,1927.5,1924,1921,1921,1921,1921,1921,1921,1921,1921,1927,1930.5,1930.5,1933.5,1936.5,1939.5,1942.5,1946,1949,1949,1949,1952,1952,1952,1955.5,1955.5,1958.5,1961.5,1961.5,1958.5,1958.5,1958.5,1955,1952,1949,1949,1942.5,1942.5,1942.5,1939.5,1939.5,1942.5,1942.5,1942.5,1943,1943,1943,1943,1943,1940,1937,1937,1937,1937,1933.5,1930,1924,1921,1918,1918,1912,1912,1907,1907,1904,1904,1901,1895,1889,1886,1880,1877.5,1871.5,1868.5,1866,1860.5,1855,1852,1852,1846.5,1844,1838,1835.5,1835.5,1830,1830,1824.5,1822,1819.5,1819,1819,1822,1825,1825,1825,1830,1830,1835.5,1838.5,1838.5,1835.5,1835.5,1835.5,1838.5,1838.5,1838.5,1835.5,1833,1833,1835.5,1835.5,1841,1838,1838,1835.5,1838.5,1841,1844,1844,1844,1841,1841,1841,1841,1841,1835.5,1827,1830,1830,1830,1830,1830,1824.5,1824.5,1822,1822,1819.5,1824.5,1822,1819.5,1819.5,1819.5,1822,1822,1824.5,1822,1819.5,1819.5,1819.5,1819.5,1822,1822,1822,1827,1827,1830,1833,1835.5,1838,1838,1838,1841,1838.5,1838.5,1838.5,1838.5,1838.5,1838.5,1838.5,1838.5,1838.5,1841,1841,1844,1846.5,1846.5,1849.5,1854.5,1857.5,1860.5,1866,1868.5,1871.5,1874.5,1874.5,1880,1880,1883,1886,1892,1892,1898,1900.5,1903.5,1909.5,1912.5,1922,1925,1931,1936.5,1939.5,1945.5,1952,1958.5,1961.5,1967.5,1967,1970.5,1967.5,1970.5,1967.5,1967.5,1967.5,1964.5,1964.5,1958.5,1958.5,1955.5,1958.5,1958.5,1961.5,1958,1958,1958,1958,1955,1952,1952,1946,1943,1943,1943,1936.5,1933.5,1930.5,1927,1927,1927,1930,1930,1933.5,1933.5,1940,1943,1949,1952,1952,1952,1955,1955,1958,1961,1955,1955,1955,1955,1952,1952,1949,1946,1946,1946,1946,1942.5,1942.5,1936.5,1936.5,1936.5,1936.5,1936.5,1930.5,1927.5,1927.5,1921,1918,1915.5,1912.5,1912.5,1906.5,1904,1906.5,1903.5,1906.5,1906.5,1912.5,1912.5,1915.5,1921,1927.5,1930.5,1930.5,1933.5,1936.5,1933.5,1937,1937,1940,1940,1940,1936.5,1936.5,1936.5,1939.5,1939.5,1939.5,1939.5,1933.5,1933.5,1930.5,1930.5,1922,1916,1906.5,1903.5,1897.5,1889.5,1883.5,1883.5,1877.5,1874.5,1872,1874.5,1877,1877,1883,1889,1889,1892,1898,1901,1904,1904,1907,1909.5,1912,1912,1915,1921,1924.5,1927.5,1927.5,1936.5,1939.5,1939.5,1942.5,1948.5,1948.5,1952,1952,1955,1958,1958,1961,1958,1958,1958,1958,1955,1955,1952,1949,1949,1945.5,1939.5,1939.5,1936.5,1933.5,1927.5,1924.5,1921,1921,1915.5,1915.5,1912.5,1912.5,1912.5,1912.5,1916,1916,1913,1913,1910,1910,1910,1910,1907,1903.5,1903.5,1903.5,1900.5,1903.5,1900.5,1898,1895,1898,1892,1898,1898,1898,1901,1904,1906.5,1912.5,1912.5,1918,1921,1930.5,1930.5,1936.5,1943,1946,1949,1949,1949,1949,1949,1943,1943,1936.5,1933.5,1930.5
1961,1955,1949,1945.5,1939.5,1933.5,1928,1925,1919,1919,1919,1919,1919,1919,1925,1927.5,1933.5,1939.5,1942.5,1949,1955,1958,1958,1958,1961,1961,1961,1961,1958,1955,1958,1958,1952,1946,1946,1943,1940,1933.5,1930.5,1930.5,1930.5,1927,1927,1924,1927.5,1927.5,1927.5,1930.5,1930.5,1930.5,1933.5,1936.5,1939.5,1942.5,1946,1952,1955,1958,1964.5,1964.5,1967.5,1970.5,1970.5,1970.5,1970.5,1973.5,1973.5,1976.5,1973.5,1973.5,1973.5,1970.5,1967,1967,1964,1961,1955,1952,1949,1946,1943,1940,1933.5,1933.5,1933.5,1930.5,1930.5,1930.5,1933.5,1933.5,1933.5,1930.5,1930.5,1927,1927,1927,1927,1927,1927,1927,1930,1930.5,1933.5,1936.5,1939.5,1942.5,1945.5,1949,1952,1952,1952,1952,1955,1958.5,1958.5,1958.5,1961.5,1961.5,1961.5,1961.5,1958.5,1958.5,1958.5,1955.5,1955.5,1948.5,1948.5,1942.5,1942.5,1942.5,1942.5,1945.5,1942.5,1945.5,1945.5,1945.5,1949,1946,1949,1949,1949,1946,1949,1949,1949,1946,1943,1940,1936.5,1936.5,1930.5,1927,1927,1921,1915,1915,1915,1909.5,1904,1901,1898,1892,1889,1883,1877.5,1874.5,1871.5,1863,1863,1860.5,1858,1852,1849,1846.5,1846.5,1841,1838,1833,1833,1830,1827.5,1827.5,1827.5,1827.5,1827.5,1827.5,1827.5,1832.5,1838.5,1838.5,1838.5,1838.5,1838.5,1838.5,1838.5,1841,1841,1838,1838,1838,1838,1838,1841,1838,1838,1838,1838.5,1841,1843.5,1841,1841,1838.5,1838.5,1838.5,1838.5,1838,1830,1824.5,1827,1824.5,1827,1827.5,1824.5,1824.5,1822,1822,1822,1819.5,1822,1819.5,1819.5,1819.5,1819.5,1817,1822,1819.5,1819.5,1814,1811.5,1811.5,1811.5,1814,1814,1814,1822,1822,1827,1830,1830,1833,1833,1832.5,1832.5,1832.5,1832.5,1832.5,1832.5,1832.5,1830,1827.5,1830,1830,1830,1830,1833,1835.5,1838,1841,1843.5,1849.5,1852,1854.5,1857.5,1857.5,1863,1863,1866,1866,1869,1871.5,1871.5,1880.5,1883.5,1883.5,1886.5,1894.5,1897.5,1903.5,1906.5,1916,1919,1928,1933.5,1942.5,1945.5,1952,1955,1961,1964,1964.5,1961.5,1964.5,1958.5,1958.5,1958.5,1958.5,1958.5,1952,1955.5,1955.5,1955.5,1955,1958,1958,1955,1955,1955,1955,1949,1946,1946,1943,1939.5,1936.5,1930.5,1927.5,1927.5,1927.5,1927.5,1927.5,1927.5,1930.5,1933.5,1936.5,1939.5,1946,1946,1949,1952,1955,1955,1958,1958,1955,1955,1955,1955,1949,1949,1946,1943,1943,1943,1936.5,1933.5,1933.5,1933.5,1933.5,1930.5,1927.5,1927.5,1924.5,1924.5,1918,1915.5,1912.5,1912.5,1909.5,1904,1904,1904,1901,1904,1906.5,1909.5,1912.5,1915,1921,1924,1930.5,1936.5,1936.5,1940,1940,1943,1943,1943,1940,1943,1940,1940,1936.5,1939.5,1943,1943,1939.5,1942.5,1939.5,1933.5,1933.5,1930.5,1922,1916,1909.5,1903.5,1894.5,1889.5,1886.5,1883.5,1880.5,1877.5,1877,1877,1877,1877,1886,1889,1892,1895,1901,1904,1907,1909.5,1907,1912,1915,1915,1918,1921,1927.5,1930.5,1930.5,1936.5,1939.5,1945.5,1945.5,1945.5,1945.5,1948.5,1952,1952,1955,1955,1958,1958,1958,1955,1955,1955,1955,1952,1949,1949,1945.5,1942.5,1939.5,1936.5,1930.5,1927.5,1927.5,1922,1918.5,1915.5,1915.5,1909.5,1912.5,1909.5,1912.5,1916,1916,1916,1913,1913,1913,1913,1913,1913,1910,1906.5,1906.5,1906.5,1903.5,1903.5,1901,1898,1898,1895,1895,1895,1898,1901,1904,1904,1906.5,1909.5,1915,1918,1924,1927,1933.5,1937,1943,1943,1946,1946,1946,1946,1940,1940,1933.5,1930.5,1930.5
1961,1958,1952,1946,1939.5,1939.5,1930.5,1930.5,1922,1922,1922,1922,1922,1925,1925,1930.5,1936.5,1939.5,1949,1952,1958,1958,1958,1961,1961,1961,1961,1961,1961,1958,1958,1955,1955,1949,1949,1943,1939.5,1939.5,1933.5,1933.5,1933.5,1933.5,1933.5,1933.5,1933.5,1930.5,1936.5,1936.5,1939.5,1939.5,1939.5,1942.5,1945.5,1949,1952,1952,1958,1961,1961,1964.5,1967.5,1967.5,1970.5,1970.5,1970.5,1973.5,1973.5,1970.5,1970.5,1970.5,1970.5,1967,1967,1961,1961,1958,1952,1952,1946,1940,1940,1933.5,1933.5,1933.5,1933.5,1933.5,1933.5,1933.5,1936.5,1936.5,1936.5,1936.5,1933.5,1933.5,1933.5,1933.5,1933.5,1933.5,1937,1937,1940,1943,1946,1942.5,1945.5,1948.5,1952,1955,1952,1952,1955,1955,1958.5,1958.5,1958.5,1958.5,1958.5,1958.5,1958.5,1958.5,1958.5,1958,1955,1955,1952,1949,1946,1946,1939.5,1939.5,1942.5,1942.5,1942.5,1949,1945.5,1955.5,1955.5,1955,1958,1955,1955,1958,1955,1955,1958,1955,1952,1949,1949,1946,1943,1939.5,1936.5,1930.5,1930.5,1930.5,1927,1921,1918,1915,1912,1907,1901,1895,1892,1889,1883.5,1877.5,1877.5,1874.5,1872,1866,1863,1860.5,1857.5,1852,1849.5,1846.5,1844,1841,1841,1838.5,1838.5,1838.5,1838.5,1838.5,1838.5,1841,1843.5,1846.5,1843.5,1843.5,1841,1843.5,1843.5,1846.5,1844,1841,1838,1838,1838,1841,1841,1838,1838,1838,1838.5,1841,1841,1838.5,1835.5,1835.5,1835.5,1835.5,1832.5,1833,1827,1822,1827,1824.5,1827,1827,1827,1824.5,1822,1822,1822,1822,1822,1819.5,1819.5,1819.5,1819.5,1819.5,1822,1819.5,1819.5,1814,1811.5,1811.5,1811.5,1814,1811,1814,1817,1819.5,1822,1827,1827,1830,1830,1830,1830,1827.5,1827.5,1827.5,1825,1822,1822,1824.5,1822,1824.5,1824.5,1824.5,1827,1827,1830,1835.5,1838.5,1838.5,1843.5,1843.5,1846.5,1852,1852,1852,1855,1855,1855,1857.5,1860.5,1863.5,1866,1871.5,1874.5,1877.5,1883.5,1886.5,1895,1898,1903.5,1913,1919,1925,1930.5,1933.5,1936.5,1943,1946,1949,1949,1952,1952,1952,1955,1952,1949,1949,1952,1952,1952,1955,1955,1955,1955,1955,1955,1955,1952,1949,1949,1943,1943,1939.5,1933.5,1927.5,1924.5,1924.5,1924.5,1924.5,1924.5,1930.5,1930.5,1933.5,1936.5,1939.5,1945.5,1945.5,1952,1952,1955,1955,1958,1955,1952,1955,1949,1949,1943,1943,1943,1940,1937,1933.5,1930.5,1930.5,1930.5,1927,1924,1924,1918,1918,1918,1915,1912,1909.5,1904,1904,1904,1904,1901,1901,1904,1909.5,1912.5,1915,1921,1927,1930.5,1937,1943,1946,1946,1943,1946,1946,1946,1946,1946,1943,1940,1936.5,1943,1943,1943,1939.5,1942.5,1936.5,1933.5,1930.5,1927.5,1925,1916,1906.5,1903.5,1897.5,1892,1889,1886,1883,1880,1877,1880,1883,1886,1889,1895,1898,1898,1904,1907,1909.5,1909.5,1912,1915,1918,1918,1921,1924.5,1927.5,1930.5,1933.5,1936.5,1939.5,1942.5,1945.5,1949,1949,1949,1949,1952,1955.5,1952,1955,1955,1955,1955,1955,1952,1952,1952,1949,1945.5,1945.5,1942.5,1942.5,1936.5,1933.5,1930.5,1927.5,1922,1918.5,1915.5,1915.5,1912.5,1912.5,1909.5,1912.5,1915.5,1916,1916,1916,1913,1913,1913,1913,1913,1913,1909.5,1909.5,1906.5,1906.5,1906.5,1903.5,1901,1898,1895,1898,1895,1898,1901,1901,1901,1901,1907,1912,1912,1921,1924,1927,1933.5,1936.5,1940,1940,1940,1943,1940,1940,1937,1933.5,1930,1927
1958,1955,1952,1949,1946,1936.5,1936.5,1930.5,1927.5,1925,1925,1925,1930.5,1925,1927.5,1933.5,1939.5,1942.5,1949,1952,1958,1961,1961,1961,1961,1961,1961,1961,1958,1958,1958,1955,1952,1952,1949,1946,1942.5,1939.5,1939.5,1939.5,1939.5,1940,1940,1940,1939.5,1942.5,1942.5,1942.5,1945.5,1945.5,1948.5,1948.5,1952,1955,1958,1958,1961,1961,1964.5,1964.5,1967.5,1967.5,1970.5,1970.5,1970.5,1970.5,1970.5,1967.5,1967.5,1967.5,1964,1961,1961,1958,1958,1952,1952,1949,1943,1940,1936.5,1933.5,1933.5,1933.5,1937,1933.5,1937,1937,1940,1943,1943,1943,1940,1937,1940,1943,1943,1943,1943,1946,1946,1949,1949,1952,1952,1955.5,1958.5,1955,1955,1958.5,1958.5,1958.5,1958.5,1958.5,1958.5,1958.5,1958.5,1958.5,1958.5,1958.5,1958.5,1958,1952,1952,1949,1946,1943,1943,1943,1937,1939.5,1943,1946,1946,1949,1952,1955.5,1958.5,1958.5,1958,1958,1961,1958,1961,1961,1958,1955,1955,1952,1946,1946,1942.5,1942.5,1939.5,1936.5,1936.5,1936.5,1933.5,1930.5,1927,1921,1918,1915,1912.5,1903.5,1900.5,1897.5,1892,1889.5,1889.5,1889.5,1883.5,1880.5,1874.5,1871.5,1868.5,1866,1860.5,1860.5,1857.5,1852,1852,1849,1849,1846.5,1846.5,1846.5,1849.5,1849.5,1854.5,1852,1852,1849.5,1852,1852,1852,1852,1846.5,1844,1844,1844,1844,1841,1838,1835.5,1833,1833,1833,1835.5,1830,1827,1824.5,1824.5,1824.5,1827,1827,1824.5,1819.5,1822,1824.5,1827,1827,1827,1824.5,1824.5,1824.5,1822,1822,1824.5,1822,1819.5,1819.5,1819.5,1822,1822,1822,1819.5,1816.5,1814,1814,1814,1814,1814,1814,1817,1817,1822,1824.5,1827,1827,1827,1830,1827.5,1827.5,1824.5,1822,1822,1822,1816.5,1816.5,1819.5,1819.5,1819.5,1819.5,1822,1822,1824.5,1824.5,1830,1830,1832.5,1835.5,1838,1841,1841,1838,1841,1841,1841,1846.5,1846.5,1849.5,1852,1857.5,1860.5,1863,1872,1875,1880.5,1883.5,1889,1895,1900.5,1906.5,1912.5,1918.5,1924.5,1924,1930,1933.5,1936.5,1939.5,1942.5,1939.5,1942.5,1942.5,1945.5,1945.5,1945.5,1948.5,1952,1952,1955,1955,1955,1958,1958,1958,1952,1952,1949,1946,1943,1939.5,1933.5,1927.5,1924.5,1922,1922,1922,1922,1925,1925,1930.5,1933.5,1942.5,1942.5,1942.5,1948.5,1952,1952,1955,1955,1952,1952,1949,1943,1943,1943,1940,1933.5,1933.5,1930,1924,1924,1924,1924,1921,1918,1915,1912,1912,1912,1909.5,1909.5,1907,1904,1901,1901,1901,1901,1901,1907,1909.5,1915,1918,1927,1930,1937,1943,1949,1949,1952,1949,1949,1949,1949,1949,1949,1943,1943,1936.5,1936.5,1940,1940,1943,1939.5,1936.5,1930.5,1930.5,1924.5,1922,1915.5,1906.5,1903.5,1895,1895,1892,1889,1886,1883,1886,1886,1886,1889,1895,1898,1898,1904,1904,1909.5,1912,1912.5,1909.5,1915,1918,1918,1921,1924.5,1927.5,1928,1933.5,1939.5,1939.5,1943,1946,1946,1949,1949,1952,1952,1949,1952,1952,1952,1952,1952,1955,1952,1949,1949,1949,1949,1945.5,1942.5,1942.5,1942.5,1936.5,1933.5,1927.5,1924.5,1921,1918,1915.5,1912.5,1909.5,1912.5,1912.5,1915.5,1918.5,1915.5,1916,1916,1919,1919,1919,1916,1913,1913,1909.5,1909.5,1909.5,1903.5,1903.5,1901,1898,1898,1895,1898,1898,1901,1898,1901,1901,1904,1906.5,1909.5,1915,1918,1924,1927.5,1933.5,1933.5,1933.5,1939.5,1939.5,1939.5,1939.5,1933.5,1930.5,1930.5,1927
1955,1952,1952,1949,1943,1939.5,1936.5,1933.5,1927.5,1927.5,1927.5,1930.5,1930.5,1933.5,1933.5,1936.5,1942.5,1946,1952,1955,1961,1958,1964,1964,1964,1961,1961,1958,1958,1955,1955,1952,1949,1949,1949,1949,1942.5,1942.5,1942.5,1946,1946,1946,1946,1949,1949,1949,1948.5,1952,1955.5,1955.5,1955.5,1955.5,1958.5,1961.5,1964.5,1961,1961,1964,1964.5,1964.5,1964.5,1967.5,1967.5,1967.5,1964.5,1964.5,1967.5,1964,1964,1961,1961,1958,1958,1955,1952,1949,1949,1946,1943,1936.5,1936.5,1933.5,1937,1937,1937,1943,1943,1943,1946,1946,1949,1949,1949,1946,1946,1949,1949,1949,1949,1952,1958,1958,1958,1961.5,1958.5,1958.5,1961.5,1961.5,1958.5,1958.5,1961.5,1961.5,1961.5,1958.5,1958.5,1958.5,1958.5,1958.5,1958.5,1955,1955,1955,1952,1949,1949,1946,1943,1937.5,1940.5,1937.5,1940.5,1940.5,1943.5,1946,1949,1949,1955,1955,1961.5,1958.5,1961.5,1961,1958,1961,1961,1961,1958,1955,1955,1949,1945.5,1945.5,1939.5,1942.5,1942.5,1942.5,1942.5,1939.5,1936.5,1936.5,1933.5,1927,1927,1924,1915.5,1915.5,1912.5,1909.5,1906.5,1906.5,1903.5,1900.5,1900.5,1894.5,1892,1889,1883.5,1880.5,1877.5,1871.5,1871.5,1869,1866,1863,1860,1860,1857.5,1857.5,1863,1863,1863,1860.5,1863,1863,1863,1863,1860.5,1857.5,1852,1846.5,1844,1844,1841,1835.5,1830,1827,1822,1822,1822,1819.5,1817,1817,1817,1817,1817,1819.5,1819.5,1814,1819.5,1822,1824.5,1827,1827,1824.5,1827,1827,1830,1827,1827,1827,1822,1822,1822,1822,1824.5,1824.5,1819.5,1819.5,1816.5,1816.5,1816.5,1814,1817,1817,1817,1819.5,1819.5,1824.5,1824.5,1827,1827,1827,1824.5,1824.5,1822,1822,1816.5,1816.5,1816.5,1816.5,1816.5,1816.5,1816.5,1816.5,1816.5,1819.5,1819.5,1819.5,1822,1822,1824.5,1824.5,1827,1827,1827,1827,1827,1827,1830,1832.5,1832.5,1835.5,1838.5,1844,1849,1852,1858,1860.5,1863.5,1872,1878,1883.5,1886.5,1892,1894.5,1900.5,1906.5,1909.5,1915,1918,1921,1924.5,1927.5,1927.5,1930.5,1930.5,1936.5,1936.5,1936.5,1939.5,1942.5,1946,1949,1952,1952,1958,1958,1961,1955,1952,1952,1946,1943,1939.5,1930.5,1927.5,1922,1922,1922,1915.5,1919,1925,1925,1928,1930.5,1939.5,1942.5,1942.5,1948.5,1952,1952,1952,1952,1949,1949,1946,1943,1940,1933.5,1933.5,1927,1924,1921,1921,1918,1918,1918,1912.5,1912.5,1909.5,1906.5,1909.5,1906.5,1906.5,1906.5,1903.5,1901,1901,1904,1904,1901,1907,1907,1912,1915,1921,1927,1937,1937,1946,1952,1952,1952,1952,1952,1952,1949,1946,1946,1943,1939.5,1936.5,1936.5,1940,1940,1940,1936.5,1936.5,1930.5,1927.5,1924,1921,1912.5,1906.5,1898,1895,1895,1892,1892,1892,1889,1889,1889,1892,1895,1898,1901,1904,1904,1906.5,1909.5,1909.5,1912.5,1909.5,1912.5,1912.5,1915.5,1918.5,1922,1928,1928,1931,1937,1937,1943.5,1943.5,1943.5,1946,1946,1946,1949,1946,1949,1949,1945.5,1949,1949,1952,1952,1949,1949,1949,1949,1945.5,1942.5,1942.5,1942.5,1939.5,1933.5,1924.5,1921,1918,1918,1918,1909.5,1909.5,1909.5,1912,1915,1915,1918,1921,1918.5,1922,1925,1922,1922,1922,1919,1916,1912.5,1912.5,1906.5,1906.5,1903.5,1901,1898,1898,1898,1901,1901,1901,1901,1901,1904,1906.5,1906.5,1909.5,1915.5,1921,1924.5,1927.5,1930.5,1933.5,1936.5,1936.5,1936.5,1936.5,1936.5,1933.5,1933.5,1930.5
1952,1952,1949,1949,1946,1943,1939.5,1936.5,1933.5,1927.5,1930.5,1930.5,1933.5,1933.5,1936.5,1939.5,1946,1949,1949,1958,1958,1958,1961,1961,1961,1958,1958,1955,1952,1949,1949,1949,1945.5,1942.5,1945.5,1945.5,1942.5,1942.5,1946,1946,1949,1952,1952,1955,1955,1958.5,1961.5,1961.5,1964.5,1961.5,1961.5,1961.5,1961.5,1964.5,1964.5,1967.5,1967,1964,1964,1964.5,1964.5,1964.5,1964.5,1964.5,1961,1961,1958,1961,1961,1958,1955,1955,1952,1949,1949,1946,1946,1946,1939.5,1936.5,1936.5,1940,1940,1943,1943,1946,1949,1949,1952,1952,1952,1952,1955,1952,1955,1955,1955,1955,1958,1958,1961.5,1964.5,1964.5,1961.5,1961.5,1961.5,1961.5,1964.5,1964.5,1961.5,1961.5,1961.5,1961.5,1961.5,1961.5,1961.5,1961.5,1958.5,1955.5,1955,1955,1952,1949,1946,1946,1943.5,1940.5,1937.5,1937.5,1937.5,1937.5,1940.5,1943.5,1943.5,1946,1949,1949,1955,1955,1955.5,1958.5,1958,1961,1961,1958,1958,1958,1955,1952,1952,1945.5,1945.5,1942.5,1942.5,1945.5,1945.5,1942.5,1939.5,1939.5,1939.5,1936.5,1933.5,1933.5,1930.5,1924,1927.5,1924.5,1924.5,1925,1925,1925,1922,1919,1919,1915.5,1909.5,1906.5,1903.5,1898,1895,1892,1883,1883,1880,1877,1874.5,1872,1874.5,1874.5,1874.5,1877.5,1877.5,1874.5,1874.5,1874.5,1877.5,1871.5,1869,1860.5,1860.5,1857.5,1852,1846.5,1841,1835.5,1827,1824.5,1822,1817,1811,1808.5,1808.5,1808.5,1808.5,1811.5,1814,1808.5,1808.5,1814,1819.5,1822,1824.5,1822,1822,1824.5,1827,1827,1827,1827,1827,1827,1824.5,1827,1827,1827,1824.5,1824.5,1819.5,1819.5,1817,1814,1817,1817,1817,1819.5,1819.5,1819.5,1824.5,1827,1827,1827,1824.5,1824.5,1822,1822,1819.5,1816.5,1816.5,1814,1814,1814,1814,1814,1814,1814,1817,1817,1817,1817,1819.5,1822,1822,1822,1822,1822,1822,1822,1822,1824.5,1824.5,1824.5,1827.5,1830,1835.5,1838,1841,1846.5,1849.5,1852.5,1860.5,1863.5,1866.5,1869.5,1875,1878,1883.5,1889,1895,1901,1904,1907,1909.5,1915.5,1912.5,1915.5,1919,1922,1927.5,1927.5,1930.5,1933.5,1936.5,1943,1946,1949,1955,1958,1958,1952,1952,1949,1946,1946,1936.5,1930.5,1927.5,1922,1922,1918.5,1915.5,1915.5,1919,1922,1928,1930.5,1936.5,1939.5,1942.5,1945.5,1948.5,1952,1952,1952,1949,1946,1943,1939.5,1933.5,1930.5,1924,1924,1918,1918,1915.5,1909.5,1909.5,1909.5,1906.5,1906.5,1900.5,1900.5,1903.5,1903.5,1900.5,1903.5,1903.5,1903.5,1903.5,1906.5,1904,1907,1907,1912,1915,1921,1924,1930,1937,1940,1943,1949,1949,1949,1949,1952,1949,1946,1946,1946,1939.5,1936.5,1936.5,1936.5,1933.5,1937,1933.5,1933.5,1930.5,1927,1924,1921,1915,1912.5,1903.5,1901,1895,1895,1892,1892,1892,1889,1892,1892,1895,1898,1901,1904,1904,1904,1906.5,1909.5,1909.5,1909.5,1912.5,1912.5,1915.5,1915.5,1921,1922,1925,1928,1928,1934,1937,1940.5,1943.5,1943.5,1943.5,1943.5,1940.5,1940.5,1943,1939.5,1942.5,1939.5,1942.5,1942.5,1946,1946,1949,1949,1949,1949,1945.5,1948.5,1942.5,1942.5,1939.5,1933.5,1924.5,1921,1921,1918,1915,1912.5,1909.5,1909.5,1915.5,1918,1918,1921,1921,1921,1924,1924.5,1924.5,1924.5,1925,1922,1919,1916,1912.5,1909.5,1906.5,1906.5,1903.5,1903.5,1901,1898,1901,1901,1901,1901,1901,1901,1904,1906.5,1909.5,1912.5,1918.5,1922,1925,1927.5,1930.5,1930.5,1936.5,1936.5,1936.5,1936.5,1933.5,1933.5,1936.5
1945.5,1949,1946,1946,1946,1943,1940,1936.5,1933.5,1930.5,1930.5,1933.5,1933.5,1933.5,1936.5,1940,1940,1946,1952,1955,1952,1955,1958,1958,1958,1955,1955,1952,1949,1949,1945.5,1942.5,1942.5,1942.5,1942.5,1939.5,1942.5,1946,1946,1949,1952,1955,1958,1958,1961.5,1964.5,1964.5,1967.5,1967.5,1967.5,1967.5,1970.5,1967.5,1967.5,1967.5,1967.5,1967,1964,1964,1964.5,1964.5,1958,1958,1955,1958,1958,1958,1955,1955,1952,1952,1949,1949,1946,1946,1942.5,1942.5,1942.5,1936.5,1936.5,1936.5,1940,1943,1943,1949,1952,1955,1955,1958,1958.5,1958.5,1958.5,1958.5,1958.5,1961.5,1961.5,1961.5,1961.5,1961.5,1964.5,1967.5,1967.5,1967.5,1964.5,1964.5,1964.5,1964.5,1961.5,1961.5,1964.5,1964.5,1964.5,1964.5,1964.5,1961.5,1961.5,1961.5,1961.5,1955.5,1952,1955,1949,1949,1946,1943.5,1940.5,1940.5,1934.5,1934.5,1934.5,1934.5,1934.5,1940.5,1943.5,1940.5,1946,1946,1949,1949,1952,1952,1955,1955,1958,1958,1958,1955,1952,1952,1948.5,1948.5,1942.5,1942.5,1942.5,1945.5,1945.5,1945.5,1939.5,1939.5,1939.5,1936.5,1936.5,1937,1933.5,1930.5,1933.5,1936.5,1936.5,1936.5,1936.5,1936.5,1933.5,1933.5,1936.5,1930.5,1930.5,1927.5,1924.5,1918.5,1915.5,1909.5,1906.5,1903.5,1898,1898,1895,1892,1892,1892,1892,1892,1889,1889,1889,1889,1889,1889,1883,1877.5,1874.5,1869,1863,1857.5,1852,1846.5,1838,1833,1827,1822,1817,1814,1808.5,1808.5,1806,1808.5,1808.5,1806,1806,1808.5,1814,1816.5,1819.5,1819.5,1819.5,1822,1824.5,1824.5,1827.5,1827.5,1824.5,1827,1827,1830,1833,1833,1835.5,1830,1824.5,1822,1822,1819.5,1822,1817,1817,1819.5,1819.5,1822,1824.5,1827,1827,1827,1827,1824.5,1822,1819.5,1822,1819.5,1816.5,1816.5,1816.5,1816.5,1814,1814,1814,1814,1814,1814,1817,1817,1817,1817,1819.5,1819.5,1817,1817,1817,1814,1814,1814,1814,1816.5,1816.5,1819,1825,1825,1830,1833,1835.5,1838.5,1846.5,1849.5,1852,1855,1860.5,1866.5,1869,1874.5,1877.5,1883,1889,1892,1895,1898,1901,1903.5,1906.5,1909.5,1912.5,1915.5,1915.5,1921,1927,1930.5,1937,1940,1946,1949,1952,1949,1949,1949,1943,1940,1933.5,1927,1924,1918.5,1918.5,1918.5,1915.5,1915.5,1915.5,1922,1925,1930.5,1936.5,1942.5,1942.5,1948.5,1952,1952,1952,1952,1949,1942.5,1939.5,1936.5,1930.5,1924,1921,1918,1915.5,1912.5,1912.5,1906.5,1903.5,1903.5,1900.5,1897.5,1894.5,1894.5,1900.5,1900.5,1900.5,1897.5,1900.5,1900.5,1903.5,1906.5,1909.5,1907,1907,1915,1915,1921,1924,1930,1937,1937,1943,1943,1946,1946,1946,1946,1946,1946,1943,1939.5,1936.5,1936.5,1933.5,1933.5,1933.5,1933.5,1930,1927,1924,1924,1921,1915,1912,1907,1898,1898,1895,1892,1895,1898,1895,1895,1895,1895,1901,1904,1907,1907,1907,1909.5,1909.5,1909.5,1909.5,1909.5,1909.5,1912.5,1915.5,1915.5,1918.5,1922,1922,1925,1928,1931,1934,1937.5,1937.5,1934.5,1934.5,1937.5,1937.5,1937.5,1937,1934,1936.5,1936.5,1939.5,1939.5,1943,1946,1949,1949,1949,1945.5,1948.5,1945.5,1942.5,1939.5,1939.5,1930.5,1921,1918,1918,1915,1915.5,1912.5,1912.5,1912.5,1915.5,1919,1922,1918.5,1921,1924,1924,1924,1927,1924,1924.5,1927.5,1925,1919,1915.5,1912.5,1909.5,1906.5,1906.5,1903.5,1903.5,1901,1901,1904,1901,1901,1901,1901,1904,1906.5,1909.5,1912.5,1912.5,1919,1922,1925,1928,1930.5,1933.5,1933.5,1933.5,1933.5,1933.5,1933.5,1933.5
1942.5,1945.5,1945.5,1942.5,1946,1943,1940,1937,1933.5,1933.5,1933.5,1933.5,1933.5,1933.5,1937,1940,1943,1946,1949,1949,1952,1949,1949,1952,1952,1949,1949,1946,1943,1939.5,1936.5,1936.5,1936.5,1936.5,1939.5,1936.5,1936.5,1943,1943,1946,1952,1955,1958,1961.5,1964.5,1970.5,1974,1974,1974,1974,1970.5,1970.5,1973.5,1970.5,1967.5,1970.5,1964,1964,1964,1961,1955,1955,1955,1952,1955,1952,1949,1952,1949,1949,1945.5,1945.5,1939.5,1939.5,1939.5,1939.5,1939.5,1936.5,1933.5,1936.5,1940,1940,1943,1949,1952,1958,1958,1964.5,1964.5,1964.5,1964.5,1967.5,1961.5,1961.5,1961.5,1961.5,1961.5,1961.5,1961.5,1964.5,1964.5,1967.5,1967.5,1964.5,1964.5,1964.5,1964.5,1964.5,1967.5,1967.5,1967.5,1967.5,1967.5,1967.5,1967.5,1964.5,1964.5,1961.5,1961.5,1955.5,1955,1952,1949,1946,1943.5,1940.5,1940.5,1937.5,1934.5,1934.5,1934.5,1934.5,1934.5,1937.5,1940.5,1943.5,1943.5,1943,1942.5,1945.5,1948.5,1949,1955,1952,1955,1952,1952,1952,1948.5,1948.5,1942.5,1942.5,1939.5,1942.5,1942.5,1939.5,1942.5,1936.5,1936.5,1936.5,1936.5,1940,1937,1937,1936.5,1940,1943,1946,1946,1945.5,1945.5,1945.5,1945.5,1942.5,1942.5,1939.5,1939.5,1939.5,1933.5,1930.5,1927.5,1921,1921,1918,1915,1912,1907,1909.5,1909.5,1909.5,1909.5,1906.5,1906.5,1906.5,1903.5,1903.5,1903.5,1901,1895,1889,1886,1877.5,1872,1863,1857.5,1849,1841,1835.5,1830,1824.5,1819.5,1814,1811.5,1806,1809,1809,1806,1803.5,1806,1808.5,1811.5,1816.5,1816.5,1816.5,1816.5,1819,1822,1827.5,1827.5,1827.5,1824.5,1830,1830,1830,1833,1833,1833,1830,1830,1827,1827,1827,1827,1824.5,1824.5,1824.5,1824.5,1824.5,1827,1830,1827,1827,1822,1822,1822,1824.5,1822,1816.5,1816.5,1816.5,1814,1814,1811.5,1811.5,1811.5,1814,1814,1814,1814,1814,1817,1817,1817,1814,1811,1811,1811,1811,1808.5,1808.5,1808.5,1808.5,1811.5,1816.5,1816.5,1819,1822,1827.5,1830.5,1833,1836,1838.5,1841,1844,1849.5,1852.5,1857.5,1863,1866,1871.5,1877.5,1883,1883,1886,1892,1892,1898,1898,1901,1906.5,1906.5,1909.5,1918,1921,1927,1933.5,1936.5,1936.5,1943,1940,1940,1937,1930,1927,1924,1918,1912.5,1912.5,1912.5,1909.5,1909.5,1915.5,1919,1925,1928,1933.5,1939.5,1942.5,1948.5,1952,1952,1952,1949,1942.5,1939.5,1936.5,1930.5,1927,1924,1918,1915.5,1909.5,1906.5,1903.5,1900.5,1897.5,1894.5,1894.5,1894.5,1892,1892,1897.5,1897.5,1897.5,1900.5,1897.5,1900.5,1903.5,1906.5,1909.5,1912,1912,1915,1918,1921,1924,1927,1933.5,1937,1937,1943,1943,1943,1939.5,1939.5,1939.5,1939.5,1936.5,1936.5,1933.5,1933.5,1933.5,1930,1930.5,1930.5,1927,1927,1921,1918,1912.5,1909.5,1904,1904,1895,1895,1892,1895,1895,1901,1898,1901,1901,1904,1907,1907,1912,1909.5,1909.5,1912.5,1912.5,1912.5,1912.5,1912.5,1912.5,1912.5,1915.5,1915.5,1918.5,1919,1922,1925,1925,1928,1931,1934,1931,1931,1931,1931,1931,1934,1931,1931,1934,1933.5,1933.5,1939.5,1940,1946,1946,1945.5,1948.5,1952,1945.5,1942.5,1942.5,1936.5,1930.5,1927.5,1918.5,1915,1912,1912.5,1912.5,1912.5,1906.5,1909.5,1916,1916,1922,1922,1922,1924.5,1930.5,1927,1927,1927,1930.5,1927.5,1927.5,1922,1922,1915.5,1912.5,1909.5,1909.5,1906.5,1903.5,1903.5,1903.5,1903.5,1904,1901,1901,1901,1904,1906.5,1906.5,1909.5,1912.5,1915.5,1919,1925,1925,1928,1931,1931,1931,1931,1931,1933.5,1933.5
1942.5,1942.5,1942.5,1942.5,1942.5,1939.5,1939.5,1936.5,1933.5,1933.5,1933.5,1933.5,1933.5,1933.5,1936.5,1936.5,1939.5,1942.5,1942.5,1949,1945.5,1945.5,1945.5,1945.5,1945.5,1946,1946,1943,1940,1936.5,1936.5,1933.5,1930.5,1930.5,1933.5,1936.5,1933.5,1940,1940,1943,1949,1952,1955,1961.5,1964.5,1967.5,1974,1974,1974,1974,1973.5,1973.5,1976.5,1973.5,1970.5,1970.5,1964,1964,1961,1955,1955,1955,1952,1949,1949,1949,1946,1942.5,1942.5,1939.5,1939.5,1936.5,1936.5,1936.5,1936.5,1936.5,1936.5,1936.5,1933.5,1936.5,1940,1946,1949,1955,1958,1958,1964.5,1964.5,1967.5,1970.5,1970.5,1970.5,1971,1967.5,1964.5,1964.5,1964.5,1964.5,1961.5,1961.5,1964.5,1964.5,1967.5,1967.5,1964.5,1964.5,1967.5,1967.5,1967.5,1967.5,1970.5,1970.5,1970.5,1967,1967,1967,1967,1964,1961,1958.5,1958.5,1955,1949,1946,1943.5,1940.5,1940.5,1934.5,1937.5,1931.5,1931.5,1931.5,1931.5,1934.5,1937.5,1937.5,1943.5,1943,1942.5,1945.5,1945.5,1946,1949,1949,1949,1946,1949,1948.5,1945.5,1942.5,1942.5,1939.5,1936.5,1936.5,1939.5,1939.5,1936.5,1936.5,1933.5,1936.5,1936.5,1936.5,1940,1937,1937,1943,1946,1946,1949,1949,1952,1952,1952,1949,1945.5,1945.5,1945.5,1942.5,1942.5,1939.5,1936.5,1933.5,1936.5,1933.5,1933.5,1930,1924,1927,1927,1927,1927,1924,1924,1921,1921,1921,1921,1915.5,1909.5,1906.5,1898,1892,1886,1877,1866,1857.5,1852,1843.5,1838.5,1832.5,1827.5,1822,1819,1816.5,1816.5,1814,1811.5,1811.5,1811.5,1811.5,1816.5,1816.5,1816.5,1814,1814,1816.5,1819,1825,1825,1827.5,1827.5,1832.5,1835.5,1841,1838,1841,1838,1835.5,1835.5,1833,1833,1833,1827,1827,1830,1830,1830,1830,1830,1830,1830,1827,1827,1827,1824.5,1824.5,1822,1822,1816.5,1816.5,1816.5,1816.5,1814,1816.5,1816.5,1816.5,1816.5,1814,1814,1817,1814,1814,1811,1811,1811,1808.5,1808.5,1806,1803.5,1803.5,1806,1806,1806,1806,1811.5,1811.5,1814,1814,1814,1819.5,1822,1825,1827.5,1830.5,1833,1838.5,1841,1849.5,1852,1855,1863.5,1866,1872,1874.5,1874.5,1880,1883,1889,1889,1892,1895,1895,1901,1907,1909.5,1918,1918,1921,1921,1924,1921,1921,1918,1918,1912,1912,1909.5,1909.5,1906.5,1906.5,1909.5,1912.5,1915.5,1924.5,1927.5,1933.5,1939.5,1945.5,1945.5,1949,1949,1949,1946,1942.5,1939.5,1930.5,1927,1924,1918,1912.5,1909.5,1906.5,1900.5,1900.5,1894.5,1894.5,1894.5,1892,1892,1889,1895,1895,1897.5,1897.5,1900.5,1900.5,1903.5,1909.5,1906.5,1909.5,1912,1912,1915,1918,1918,1924,1927,1927,1930,1930,1933.5,1933.5,1933.5,1930.5,1933.5,1933.5,1933.5,1933.5,1933.5,1933.5,1930,1927,1930.5,1927.5,1930.5,1927.5,1921,1915.5,1915.5,1909.5,1906.5,1903.5,1901,1895,1892,1889,1892,1892,1901,1901,1901,1904,1907,1909.5,1912,1915,1912.5,1909.5,1912.5,1912.5,1912.5,1912.5,1912.5,1912.5,1909.5,1912.5,1912.5,1915.5,1919,1919,1916,1919,1925,1925,1928,1925,1925,1925,1925,1925,1928,1925,1928,1925,1925,1930.5,1933.5,1940,1943,1942.5,1942.5,1942.5,1942.5,1942.5,1942.5,1936.5,1930.5,1927.5,1918.5,1915.5,1909.5,1909.5,1906.5,1912.5,1909.5,1906.5,1909.5,1916,1922,1922,1925,1928,1930.5,1933.5,1933.5,1933.5,1933.5,1930,1930.5,1930.5,1927.5,1922,1922,1918.5,1915.5,1912.5,1912.5,1909.5,1909.5,1906.5,1906.5,1904,1904,1901,1901,1904,1906.5,1906.5,1909.5,1912.5,1912.5,1915.5,1922,1925,1928,1928,1931,1931,1931,1931,1931,1933.5
1934,1939.5,1942.5,1939.5,1942.5,1939.5,1936.5,1936.5,1936.5,1933.5,1933.5,1933.5,1933.5,1933.5,1936.5,1939.5,1939.5,1942.5,1942.5,1942.5,1945.5,1945.5,1945.5,1942.5,1945.5,1942.5,1943,1937,1936.5,1933.5,1936.5,1933.5,1930.5,1930.5,1930.5,1933.5,1930.5,1933.5,1937,1940,1946,1949,1952,1955.5,1961.5,1964.5,1967.5,1970.5,1970.5,1970.5,1973.5,1976.5,1976.5,1973.5,1970.5,1967,1964,1961,1958,1955,1955,1952,1949,1946,1943,1943,1939.5,1939.5,1936.5,1936.5,1933.5,1933.5,1931,1931,1930.5,1933.5,1933.5,1933.5,1933.5,1936.5,1943,1946,1955,1955,1961,1964,1967.5,1970.5,1973.5,1974,1974,1974,1974,1971,1971,1971,1968,1964.5,1964.5,1961.5,1961.5,1964.5,1967.5,1967.5,1964.5,1964.5,1967.5,1967.5,1967.5,1967,1967,1970.5,1970.5,1970.5,1970.5,1970.5,1967,1967,1964,1964.5,1961.5,1955.5,1952,1949,1946,1943,1940.5,1937.5,1934.5,1931.5,1931.5,1931.5,1931.5,1934.5,1934.5,1937.5,1937,1939.5,1939.5,1939.5,1942.5,1943,1946,1949,1949,1946,1949,1945.5,1942.5,1942.5,1939.5,1933.5,1933.5,1939.5,1939.5,1939.5,1936.5,1933.5,1930.5,1933.5,1936.5,1933.5,1933.5,1933.5,1933.5,1940,1946,1946,1949,1952,1952,1949,1949,1952,1949,1946,1946,1946,1946,1946,1943,1943,1943,1946,1949,1946,1946,1946,1946,1946,1946,1943,1943,1943,1943,1939.5,1936.5,1930.5,1924,1918,1915,1909.5,1901,1889,1880,1869,1863,1857.5,1852,1843.5,1838.5,1832.5,1827.5,1825,1825,1822,1822,1819.5,1816.5,1819.5,1827.5,1822,1822,1822,1819,1819,1822,1825,1825,1825,1827.5,1835.5,1838.5,1844,1844,1846.5,1844,1846.5,1844,1844,1844,1841,1838,1835.5,1835.5,1833,1833,1833,1833,1833,1833,1833,1830,1827,1824.5,1824.5,1822,1822,1819.5,1816.5,1816.5,1816.5,1816.5,1816.5,1816.5,1816.5,1819.5,1819.5,1817,1817,1817,1817,1814,1811,1808.5,1806,1806,1806,1803.5,1801,1803.5,1803.5,1803.5,1806,1806,1806,1809,1811.5,1811.5,1811,1814,1816.5,1816.5,1816.5,1819.5,1822.5,1827.5,1830,1835.5,1841,1846.5,1852,1857.5,1860,1866,1869,1869,1874.5,1874.5,1880,1883,1883,1886,1892,1895,1901,1903.5,1906.5,1906.5,1906.5,1909.5,1904,1907,1907,1904,1901,1901,1904,1904,1904,1906.5,1909.5,1912.5,1918,1924,1930.5,1933.5,1939.5,1942.5,1945.5,1949,1946,1946,1936.5,1930.5,1927,1924,1921,1915,1912.5,1906.5,1903.5,1900.5,1897.5,1892,1892,1894.5,1892,1892,1892,1892,1897.5,1897.5,1900.5,1903.5,1900.5,1906.5,1909.5,1909.5,1912,1912,1912.5,1918,1918,1918,1918,1918,1921,1924,1924,1927,1927,1927,1927,1927,1927,1930,1930,1930,1927,1927,1927.5,1927.5,1927.5,1927.5,1924.5,1922,1912.5,1912.5,1906.5,1903.5,1900.5,1898,1892,1892,1892,1892,1895,1901,1904,1907,1907,1912,1912,1915,1915,1912.5,1915.5,1915.5,1915.5,1915.5,1915.5,1915.5,1912.5,1912.5,1912.5,1912.5,1912.5,1912.5,1916,1916,1916,1919,1919,1919,1922,1922,1922,1919,1922,1922,1922,1922,1922,1925,1930.5,1930.5,1930,1939.5,1939.5,1942.5,1942.5,1939.5,1939.5,1936.5,1930.5,1925,1919,1912.5,1909.5,1906.5,1907,1906.5,1906.5,1909.5,1906.5,1909.5,1916,1919,1922,1928,1928,1931,1933.5,1936.5,1936.5,1933.5,1933.5,1933.5,1930.5,1930.5,1927.5,1924.5,1918.5,1918.5,1915.5,1915.5,1915.5,1912.5,1909.5,1906.5,1906.5,1906.5,1906.5,1906.5,1907,1909.5,1912,1912,1912.5,1912.5,1915.5,1921,1924.5,1927.5,1928,1928,1931,1931,1931,1931,1933.5
1931,1934,1934,1934,1936.5,1933.5,1936.5,1936.5,1933.5,1930.5,1930.5,1930.5,1930.5,1930.5,1933.5,1933.5,1936.5,1936.5,1936.5,1939.5,1942.5,1946,1945.5,1945.5,1942.5,1942.5,1939.5,1940,1937,1933.5,1933.5,1930.5,1927.5,1927.5,1927.5,1927.5,1927,1927,1930.5,1933.5,1936.5,1939.5,1948.5,1948.5,1955.5,1961.5,1961.5,1967.5,1970.5,1970.5,1970.5,1973.5,1973.5,1970.5,1967,1964,1961,1958,1958,1952,1949,1946,1946,1940,1943,1936.5,1933.5,1933.5,1930.5,1931,1931,1928,1925,1928,1928,1930.5,1930.5,1933.5,1933.5,1943,1946,1949,1955,1961,1964,1970.5,1973.5,1976.5,1976.5,1980,1977,1980,1977,1977,1971,1971,1968,1965,1961.5,1964.5,1964.5,1964.5,1967.5,1964.5,1964.5,1964.5,1967.5,1967.5,1970.5,1967,1970.5,1970.5,1973.5,1973.5,1973.5,1973.5,1973.5,1970.5,1970.5,1970.5,1964.5,1964.5,1958.5,1955.5,1952,1949,1946,1943,1940.5,1937.5,1934.5,1934.5,1934.5,1934.5,1937.5,1937,1937,1942.5,1939.5,1939.5,1942.5,1943,1946,1946,1949,1946,1949,1945.5,1945.5,1945.5,1939.5,1936.5,1936.5,1936.5,1936.5,1936.5,1933.5,1930.5,1927.5,1930.5,1930.5,1930.5,1930.5,1930.5,1933.5,1936.5,1943,1946,1946,1949,1949,1952,1952,1949,1949,1946,1946,1946,1943,1943,1946,1946,1946,1949,1952,1952,1955,1955,1955,1958,1958,1955,1955,1955,1955,1955,1952,1949,1943,1936.5,1927,1924,1915,1907,1898,1883,1877.5,1866,1860.5,1854.5,1849.5,1841,1841,1838.5,1835.5,1832.5,1830,1830,1830,1830,1835.5,1832.5,1830,1830,1827.5,1830,1832.5,1832.5,1832.5,1832.5,1832.5,1838.5,1841,1846.5,1849,1849,1849,1849,1849,1849,1849,1849,1844,1844,1844,1838,1838,1835.5,1835.5,1833,1833,1833,1833,1830,1830,1824.5,1824.5,1824.5,1822,1822,1822,1822,1819.5,1819.5,1819.5,1819.5,1819.5,1819.5,1819.5,1817,1817,1817,1814,1814,1808.5,1808.5,1806,1806,1806,1803.5,1801,1801,1801,1803.5,1806,1806,1806,1806,1808.5,1811,1811.5,1811.5,1809,1811.5,1811.5,1814,1816.5,1819.5,1825,1830.5,1833,1841,1843.5,1849.5,1852,1855,1860,1866,1866,1866,1869,1872,1874.5,1877.5,1877.5,1883,1886,1886,1889,1889,1889,1892,1892,1892,1892,1889,1886,1892,1892,1895,1895,1901,1904,1912,1915,1924,1927,1933.5,1936.5,1939.5,1939.5,1939.5,1936.5,1930.5,1927,1924,1924,1915,1912.5,1906.5,1903.5,1900.5,1900.5,1897.5,1895,1892,1894.5,1892,1894.5,1894.5,1894.5,1897.5,1897.5,1900.5,1900.5,1903.5,1906.5,1909.5,1912,1912,1909.5,1912.5,1912.5,1915.5,1915.5,1915.5,1918,1918,1915,1918,1921,1924,1921,1921,1924,1924,1924,1927,1927,1924,1927.5,1927.5,1924.5,1925,1925,1922,1919,1912.5,1909.5,1906.5,1903.5,1900.5,1898,1895,1898,1895,1895,1898,1901,1904,1907,1912,1912,1915,1918,1921,1918,1915.5,1921,1921,1918.5,1918.5,1915.5,1918.5,1918.5,1915.5,1915.5,1912.5,1909.5,1912.5,1909.5,1909.5,1909.5,1912.5,1912.5,1912.5,1912.5,1913,1913,1916,1913,1916,1916,1919,1922,1921,1927,1930,1933.5,1939.5,1936.5,1933.5,1933.5,1933.5,1930.5,1925,1919,1915.5,1909.5,1906.5,1904,1904,1904,1906.5,1909.5,1909.5,1909.5,1913,1922,1925,1925,1931,1931,1936.5,1936.5,1939.5,1936.5,1936.5,1933.5,1937,1930.5,1930.5,1927.5,1924,1924,1918,1918,1918,1918,1915,1915,1912,1909.5,1909.5,1909.5,1909.5,1909.5,1909.5,1909.5,1912,1915,1915,1918,1921,1924.5,1924.5,1925,1928,1928,1928,1928,1928
1925,1925,1925,1925,1928,1928,1931,1931,1928,1928,1925,1928,1928,1928,1931,1931,1931,1934,1940.5,1943,1943,1943,1946,1945.5,1942.5,1942.5,1943,1940,1937,1933.5,1933.5,1927.5,1924.5,1924.5,1924.5,1924,1924,1924,1924,1927.5,1930.5,1939.5,1939.5,1942.5,1948.5,1955.5,1958.5,1958.5,1964.5,1964.5,1967.5,1970.5,1970.5,1970.5,1967.5,1964.5,1958,1955,1952,1949,1946,1943,1940,1937,1936.5,1936.5,1930.5,1928,1928,1925,1925,1925,1925,1922,1925,1927.5,1930.5,1936.5,1939.5,1943,1952,1958,1961,1967,1974,1977,1980,1980,1980,1983,1983,1983,1980,1977,1974,1971,1968,1964.5,1961.5,1961.5,1961.5,1961.5,1964.5,1964.5,1964.5,1964.5,1964.5,1967.5,1967.5,1970.5,1974,1970.5,1973.5,1973.5,1973.5,1973.5,1973.5,1973.5,1973.5,1974,1970.5,1967.5,1964.5,1964.5,1958.5,1955.5,1952,1949,1946,1939.5,1937,1937,1937,1937,1939.5,1942.5,1939.5,1939.5,1939.5,1946,1943,1946,1946,1949,1949,1949,1949,1949,1949,1942.5,1942.5,1936.5,1936.5,1936.5,1936.5,1933.5,1930.5,1924,1924,1924,1927.5,1927.5,1927.5,1927.5,1927.5,1936.5,1939.5,1946,1949,1949,1952,1952,1952,1949,1946,1946,1946,1946,1946,1946,1949,1946,1946,1949,1955,1958,1958,1958,1958,1964.5,1964.5,1964.5,1964.5,1964.5,1964.5,1964.5,1964.5,1961,1961,1955,1946,1943,1933.5,1924,1915,1901,1892,1883,1877.5,1871.5,1863.5,1857.5,1852,1849.5,1849.5,1846.5,1841,1841,1841,1841,1844,1844,1841,1838,1838,1838,1838,1841,1841,1841,1844,1846.5,1849,1852,1855,1855,1855,1855,1857.5,1855,1852,1849,1849,1849,1844,1844,1838,1838,1835.5,1835.5,1833,1833,1833,1833,1830,1830,1830,1824.5,1824.5,1824.5,1824.5,1824.5,1824.5,1824.5,1824.5,1824.5,1822,1822,1822,1822,1819.5,1817,1814,1814,1811,1808.5,1811,1806,1806,1803.5,1803.5,1803.5,1800.5,1803.5,1803.5,1803,1803,1803,1806,1806,1806,1808.5,1806,1806,1809,1811.5,1814,1817,1817,1822,1827.5,1830,1835.5,1838.5,1841,1846.5,1849,1849,1849,1852,1855,1857.5,1860,1863,1866,1866,1868.5,1868.5,1871.5,1871.5,1877.5,1877.5,1877.5,1877.5,1874.5,1874.5,1877.5,1877.5,1880,1883,1883,1886,1892,1904,1907,1912,1918,1921,1927,1930.5,1933.5,1933.5,1933.5,1927,1924,1921,1915,1912.5,1906.5,1906.5,1898,1898,1898,1898,1895,1895,1895,1895,1895,1898,1900.5,1900.5,1900.5,1903.5,1906.5,1906.5,1909.5,1909.5,1909.5,1909.5,1909.5,1906.5,1906.5,1906.5,1909.5,1909.5,1906.5,1909.5,1909.5,1909.5,1915,1918,1915,1918,1918,1921,1921,1924,1924,1924.5,1922,1925,1925,1922,1925,1922,1916,1912.5,1909.5,1906.5,1903.5,1903.5,1898,1898,1898,1898,1898,1901,1904,1909.5,1909.5,1915,1921,1921,1924,1921,1924,1921,1921,1921,1921,1921,1918.5,1918.5,1918.5,1918.5,1918.5,1915.5,1912.5,1912.5,1909.5,1906.5,1906.5,1906.5,1906.5,1906.5,1906.5,1906.5,1909.5,1909.5,1909.5,1909.5,1912.5,1912.5,1915.5,1921,1924,1927,1933.5,1933.5,1933.5,1930.5,1928,1925,1922,1919,1912.5,1906.5,1903.5,1900.5,1900.5,1901,1901,1904,1906.5,1909.5,1909.5,1912.5,1919,1922,1925,1928,1933.5,1936.5,1942.5,1939.5,1939.5,1939.5,1936.5,1937,1937,1933.5,1930.5,1927,1927,1927,1924,1924,1921,1921,1918,1918,1915,1915,1915,1912.5,1912.5,1912.5,1912.5,1912.5,1912.5,1912.5,1918,1921,1918,1921,1924.5,1922,1925,1925,1927.5,1927.5
1916,1919,1919,1919,1919,1919,1919,1919,1919,1919,1919,1922,1922,1925,1925,1931,1931,1934,1937.5,1940.5,1943,1943,1946,1945.5,1942.5,1942.5,1943,1940,1940,1933.5,1933.5,1927.5,1924.5,1924.5,1921,1918,1921,1921,1918,1921,1924.5,1930.5,1933.5,1939.5,1942.5,1945.5,1949,1955,1958,1961,1964,1970.5,1967,1964,1961,1958,1955,1952,1948.5,1945.5,1942.5,1939.5,1936.5,1937,1930.5,1930.5,1927.5,1925,1922,1922,1919,1922,1922,1925,1925,1930.5,1933.5,1939.5,1943,1952,1958,1964,1970.5,1977,1980,1986,1986,1989.5,1986.5,1989.5,1986.5,1983,1983.5,1980.5,1977.5,1974.5,1968,1964.5,1964.5,1961.5,1958.5,1961.5,1961.5,1965,1961.5,1964.5,1964.5,1967.5,1970.5,1967.5,1970.5,1974,1974,1973.5,1973.5,1973.5,1973.5,1973.5,1977,1977,1977,1974,1970.5,1970.5,1967.5,1964.5,1961.5,1955.5,1948.5,1945.5,1945.5,1942.5,1942.5,1939.5,1942.5,1942.5,1942.5,1942.5,1946,1943,1946,1946,1949,1949,1952,1952,1949,1949,1949,1946,1942.5,1939.5,1936.5,1939.5,1939.5,1933.5,1930.5,1924,1921,1921,1924,1927.5,1927.5,1927.5,1930.5,1936.5,1942.5,1946,1946,1952,1949,1949,1949,1949,1946,1946,1949,1946,1946,1946,1946,1946,1949,1952,1955,1955,1958.5,1961.5,1961.5,1964.5,1964.5,1967.5,1967.5,1970.5,1970.5,1970.5,1970.5,1970.5,1967.5,1964.5,1958,1955,1949,1940,1933.5,1924,1912.5,1903.5,1898,1889,1883,1874.5,1871.5,1866,1866,1863,1857.5,1855,1852,1849,1855,1855,1852,1849,1849,1849,1849,1849,1852,1852,1855,1857.5,1857.5,1860,1863,1866,1866,1863,1860,1860,1857.5,1855,1849,1849,1846.5,1844,1841,1838,1838,1835.5,1835.5,1833,1833,1833,1833,1830,1830,1830,1830,1827.5,1827.5,1827.5,1827.5,1824.5,1824.5,1824.5,1824.5,1824.5,1822,1822,1822,1819.5,1819.5,1817,1814,1811,1811,1811,1806,1806,1803.5,1803.5,1803.5,1803.5,1803.5,1803.5,1803,1803,1803,1806,1803.5,1803.5,1803.5,1806,1806,1806,1808.5,1814,1816.5,1816.5,1822,1825,1827.5,1830,1833,1835.5,1838,1838,1838,1841,1841,1841,1846.5,1849.5,1849.5,1849.5,1852,1854.5,1854.5,1857.5,1860.5,1860.5,1860.5,1860.5,1863,1860.5,1863.5,1866,1866,1871.5,1871.5,1877.5,1889,1892,1898,1904,1909.5,1912,1918,1921,1921,1921,1918,1918,1915,1909.5,1906.5,1906.5,1901,1898,1895,1895,1895,1895,1895,1895,1898,1898,1901,1901,1901,1906.5,1904,1909.5,1909.5,1909.5,1909.5,1909.5,1909.5,1909.5,1906.5,1906.5,1906.5,1906.5,1906.5,1906.5,1906.5,1904,1904,1909.5,1909.5,1909.5,1909.5,1912.5,1912.5,1915.5,1915.5,1918.5,1922,1925,1922,1922,1925,1922,1922,1919,1919,1913,1909.5,1906.5,1903.5,1903.5,1900.5,1898,1901,1901,1907,1907,1909.5,1915,1918,1918,1921,1924,1924,1927,1927.5,1927.5,1930.5,1930.5,1927.5,1927.5,1924.5,1924.5,1922,1918.5,1918.5,1915.5,1912.5,1912.5,1903.5,1903.5,1901,1901,1901,1901,1901,1901,1901,1903.5,1906.5,1906.5,1909.5,1915.5,1915.5,1918,1924,1924,1924.5,1927.5,1925,1922,1922,1919,1916,1909.5,1909.5,1903.5,1903.5,1897.5,1897.5,1900.5,1903.5,1901,1907,1907,1912.5,1909.5,1918.5,1918.5,1924.5,1927.5,1933.5,1936.5,1939.5,1939.5,1939.5,1942.5,1939.5,1940,1940,1937,1937,1933.5,1933.5,1930,1930,1927,1927,1927,1924,1924,1924,1918,1918,1918,1915.5,1915.5,1915.5,1912.5,1912.5,1912.5,1918,1918,1921,1921,1918,1921,1921,1924.5,1927.5,1930.5
1907,1910,1907,1907,1910,1910,1913,1916,1916,1916,1916,1916,1922,1925,1928,1934.5,1937.5,1937.5,1937.5,1946,1949,1952,1949,1949,1948.5,1946,1943,1943,1940,1933.5,1933.5,1927.5,1924.5,1918.5,1915.5,1918,1915,1915,1915,1918,1921,1924.5,1924.5,1933.5,1936.5,1939.5,1942.5,1949,1955,1955,1961,1964,1964,1964,1961.5,1961.5,1952,1952,1948.5,1942.5,1939.5,1936.5,1933.5,1930,1930.5,1930.5,1924.5,1922,1922,1922,1922,1919,1919,1922,1924.5,1930.5,1936.5,1943,1949,1958,1964,1970.5,1977,1983,1989.5,1993,1993,1993,1992.5,1992.5,1989.5,1986.5,1986.5,1983.5,1977.5,1974.5,1968,1968,1965,1965,1965,1961.5,1961.5,1961.5,1961.5,1965,1961.5,1964.5,1964.5,1967.5,1970.5,1970.5,1974,1974,1977,1973.5,1973.5,1973.5,1980,1980,1980,1977,1977,1974,1970.5,1970.5,1967.5,1958,1958,1952,1949,1945.5,1945.5,1945.5,1946,1946,1943,1946,1949,1946,1946,1949,1952,1952,1952,1952,1955,1952,1952,1952,1946,1939.5,1939.5,1939.5,1936.5,1936.5,1930.5,1927,1921,1921,1921,1924.5,1924.5,1927.5,1930.5,1933.5,1939.5,1942.5,1942.5,1946,1949,1949,1949,1949,1946,1943,1946,1946,1946,1946,1946,1946,1949,1949,1952,1955.5,1958.5,1961.5,1961.5,1964.5,1964.5,1967.5,1967.5,1967.5,1970.5,1970.5,1970.5,1970.5,1970.5,1967.5,1967.5,1967,1961,1958,1949,1943,1936.5,1927.5,1921,1912.5,1903.5,1898,1889,1889,1886,1880,1872,1869,1866,1866,1869,1866,1863,1860.5,1860,1863,1863,1860,1863,1866,1866,1869,1872,1872,1874.5,1877,1877,1874.5,1874.5,1869,1869,1863,1860,1857.5,1852,1846.5,1846.5,1841,1838,1838,1835.5,1835.5,1833,1833,1833,1833,1833,1833,1833,1830,1830,1830,1830,1830,1830,1830,1827,1827,1827,1827,1824.5,1824.5,1819.5,1819.5,1819.5,1817,1817,1811,1811,1808.5,1806,1803.5,1803.5,1803.5,1803.5,1803.5,1800.5,1800.5,1800.5,1798,1800.5,1800.5,1800.5,1800.5,1800.5,1800.5,1803,1806,1811.5,1814,1819.5,1819.5,1824.5,1827,1827,1830,1835.5,1833,1833,1833,1833,1833,1835.5,1835.5,1838.5,1838.5,1838.5,1838.5,1841,1841,1843.5,1843.5,1843.5,1846.5,1849.5,1849.5,1852,1854.5,1854.5,1857.5,1860.5,1866,1877.5,1877.5,1886,1892,1892,1898,1901,1907,1907,1907,1904,1904,1904,1898,1898,1898,1898,1898,1895,1895,1895,1898,1898,1898,1901,1901,1904,1904,1907,1907,1909.5,1909.5,1909.5,1909.5,1909.5,1909.5,1909.5,1906.5,1906.5,1906.5,1901,1904,1904,1901,1901,1901,1901,1904,1904,1904,1906.5,1906.5,1909.5,1912.5,1915.5,1915.5,1922,1919,1922,1922,1922,1922,1922,1919,1913,1913,1910,1906.5,1906.5,1906.5,1903.5,1903.5,1906.5,1909.5,1912,1915,1915,1918,1921,1924,1927,1927,1927,1930,1930.5,1930.5,1933.5,1930.5,1930.5,1930.5,1927.5,1927.5,1924.5,1918.5,1918.5,1915.5,1909.5,1909.5,1906.5,1901,1895,1898,1895,1895,1895,1898,1898,1898,1901,1903.5,1909.5,1912.5,1912.5,1921,1924,1924,1921,1922,1919,1919,1913,1909.5,1909.5,1903.5,1903.5,1900.5,1898,1898,1897.5,1897.5,1900.5,1903.5,1906.5,1906.5,1909.5,1912,1921,1921,1924,1927.5,1933.5,1936.5,1939.5,1939.5,1939.5,1942.5,1942.5,1939.5,1939.5,1936.5,1936.5,1936.5,1936.5,1936.5,1936.5,1933.5,1933.5,1930.5,1930.5,1927,1924,1924,1921,1918,1918.5,1918.5,1915.5,1915.5,1915.5,1915.5,1918.5,1915.5,1918,1918,1921,1918,1921,1921,1924.5,1927.5
1900.5,1900.5,1900.5,1901,1901,1901,1904.5,1904.5,1907.5,1910.5,1913.5,1916,1922,1925,1931.5,1934.5,1937.5,1943.5,1946,1949,1952,1952,1952,1955.5,1952,1949,1946,1943,1943,1933.5,1933.5,1927.5,1922,1918.5,1912.5,1912.5,1909.5,1912,1909.5,1909.5,1912.5,1918,1918,1924.5,1927.5,1933.5,1933.5,1943,1946,1952,1958,1961,1961,1964.5,1964.5,1961.5,1955.5,1952,1945.5,1945.5,1936.5,1936.5,1933.5,1930.5,1930,1927,1927.5,1924.5,1924.5,1924.5,1922,1922,1924.5,1924.5,1927.5,1930.5,1940,1949,1952,1964,1967,1980,1983,1989.5,1996,1999.5,2002.5,1999,1999,1999.5,1996,1990,1990,1983.5,1980.5,1977.5,1971,1971,1965,1965,1965,1965,1965,1965,1961.5,1961.5,1964.5,1965,1964.5,1967.5,1964.5,1970.5,1970.5,1974,1974,1970.5,1973.5,1973.5,1976.5,1980,1983.5,1980,1980,1980,1977,1977,1970.5,1964,1961,1955,1955,1952,1949,1949,1949,1949,1946,1946,1949,1949,1949,1952,1952,1952,1952,1955,1955,1955,1952,1952,1949,1943,1943,1943,1940,1936.5,1933.5,1927,1924,1924,1927.5,1924.5,1927.5,1930.5,1936.5,1939.5,1939.5,1942.5,1949,1949,1946,1949,1949,1949,1949,1946,1946,1949,1946,1946,1946,1949,1949,1952,1952,1955.5,1955.5,1955.5,1958.5,1961.5,1964.5,1967.5,1967.5,1967.5,1970.5,1970.5,1970.5,1973.5,1970.5,1973.5,1970.5,1967,1967,1964,1958,1952,1946,1939.5,1933.5,1927.5,1921,1918,1909.5,1906.5,1904,1898,1892,1889,1883,1883,1883,1883,1880.5,1877.5,1877.5,1880.5,1877.5,1880,1880,1880,1880,1886,1889,1889,1892,1892,1892,1892,1886,1883,1880,1877.5,1871.5,1869,1863,1857.5,1857.5,1852,1849,1846.5,1844,1841,1841,1841,1838,1838,1835.5,1835.5,1833,1833,1835.5,1833,1833,1833,1833,1833,1833,1827,1827,1827,1824.5,1824.5,1824.5,1824.5,1819.5,1819.5,1817,1817,1811,1811,1808.5,1806,1806,1808.5,1806,1803.5,1801,1798,1798,1798,1798,1795.5,1792.5,1792.5,1795.5,1798,1798,1801,1806,1808.5,1811,1814,1819.5,1824.5,1824.5,1827.5,1827.5,1830,1830,1830,1827,1827,1830,1824.5,1824.5,1824.5,1824.5,1824.5,1827.5,1827.5,1827.5,1830,1830,1832.5,1832.5,1838.5,1838.5,1843.5,1843.5,1846.5,1849.5,1852,1863.5,1866,1871.5,1880,1880,1886,1889,1889,1892,1892,1892,1892,1889,1889,1886,1889,1889,1889,1889,1889,1892,1898,1898,1895,1901,1904,1904,1909.5,1912.5,1912.5,1912.5,1915.5,1915.5,1912.5,1909.5,1909.5,1909.5,1906.5,1906.5,1904,1901,1901,1898,1898,1898,1898,1898,1898,1904,1904,1901,1903.5,1906.5,1909.5,1912.5,1912.5,1919,1916,1919,1919,1919,1919,1922,1916,1916,1910,1910,1910,1906.5,1906.5,1906.5,1906.5,1909.5,1912,1915,1915,1918,1924,1927.5,1930.5,1933.5,1930.5,1930.5,1933.5,1933.5,1930.5,1930.5,1927.5,1927.5,1927.5,1927.5,1927.5,1922,1918.5,1915.5,1912.5,1909.5,1906.5,1901,1895,1895,1895,1889,1889,1892,1895,1895,1898,1901,1904,1906.5,1912.5,1915,1921,1924,1924,1921,1915.5,1915.5,1912.5,1909.5,1906.5,1906.5,1903.5,1903.5,1901,1901,1901,1901,1903.5,1903.5,1903.5,1906.5,1909.5,1912.5,1915.5,1918,1921,1924,1927,1930.5,1933.5,1939.5,1942.5,1942.5,1942.5,1946,1946,1942.5,1939.5,1939.5,1939.5,1939.5,1939.5,1939.5,1936.5,1936.5,1933.5,1933.5,1930.5,1930.5,1927,1924,1924,1921,1918.5,1918.5,1915.5,1915.5,1915.5,1915.5,1915.5,1918,1918,1918,1921,1921,1924,1924,1924
1892,1892,1895,1895,1895,1895,1898,1901.5,1907.5,1910.5,1913.5,1916.5,1922,1928.5,1934.5,1940.5,1943.5,1946,1949,1955,1955,1958.5,1958.5,1955,1958,1952,1949,1949,1946,1936.5,1936.5,1927.5,1922,1918.5,1912.5,1909.5,1906.5,1906.5,1904,1904,1906.5,1912.5,1915.5,1918,1921,1924,1927,1933.5,1943,1946,1952,1958,1961.5,1958.5,1958.5,1958.5,1955,1949,1949,1945.5,1939.5,1936.5,1933.5,1933.5,1930.5,1930,1927,1924,1924,1921,1921,1921,1921,1927,1927,1937,1943,1955,1958,1970.5,1977,1980,1993,1996,2002.5,2002.5,2005.5,2002.5,2002.5,2002.5,1999.5,1993,1990,1986.5,1983.5,1977.5,1974.5,1974.5,1968.5,1968.5,1968.5,1965.5,1965.5,1962,1965,1965,1965,1961.5,1961.5,1961.5,1964.5,1967.5,1967.5,1967.5,1967,1970.5,1970.5,1973.5,1976.5,1980,1980,1980,1983.5,1983.5,1983.5,1980,1976.5,1967.5,1964.5,1961,1955,1955,1952,1949,1952,1949,1949,1946,1946,1949,1949,1952,1955,1955,1955,1955,1955,1955,1958,1955,1949,1949,1946,1946,1940,1940,1933.5,1933.5,1930.5,1930.5,1927.5,1930.5,1930.5,1936.5,1936.5,1939.5,1945.5,1945.5,1949,1949,1952,1952,1952,1949,1949,1949,1949,1949,1946,1946,1949,1945.5,1945.5,1948.5,1948.5,1952,1952,1955.5,1955.5,1958.5,1964.5,1964.5,1964.5,1967.5,1970.5,1970.5,1970.5,1970.5,1970.5,1970.5,1967.5,1967.5,1964,1964,1958,1952,1949,1943,1936.5,1930.5,1930.5,1924,1918,1918,1915,1912,1907,1904,1901,1898,1900.5,1898,1900.5,1898,1898,1898,1898,1898,1901,1901,1901,1904,1904,1904,1904,1904,1904,1906.5,1901,1895,1895,1889,1886,1880,1877,1874.5,1869,1863,1863,1857.5,1857.5,1852,1849,1846.5,1844,1841,1838,1838,1838,1838,1838,1838,1835.5,1835.5,1835.5,1835.5,1835.5,1830,1830,1830,1830,1830,1824.5,1824.5,1824.5,1822,1822,1819.5,1817,1817,1811,1811,1808.5,1808.5,1806,1803.5,1801,1798,1795,1795,1792.5,1792.5,1787.5,1787.5,1787.5,1787.5,1792.5,1795.5,1798,1800.5,1806,1808.5,1811.5,1816.5,1819,1822,1822,1824.5,1824.5,1824.5,1824.5,1824.5,1822,1822,1819.5,1816.5,1816.5,1816.5,1816.5,1816.5,1816.5,1816.5,1819.5,1819.5,1824.5,1822,1827.5,1827.5,1832.5,1832.5,1838.5,1841,1849.5,1854.5,1860.5,1863,1869,1872,1874.5,1877,1877,1877,1874.5,1877,1877,1877,1874.5,1877.5,1880,1880,1880,1880,1886,1889,1892,1895,1898,1898,1904,1909.5,1909.5,1912.5,1912.5,1915.5,1915.5,1915.5,1909.5,1909.5,1906.5,1906.5,1904,1901,1901,1898,1898,1898,1898,1898,1898,1898,1901,1904,1901,1901,1906.5,1906.5,1909.5,1909.5,1913,1913,1916,1919,1919,1919,1919,1919,1916,1913,1910,1913,1910,1909.5,1912.5,1912.5,1918,1918,1921,1924,1927.5,1927.5,1933.5,1933.5,1933.5,1933.5,1933.5,1933.5,1937,1933.5,1930.5,1930.5,1927.5,1927.5,1924.5,1927.5,1922,1918.5,1915.5,1909.5,1906.5,1904,1898,1892,1889,1889,1889,1889,1889,1889,1892,1898,1901,1904,1906.5,1909.5,1915,1918,1921,1921,1918.5,1915.5,1915.5,1912.5,1909.5,1906.5,1903.5,1903.5,1901,1901,1901,1904.5,1907,1907,1910,1910,1913,1913,1916,1919,1922,1918.5,1921,1927,1930,1933.5,1936.5,1936.5,1939.5,1942.5,1942.5,1942.5,1942.5,1939.5,1942.5,1942.5,1942.5,1942.5,1942.5,1942.5,1939.5,1939.5,1936.5,1933.5,1930.5,1930.5,1927,1927,1924,1921,1918.5,1919,1915.5,1915.5,1915.5,1915.5,1915.5,1918,1918,1918,1921,1924,1924,1924
1889,1886.5,1889.5,1886.5,1889,1892,1895,1898,1901.5,1907.5,1913.5,1916.5,1925,1931.5,1934.5,1943.5,1946,1952,1955,1961.5,1961.5,1964.5,1964.5,1961,1961,1958,1955,1949,1942.5,1939.5,1933.5,1927.5,1922,1915.5,1912.5,1909.5,1909.5,1906.5,1904,1901,1901,1904,1909.5,1912,1918,1921,1924,1930,1936.5,1939.5,1949,1952,1955.5,1958.5,1958.5,1955,1952,1952,1949,1945.5,1942.5,1936.5,1936.5,1933.5,1930.5,1930.5,1927,1924,1924,1924,1921,1924,1924,1927,1930.5,1933.5,1946,1955,1964.5,1973.5,1980,1986,1996,2002.5,2005.5,2009,2005.5,2005.5,2005.5,2006,1999.5,1996,1993,1986.5,1983.5,1984,1981,1974.5,1971.5,1968.5,1968.5,1969,1969,1965.5,1962,1962,1962,1965,1961.5,1961.5,1961.5,1964.5,1964.5,1964.5,1964,1967,1970.5,1970.5,1976.5,1980,1980,1983,1983,1986.5,1986.5,1983,1980,1974,1967.5,1964.5,1961.5,1958.5,1955,1952,1948.5,1948.5,1948.5,1948.5,1952,1952,1952,1952,1955,1955,1955,1955,1955,1958,1958,1955,1955,1952,1952,1949,1946,1946,1943,1940,1936.5,1933.5,1936.5,1936.5,1936.5,1939.5,1942.5,1945.5,1949,1949,1949,1952,1952,1952,1952,1952,1952,1952,1952,1952,1949,1949,1949,1945.5,1945.5,1945.5,1945.5,1949,1949,1952,1955.5,1955.5,1958.5,1961.5,1961.5,1964.5,1967.5,1970.5,1970.5,1970.5,1970.5,1970.5,1967.5,1967.5,1967.5,1964,1961,1955,1952,1946,1940,1936.5,1933.5,1927,1927,1924,1924,1921,1918,1918,1915.5,1915.5,1915.5,1915.5,1912.5,1912.5,1915.5,1915.5,1912.5,1915.5,1915.5,1915.5,1918,1921,1921,1918,1921,1921,1918,1918,1915,1912.5,1906.5,1904,1901,1895,1892,1886,1883,1877.5,1874.5,1872,1869,1863,1860,1857.5,1852,1852,1849,1846.5,1844,1844,1841,1838,1838,1835.5,1835.5,1835.5,1835.5,1832.5,1830,1830,1830,1830,1827,1827,1824.5,1822,1822,1819.5,1817,1817,1814,1814,1811.5,1808.5,1806,1806,1798,1798,1792.5,1790,1790,1787.5,1782.5,1782.5,1782.5,1782.5,1782.5,1787.5,1790.5,1793,1798,1800.5,1803,1809,1814,1814,1819,1819,1822,1822,1824.5,1824.5,1822,1819.5,1817,1814,1814,1811,1808.5,1808.5,1808.5,1808.5,1808.5,1808.5,1811.5,1814,1814,1819.5,1822,1822,1827.5,1830,1838.5,1843.5,1843.5,1849.5,1852,1857.5,1857.5,1863,1863,1863,1860,1866,1866,1866,1866,1869,1869,1869,1869,1874.5,1877,1880,1883,1889,1892,1895,1898,1903.5,1906.5,1906.5,1912.5,1912.5,1915.5,1915.5,1912.5,1912.5,1915,1907,1904,1904,1901,1898,1898,1898,1898,1898,1901,1901,1901,1904,1904,1904,1903.5,1909.5,1909.5,1909.5,1913,1913,1916,1919,1919,1919,1919,1919,1919,1910.5,1913,1913,1913,1913,1912.5,1915.5,1918,1921,1927,1930.5,1933.5,1936.5,1936.5,1936.5,1936.5,1936.5,1933.5,1936.5,1937,1933.5,1930.5,1930.5,1927.5,1927.5,1924.5,1924.5,1918.5,1918.5,1915.5,1909.5,1906.5,1901,1898,1892,1889,1889,1883,1886,1889,1889,1892,1895,1901,1904,1909.5,1909.5,1915,1921,1918,1918,1921,1915.5,1912.5,1912.5,1909.5,1909.5,1906.5,1903.5,1903.5,1901,1904.5,1907,1910,1913,1913,1916,1919,1916,1919,1922,1925,1922,1922,1927.5,1930.5,1933.5,1933.5,1936.5,1939.5,1939.5,1942.5,1942.5,1942.5,1942.5,1942.5,1946,1946,1946,1949,1942.5,1942.5,1942.5,1942.5,1939.5,1936.5,1933.5,1933.5,1930.5,1927.5,1927.5,1922,1922,1915.5,1915.5,1918.5,1915.5,1918,1918,1918,1921,1924,1924,1930.5,1930.5
1883.5,1883.5,1883.5,1883.5,1883.5,1886,1892,1895,1898.5,1907.5,1910.5,1919,1925,1934.5,1940.5,1949,1955,1955,1961.5,1967.5,1970.5,1970.5,1970.5,1967,1967.5,1961,1958,1949,1949,1939.5,1933.5,1927.5,1922,1915.5,1909.5,1909.5,1903.5,1901,1901,1898,1901,1901,1904,1909.5,1912,1915,1921,1927,1933.5,1939.5,1945.5,1948.5,1955,1955,1958,1958,1952,1952,1952,1946,1942.5,1939.5,1939.5,1936.5,1930.5,1933.5,1930,1927,1927,1924,1927,1924,1927,1930.5,1930.5,1936.5,1946,1958,1964.5,1973.5,1980,1986,1996,1999,2005.5,2009,2005.5,2005.5,2005.5,2002.5,1996,1992.5,1993,1986.5,1983.5,1983.5,1981,1978,1978,1975,1972,1969,1969,1965.5,1965.5,1965.5,1959,1959,1961.5,1958.5,1961.5,1961.5,1961.5,1961.5,1961,1964,1964,1967.5,1973.5,1980,1980,1983.5,1986.5,1986.5,1986.5,1980.5,1980.5,1974,1968,1965,1961.5,1958,1955,1955,1949,1949,1949,1945.5,1945.5,1948.5,1948.5,1952,1952,1955,1955,1955,1955,1958,1958,1955,1955,1955,1952,1952,1952,1949,1946,1943,1943,1939.5,1939.5,1942.5,1942.5,1945.5,1945.5,1949,1952,1955,1955,1955,1955,1955,1955,1955,1955,1955,1952,1952,1952,1952,1952,1948.5,1945.5,1945.5,1945.5,1945.5,1945.5,1948.5,1948.5,1952,1955,1958,1958,1961,1967.5,1967.5,1967.5,1970.5,1970.5,1970.5,1967.5,1967.5,1964,1964,1961,1955,1952,1946,1943,1940,1940,1933.5,1930.5,1927,1924,1924,1924,1924,1921,1921,1924.5,1924.5,1924.5,1924.5,1927.5,1930.5,1930.5,1933.5,1933.5,1933.5,1933.5,1933.5,1933.5,1933.5,1933.5,1933.5,1933.5,1930.5,1927.5,1924,1921,1918,1915,1909.5,1909.5,1904,1898,1895,1889,1883,1883,1877,1872,1869,1863,1860,1860,1855,1849,1849,1846.5,1841,1841,1841,1838,1835.5,1835.5,1835.5,1835.5,1835.5,1830,1830,1830,1827,1827,1824.5,1822,1819.5,1816.5,1814,1814,1811.5,1811.5,1806,1806,1801,1798,1795,1790,1787.5,1782.5,1780,1777.5,1775,1775,1775,1777.5,1780,1782.5,1788,1790.5,1793,1798,1800.5,1806,1811.5,1814,1819,1819,1822,1824.5,1819.5,1819.5,1819.5,1817,1814,1814,1808.5,1808.5,1806,1806,1803.5,1806,1808.5,1808.5,1808.5,1808.5,1808.5,1814,1814,1814,1819.5,1827,1830,1833,1833,1838,1841,1843.5,1846.5,1846.5,1849.5,1849,1852,1852,1852,1855,1857.5,1860,1860,1863,1866,1869,1872,1877,1880,1880,1886,1892,1895,1898,1900.5,1903.5,1906.5,1909.5,1906.5,1906.5,1907,1907,1904,1901,1898,1898,1895,1897.5,1897.5,1897.5,1895,1898,1898,1901,1904,1904,1907,1906.5,1906.5,1909.5,1909.5,1910,1913,1916,1916,1919,1919,1919,1916.5,1916.5,1913.5,1913,1913,1916,1919,1922,1922,1924,1930,1933.5,1933.5,1936.5,1936.5,1939.5,1939.5,1939.5,1936.5,1933.5,1936.5,1933.5,1933.5,1930,1927,1924,1924,1921,1921,1918.5,1915.5,1915.5,1909.5,1906.5,1903.5,1898,1892,1892,1889,1889,1889,1889,1892,1892,1895,1901,1906.5,1906.5,1912.5,1915,1918,1918,1918,1918,1912.5,1912.5,1912.5,1909.5,1909.5,1906.5,1910,1910,1910,1913,1916,1916,1916,1919,1922,1922,1925,1928,1925,1928,1925,1925,1927.5,1930.5,1930.5,1933.5,1933.5,1936.5,1936.5,1939.5,1939.5,1939.5,1942.5,1946,1946,1946,1946,1949,1946,1946,1946,1946,1943,1943,1937,1937,1936.5,1933.5,1927.5,1924.5,1922,1922,1918.5,1918.5,1918,1918,1921,1918,1921,1924,1927,1930.5,1930.5
1880.5,1883.5,1883.5,1877.5,1880.5,1883.5,1889,1895,1898.5,1907.5,1916,1922,1931,1940.5,1946,1955,1961.5,1964.5,1967.5,1973.5,1977,1974,1970.5,1970.5,1967.5,1964.5,1961.5,1955,1949,1942.5,1933.5,1927.5,1922,1915.5,1912.5,1906.5,1903.5,1901,1898,1898,1898,1901,1901,1907,1909.5,1912,1918,1924,1930.5,1936.5,1942.5,1948.5,1955,1955,1955,1955,1952,1952,1952,1949,1945.5,1939.5,1939.5,1939.5,1936.5,1933.5,1930,1930,1930,1927,1927,1930.5,1927.5,1930.5,1933.5,1939.5,1945.5,1958.5,1961.5,1970.5,1977,1986,1993,1996,1999.5,2002.5,2002.5,2002.5,1999.5,1999.5,1996,1992.5,1989.5,1986.5,1986.5,1983.5,1980.5,1981,1974.5,1978,1972,1972,1969,1966.5,1963,1963,1956.5,1959,1955.5,1955.5,1955,1955,1952,1955,1955,1958,1958,1961,1967.5,1974,1977,1980.5,1983.5,1983.5,1987,1980.5,1980.5,1977.5,1968,1964.5,1964.5,1958.5,1958.5,1955,1952,1949,1943,1942.5,1945.5,1945.5,1945.5,1948.5,1949,1949,1955,1955,1952,1955,1958,1958,1955,1955,1955,1955,1952,1949,1949,1946,1946,1942.5,1942.5,1945.5,1945.5,1945.5,1952,1952,1958.5,1961.5,1961.5,1958,1958,1958,1955,1955,1958,1958,1958,1958,1955,1955,1952,1948.5,1948.5,1945.5,1945.5,1945.5,1945.5,1948.5,1948.5,1952,1952,1955,1955,1958,1958,1961,1964,1964,1967.5,1967.5,1967.5,1964,1964,1961,1961,1955,1955,1949,1946,1943,1940,1936.5,1933.5,1933.5,1930,1930,1927,1921,1924,1921,1924,1927.5,1924.5,1930.5,1933.5,1936.5,1936.5,1939.5,1946,1946,1949,1949,1949,1949,1949,1949,1949,1943,1943,1939.5,1936.5,1936.5,1930.5,1927,1921,1918,1912,1909.5,1907,1904,1901,1895,1889,1883,1877,1874.5,1872,1860,1860,1857.5,1852,1846.5,1843.5,1843.5,1841,1841,1841,1835.5,1835.5,1835.5,1832.5,1830,1830,1827,1827,1824.5,1822,1819,1814,1814,1811.5,1811.5,1806,1806,1806,1798,1795,1792.5,1787.5,1782.5,1780,1775,1772,1767,1767,1769.5,1769.5,1772,1774.5,1780,1782.5,1788,1790.5,1795.5,1800.5,1806,1811.5,1814,1819,1816.5,1819.5,1819.5,1819.5,1819.5,1817,1811,1811,1808.5,1806,1803.5,1803.5,1803.5,1803.5,1803.5,1803.5,1803.5,1803.5,1806,1808.5,1808.5,1811,1811,1817,1822,1819.5,1824.5,1827.5,1830,1832.5,1832.5,1835.5,1835.5,1835.5,1835.5,1841,1841,1841,1846.5,1849,1849,1855,1855,1860,1863,1869,1869,1871.5,1877.5,1880.5,1883.5,1889,1889,1895,1895,1898,1898,1898,1898,1898,1895,1895,1892,1892,1895,1897.5,1897.5,1897.5,1897.5,1900.5,1903.5,1903.5,1906.5,1907,1907,1906.5,1909.5,1912.5,1909.5,1910,1913,1916,1916,1919,1919,1919,1916.5,1916.5,1916.5,1916,1919,1919,1922,1922,1927.5,1930.5,1937,1936.5,1939.5,1939.5,1939.5,1942.5,1939.5,1939.5,1939.5,1933.5,1936.5,1933.5,1933.5,1927,1924,1921,1921,1921,1918.5,1915.5,1915.5,1912.5,1909.5,1906.5,1906.5,1901,1898,1898,1892,1892,1892,1895,1898,1898,1904,1906.5,1906.5,1909.5,1915,1915,1918,1918,1915,1918,1915.5,1912.5,1912.5,1915.5,1909.5,1913,1913,1916,1916,1916,1922,1922,1922,1925,1925,1925,1925,1928,1928,1928,1925,1928,1927.5,1927.5,1930.5,1927,1930,1930.5,1933.5,1933.5,1936.5,1939.5,1939.5,1943,1946,1946,1946,1946,1949,1949,1949,1946,1943,1946,1940,1940,1940,1936.5,1933.5,1927.5,1924.5,1922,1918.5,1921,1918,1921,1921,1921,1924,1924,1927.5,1927.5,1933.5
1880.5,1883.5,1880.5,1877.5,1883.5,1883.5,1889,1892,1901.5,1907.5,1913,1922,1931,1943,1949,1958.5,1961.5,1967.5,1970.5,1977,1977,1977,1973.5,1976.5,1973.5,1967.5,1961.5,1958.5,1952,1942.5,1936.5,1930.5,1924.5,1918.5,1912.5,1909.5,1906.5,1901,1898,1898,1898,1901,1904,1907,1909.5,1912.5,1915.5,1924.5,1930.5,1936.5,1942.5,1946,1952,1952,1955,1955,1952,1952,1952,1948.5,1945.5,1942.5,1939.5,1943,1937,1937,1933.5,1933.5,1930,1930.5,1930.5,1933.5,1930.5,1930.5,1933.5,1936.5,1942.5,1955.5,1961.5,1967.5,1973.5,1980,1986,1989.5,1999.5,1996,1999,2002.5,1999.5,1996,1996,1993,1989.5,1986.5,1983,1983.5,1983.5,1984,1981,1974.5,1975,1972,1969,1965.5,1963,1959.5,1956.5,1956.5,1953,1952.5,1946,1949,1945.5,1945.5,1946,1946,1952,1955,1961.5,1967.5,1974,1977.5,1980.5,1980.5,1984,1981,1978,1971,1965,1965,1958.5,1955.5,1952.5,1952.5,1946.5,1943.5,1943.5,1943,1939.5,1942.5,1942.5,1942.5,1945.5,1949,1949,1952,1952,1952,1955,1958,1955,1955,1955,1955,1955,1955,1949,1946,1949,1949,1945.5,1945.5,1949,1952,1952,1958.5,1961.5,1961.5,1961.5,1961.5,1964.5,1964.5,1961,1961,1958,1958,1958,1958,1958,1958.5,1955.5,1955.5,1952,1948.5,1945.5,1945.5,1945.5,1948.5,1948.5,1952,1952,1952,1955,1958,1958,1961,1961,1961,1961,1967,1967,1964,1964,1961,1961,1958,1955,1949,1949,1943,1943,1940,1940,1933.5,1933.5,1930,1930,1927,1927,1924,1930.5,1930.5,1927.5,1933.5,1933.5,1933.5,1939.5,1946,1946,1949,1955,1958,1961,1958,1961,1961,1961,1958,1958,1955,1952,1949,1943,1940,1940,1933.5,1930,1924,1924,1921,1915,1909.5,1904,1901,1895,1889,1886,1874.5,1869,1866,1860.5,1852,1849,1844,1844,1844,1838,1838,1838,1835.5,1835.5,1830,1830,1827.5,1824.5,1822,1819.5,1816.5,1814,1811.5,1806,1806,1803.5,1800.5,1798,1795.5,1792.5,1790,1787.5,1782.5,1775,1772,1767,1764.5,1767,1764.5,1764.5,1767,1769.5,1774.5,1777.5,1780,1782.5,1790.5,1795.5,1800.5,1806,1811.5,1814,1819.5,1819.5,1822,1819.5,1817,1817,1811,1808.5,1808.5,1803.5,1803.5,1803.5,1803.5,1803.5,1801,1801,1803.5,1806,1806,1806,1806,1808.5,1808.5,1811,1814,1817,1819.5,1819.5,1822,1822,1825,1825,1822,1822,1827.5,1827.5,1827.5,1830,1835.5,1835.5,1838,1841,1844,1852,1852,1857.5,1857.5,1860.5,1866,1868.5,1874.5,1874.5,1877.5,1880.5,1880.5,1883,1883,1886,1889,1886,1883,1886,1883.5,1883.5,1886.5,1892,1892,1894.5,1897.5,1900.5,1903.5,1909.5,1912.5,1909.5,1909.5,1909.5,1912.5,1909.5,1913,1910,1913,1916,1916,1919,1919,1916.5,1916.5,1916.5,1916.5,1919,1919,1922,1925,1930.5,1930.5,1936.5,1940,1943,1943,1946,1946,1946,1943,1939.5,1939.5,1933.5,1936.5,1933.5,1927,1924,1924,1921,1918,1918,1915.5,1915.5,1915.5,1915.5,1912.5,1909.5,1906.5,1906.5,1904,1901,1898,1901,1901,1901,1904,1907,1907,1909.5,1909.5,1909.5,1912.5,1912.5,1915,1912,1915,1915,1915.5,1912.5,1912.5,1909.5,1912.5,1916,1919,1919,1922,1925,1925,1928,1928,1931,1931,1931,1934,1934,1931,1931,1931,1928,1927.5,1924.5,1930.5,1924,1924,1927,1927,1930.5,1933.5,1933.5,1936.5,1940,1940,1943,1946,1946,1949,1952,1949,1949,1949,1949,1946,1940,1940,1936.5,1933.5,1930.5,1927.5,1924,1924,1924,1924,1921,1921,1921,1924.5,1927.5,1930.5,1930.5,1930.5
1880.5,1883.5,1880.5,1883.5,1886.5,1886,1889,1898,1904.5,1913,1919,1928,1936.5,1945.5,1952,1958,1964,1967,1973.5,1973.5,1976.5,1976.5,1976.5,1973.5,1970.5,1967.5,1961.5,1958.5,1949,1945.5,1936.5,1933.5,1927.5,1921,1915.5,1912.5,1909.5,1904,1901,1901,1901,1898,1901,1904,1909.5,1912.5,1915.5,1918.5,1927.5,1933.5,1942.5,1946,1952,1952,1952,1955,1952,1955,1952,1952,1949,1946,1943,1943,1940,1940,1936.5,1933.5,1937,1933.5,1933.5,1933.5,1933.5,1933.5,1933.5,1936.5,1942.5,1948.5,1958.5,1964.5,1970.5,1977,1980,1986.5,1992.5,1996,1996,1996,1996,1992.5,1989.5,1989.5,1989.5,1986.5,1986.5,1983,1983.5,1983.5,1977.5,1974.5,1974.5,1971.5,1968.5,1962,1959.5,1956.5,1953.5,1950,1947,1946.5,1943.5,1939.5,1939.5,1939.5,1939.5,1943,1943,1949,1958.5,1964.5,1965,1968,1974.5,1974.5,1978,1974.5,1971.5,1968,1965,1959,1959,1953,1950,1947,1943.5,1943.5,1940.5,1940.5,1939.5,1939.5,1939.5,1942.5,1945.5,1942.5,1946,1949,1952,1952,1952,1955,1955,1958,1958,1958,1958,1955,1952,1952,1952,1949,1949,1949,1952,1952,1958.5,1961.5,1961.5,1961.5,1964.5,1964.5,1964.5,1964.5,1961,1961,1961,1961,1958,1958,1958,1961.5,1958.5,1955.5,1952,1948.5,1948.5,1948.5,1948.5,1948.5,1948.5,1952,1949,1952,1952,1955,1952,1955,1955,1955,1961,1961,1961,1958,1958,1958,1958,1955,1955,1949,1949,1943,1943,1943,1943,1940,1940,1937,1933.5,1930,1930,1927,1927,1927,1930.5,1930.5,1933.5,1933.5,1940,1946,1946,1949,1955,1958,1964,1964,1967.5,1967.5,1970.5,1970.5,1970.5,1967.5,1964.5,1961,1961,1958,1958,1955,1949,1946,1940,1936.5,1933.5,1930.5,1924,1918,1912.5,1906.5,1901,1889,1880.5,1874.5,1871.5,1863,1858,1852.5,1849.5,1843.5,1843.5,1843.5,1838.5,1838,1838,1835.5,1835.5,1832.5,1830,1827,1824.5,1822,1816.5,1814,1808.5,1806,1803.5,1798,1798,1793,1792.5,1790,1785,1782.5,1777.5,1772,1769.5,1767,1767,1764.5,1762.5,1764.5,1764.5,1769.5,1772,1774.5,1780,1785,1790.5,1800.5,1803,1809,1814,1816.5,1822,1822,1819.5,1819.5,1817,1814,1811,1808.5,1806,1806,1806,1806,1806,1806,1806,1806,1803.5,1803.5,1803.5,1808.5,1808.5,1808.5,1811.5,1811.5,1811.5,1814,1814,1816.5,1816.5,1816.5,1816.5,1816.5,1819,1819,1816.5,1819,1822,1827.5,1827.5,1830,1830,1835.5,1838.5,1841,1846.5,1846.5,1852,1854.5,1854.5,1860.5,1860.5,1863.5,1866,1871.5,1871.5,1869,1872,1874.5,1874.5,1874.5,1874.5,1874.5,1877.5,1880.5,1883.5,1886.5,1886.5,1892,1897.5,1900.5,1903.5,1906.5,1909.5,1907,1909.5,1912.5,1912.5,1912.5,1913,1913,1910,1916,1916,1916,1916,1919,1916,1916,1919,1922,1928,1928,1933.5,1936.5,1940,1943,1946,1946,1946,1946,1949,1943,1943,1936.5,1933.5,1933.5,1930,1924,1924,1921,1918,1918,1915.5,1915.5,1915.5,1909.5,1909.5,1909.5,1903.5,1903.5,1906.5,1906.5,1906.5,1909.5,1909.5,1909.5,1909.5,1912,1912,1909.5,1909.5,1909.5,1912.5,1909.5,1909.5,1912,1912,1915,1912.5,1912.5,1912.5,1912.5,1915.5,1919,1919,1922,1925,1925,1928,1928,1931,1934,1934,1934,1934,1934,1934,1934,1931,1931,1925,1927.5,1924.5,1924,1924,1924,1924,1921,1924,1930.5,1930.5,1930.5,1933.5,1940,1943,1943,1949,1952,1952,1952,1952,1946,1943,1943,1943,1943,1936.5,1936.5,1930.5,1930.5,1927,1924,1924,1924,1924,1927.5,1924.5,1927.5,1927.5,1927.5,1927.5,1930.5
1883.5,1886.5,1886.5,1892,1889,1892,1898,1901,1910,1916,1925,1933.5,1939.5,1946,1952,1961,1967.5,1970.5,1970.5,1973.5,1977,1977,1973.5,1973.5,1970.5,1967.5,1961.5,1958.5,1955,1946,1939.5,1933.5,1930.5,1921,1918,1915,1912,1907,1904,1901,1901,1901,1904,1907,1909.5,1912.5,1915.5,1922,1930.5,1933.5,1942.5,1946,1952,1952,1952,1955,1955,1955.5,1952,1952,1949,1949,1949,1946,1943,1943,1939.5,1939.5,1940,1937,1937,1936.5,1933.5,1933.5,1933.5,1933.5,1939.5,1945.5,1949,1955,1961,1970.5,1974,1980,1983,1986.5,1986.5,1986.5,1986.5,1986.5,1986.5,1983,1983,1983,1980,1980,1983,1980,1977.5,1974.5,1971.5,1968,1962,1959,1959,1953,1947,1943.5,1940.5,1937.5,1934,1936.5,1933.5,1933.5,1930.5,1933.5,1937,1943,1949,1955.5,1958,1961.5,1968,1971,1968,1971.5,1971.5,1962,1962,1956.5,1953.5,1950,1950,1944,1940.5,1940.5,1937.5,1937.5,1939.5,1936.5,1939.5,1942.5,1945.5,1946,1946,1949,1952,1952,1955,1955,1955,1958,1958,1958,1958,1958,1952,1955,1955,1952,1952,1949,1952,1955,1955,1961.5,1961.5,1961.5,1964.5,1964.5,1964.5,1961,1961,1961,1961,1961,1961,1961,1961.5,1961.5,1958.5,1955.5,1955.5,1952,1952,1952,1948.5,1948.5,1948.5,1952,1952,1952,1952,1952,1955,1955,1955,1955,1955,1955,1955,1955,1955,1955,1955,1952,1952,1952,1949,1949,1949,1946,1943,1943,1940,1940,1937,1937,1937,1930,1930,1930,1930,1930,1930,1937,1937,1943,1946,1946,1952,1958,1961,1964.5,1967.5,1967.5,1970.5,1973.5,1973.5,1973.5,1973.5,1973.5,1973.5,1970.5,1970.5,1970.5,1967,1961,1961,1955,1952,1949,1943,1936.5,1930.5,1924,1915.5,1906.5,1898,1889,1880.5,1874.5,1866,1857.5,1857.5,1852.5,1849.5,1846.5,1843.5,1843.5,1846.5,1844,1844,1841,1838,1835.5,1835.5,1830,1824.5,1819.5,1814,1811,1806,1803.5,1800.5,1793,1790,1790,1787.5,1780,1777.5,1772,1772,1767,1769.5,1764.5,1764.5,1764.5,1764.5,1767,1769.5,1774.5,1777.5,1785,1790.5,1795.5,1803,1809,1814,1816.5,1822,1824.5,1822,1819.5,1817,1814,1814,1811,1808.5,1808.5,1806,1806,1803.5,1803.5,1803.5,1806,1806,1808.5,1808.5,1808.5,1806,1809,1811.5,1811.5,1811.5,1811.5,1811.5,1811.5,1811.5,1811.5,1814,1814,1814,1814,1814,1819,1819,1822,1825,1827.5,1827.5,1830,1832.5,1835.5,1835.5,1838,1841,1841,1843.5,1849.5,1849.5,1849.5,1852,1855,1857.5,1860,1863,1863,1866,1863.5,1866,1866,1866,1871.5,1874.5,1874.5,1877.5,1883.5,1886.5,1889,1892,1898,1898,1898,1901,1906.5,1909.5,1909.5,1910,1910,1913,1916,1919,1919,1919,1916,1916,1919,1922,1928,1928,1930.5,1933.5,1936.5,1940,1946,1943,1943,1946,1946,1946,1940,1940,1933.5,1927,1924,1924,1924,1918,1915,1912.5,1912.5,1909.5,1912.5,1906.5,1906.5,1909.5,1909.5,1909.5,1909.5,1906.5,1909.5,1909.5,1909.5,1909.5,1912,1912,1912,1915,1912,1915,1912,1912,1912,1912,1915,1912,1915,1912.5,1912.5,1915.5,1915.5,1918.5,1922,1922,1925,1928,1928,1931,1931,1934,1934,1937,1937,1937,1934,1934,1931,1931,1925,1925,1922,1921,1918,1918,1918,1918,1918,1921,1921,1927,1927,1930.5,1937,1940,1940,1943,1946,1946,1946,1946,1946,1946,1943,1943,1943,1943,1940,1933.5,1933.5,1930,1930,1927,1927.5,1924.5,1924.5,1925,1925,1928,1930.5,1927.5,1927.5
1889,1889.5,1892,1895,1898,1898,1901,1907,1916,1922,1927.5,1936.5,1943,1946,1952,1958,1964.5,1964.5,1964.5,1967.5,1967.5,1970.5,1970.5,1970.5,1970.5,1967.5,1961.5,1955,1952,1946,1943,1936.5,1927,1924,1921,1918,1915,1909.5,1906.5,1901,1901,1904,1904,1907,1912,1915,1918,1927.5,1933.5,1939.5,1942.5,1946,1952,1952,1955,1955,1958.5,1955.5,1955,1955,1952,1949,1952,1949,1949,1946,1942.5,1939.5,1939.5,1940,1937,1937,1933.5,1933.5,1933.5,1936.5,1936.5,1939.5,1946,1949,1958,1958,1964,1970.5,1973.5,1973.5,1976.5,1980,1980,1980,1980,1977,1977,1980,1980,1980,1980,1977,1980,1974,1971,1964.5,1961.5,1958.5,1952.5,1946.5,1943.5,1937.5,1934.5,1934,1931,1928,1928,1927.5,1927.5,1927,1930,1936.5,1942.5,1948.5,1952,1955,1958.5,1965,1965,1965,1962,1959.5,1959.5,1956.5,1950.5,1947,1947,1941,1941,1940.5,1937.5,1937.5,1939.5,1939.5,1942.5,1945.5,1949,1946,1952,1952,1955,1955,1955,1958,1958,1958,1961,1961,1961,1958,1958,1955,1955,1955,1952,1952,1952,1955,1955,1961.5,1961.5,1961.5,1964.5,1964.5,1961,1961,1961,1961,1961,1961,1961,1961,1958,1961.5,1961.5,1955.5,1958.5,1955,1955,1952,1952,1948.5,1952,1952,1952,1952,1949,1949,1949,1949,1952,1948.5,1948.5,1948.5,1948.5,1949,1952,1952,1952,1952,1952,1952,1955,1952,1952,1949,1949,1946,1946,1943,1943,1940,1940,1937,1937,1933.5,1933.5,1933.5,1933.5,1933.5,1936.5,1940,1943,1946,1949,1955,1955,1958.5,1961.5,1961.5,1967.5,1971,1971,1974,1970.5,1973.5,1976.5,1976.5,1977,1974,1974,1970.5,1973.5,1970.5,1967.5,1964.5,1961.5,1955,1952,1942.5,1936.5,1924.5,1912.5,1906.5,1897.5,1886.5,1875,1872,1866.5,1860.5,1857.5,1855,1852.5,1855,1852,1855,1852,1852,1852,1849,1849.5,1846.5,1838,1833,1824.5,1822,1817,1814,1803.5,1798,1795.5,1790,1787.5,1782.5,1780,1777.5,1775,1772,1772,1767,1767,1767,1767,1767,1772,1772,1777.5,1785,1790.5,1798,1803,1809,1811.5,1819.5,1822,1824.5,1819.5,1819.5,1819.5,1814,1814,1814,1808.5,1808.5,1808.5,1808.5,1808.5,1808.5,1808.5,1808.5,1808.5,1809,1808.5,1808.5,1811.5,1811.5,1811.5,1811.5,1811.5,1811.5,1811.5,1811.5,1811.5,1811.5,1811.5,1809,1809,1811.5,1811.5,1814,1814,1816.5,1819,1819,1822,1822,1824.5,1827.5,1827.5,1827.5,1830,1830,1832.5,1835.5,1835.5,1838.5,1841,1844,1844,1849,1852,1852,1854.5,1852,1855,1855,1858,1860.5,1863,1866,1866,1871.5,1874.5,1877.5,1880.5,1886,1889,1886,1889,1898,1897.5,1900.5,1900.5,1903.5,1903.5,1907,1910,1910,1910,1916,1916,1919,1919,1922,1927.5,1930.5,1933.5,1940,1943,1943,1939.5,1943,1943,1943,1940,1937,1937,1930,1924,1927,1921,1918,1915,1912.5,1909.5,1906.5,1906.5,1909.5,1906.5,1906.5,1909.5,1909.5,1906.5,1909.5,1909.5,1915.5,1915.5,1918,1918,1918,1921,1921,1921,1921,1918,1918,1918,1918,1918,1918,1918,1918,1915,1915,1918,1918,1921,1921,1924.5,1924.5,1927.5,1930.5,1930.5,1933.5,1933.5,1933.5,1933.5,1933.5,1933.5,1933.5,1933.5,1930.5,1927.5,1922,1924.5,1915.5,1915.5,1918,1915,1912,1912,1915,1915.5,1918,1921,1921,1924,1933.5,1936.5,1936.5,1939.5,1946,1946,1946,1946,1946,1942.5,1942.5,1946,1943,1943,1943,1940,1933.5,1933.5,1933.5,1930.5,1927.5,1930.5,1927.5,1927.5,1928,1928,1930.5,1927.5,1927.5
