0,0,0,0,0,0,0,0,0,0,0,0,0,0,0,0,0,962,959,959,959,962,959,959,959,962,962,962,965,962,962,962,1724,1732,962,1743.5,1747.5,1764,1766,965,965,965,962,965,965,965,962,962,962,962,959,962,962,962,959,962,962,962,962,962,962,962,962,962,962,962,959,959,959,959,959,956,956,956,959,959,962,962,962,965,968.5,968.5,971.5,974.5,974.5,974.5,974.5,974.5,977.5,977.5,977.5,977.5,977.5,977.5,977.5,977.5,977.5,974.5,974.5,974.5,974.5,974.5,971.5,971.5,971.5,968.5,971.5,968.5,968.5,965,965,965,965,965,962,962,965,965,968.5,968.5,971.5,974.5,974.5,974.5,974.5,974.5,974.5,971.5,974.5,974.5,971.5,971.5,968.5,968.5,965,965,962,959,956,953.5,953.5,950.5,953.5,950.5,950.5,950.5,953.5,956,956,959,962,965,968.5,971.5,974.5,974.5,977.5,980.5,980.5,980.5,980.5,980.5,980.5,980.5,980.5,977.5,974.5,971.5,968.5,965,962,962,959,959,956,956,956,956,956,956,956,956,956,959,959,959,959,959,959,959,959,956,956,956,959,962,962,962,965,965,968.5,971.5,971.5,971.5,974.5,974.5,977.5,977.5,977.5,980.5,980.5,983.5,983.5,983.5,983.5,983.5,987,987,983.5,983.5,980.5,977.5,977.5,974.5,971.5,968.5,968.5,968.5,968.5,971.5,974.5,977.5,977.5,980.5,983.5,987,990,993,993,990,993,993,990,987,987,987,987,987,983.5,980.5,980.5,980.5,980.5,977.5,977.5,977.5,974.5,974.5,971.5,968.5,965,965,965,965,959,959,959,962,962,962,962,965,968.5,968.5,971.5,974.5,974.5,974.5,974.5,974.5,971.5,971.5,971.5,968.5,968.5,968.5,968.5,968.5,968.5,974.5,974.5,974.5,977.5,977.5,977.5,977.5,977.5,977.5,977.5,977.5,977.5,977.5,977.5,977.5,977.5,977.5,977.5,974.5,974.5,974.5,974.5,971.5,968.5,968.5,968.5,965,965,968.5,968.5,968.5,971.5,971.5,974.5,977.5,980.5,980.5,983.5,983.5,983.5,983.5,983.5,983.5,983.5,983.5,983.5,980.5,980.5,980.5,977.5,977.5,974.5,971.5,971.5,971.5,968.5,968.5,968.5,968.5,968.5,968.5,968.5,965,965,965,968.5,965,962,962,962,965,965,965,968.5,968.5,974.5,977.5,980.5,983.5,990,990,993,993,990,987,987,983.5,983.5,980.5,977.5,977.5,974.5,971.5,971.5,974.5,974.5,974.5,977.5,977.5,980.5,980.5,983.5,983.5,983.5,983.5,980.5,977.5,974.5,974.5,971.5,2113,2113,965,2106.5,962,962,965,965,962,965,965,965,965,965,965,965,965,965,965,965,968.5,968.5,968.5,968.5,968.5,968.5,971.5,971.5,971.5,971.5,974.5,974.5,977.5,980.5,983.5,983.5,990,990,993,990,993,990,990,990,987,983.5,980.5,980.5,977.5,977.5,974.5,974.5,974.5,974.5,974.5,977.5,977.5,977.5,980.5,983.5,983.5,983.5,983.5,983.5,983.5,983.5,980.5,980.5,974.5,971.5,968.5,965,965,965,965,965,965,965,968.5,971.5,971.5,971.5,968.5,971.5,971.5,971.5,968.5,968.5,968.5,968.5,971.5,971.5,971.5,971.5,974.5,974.5,974.5,974.5,977.5,977.5,977.5,977.5,977.5,974.5,971.5,968.5,965,962,962,962,962,962,962,962,965,968.5,968.5,971.5,971.5,971.5,974.5,974.5,971.5,971.5,968.5,965,962,959,956,953.5,953.5,950.5,947.5,947.5,944.5,944.5,944.5,944.5,944.5,941.5,941.5,941.5,941.5,941.5,944.5,944.5,944.5,950.5,953.5,959,965,971.5,971.5,974.5,974.5,971.5,971.5,971.5,968.5,968.5,965,965,962,962,959,956,956,956,953.5,953.5,953.5,953.5,953.5,953.5,956,953.5,953.5,953.5,953.5,950.5,950.5,950.5,947.5,947.5,944.5,944.5,944.5,947.5,947.5,947.5,950.5,953.5,956,959,962,965,968.5,971.5,971.5,974.5,974.5,974.5,974.5,977.5,977.5,977.5,977.5,977.5,977.5,977.5,977.5,977.5,974.5,974.5,974.5,974.5,974.5,974.5,974.5,971.5,971.5,968.5,965,962,959,956,953.5,950.5,947.5,944.5,944.5
0,0,0,0,0,0,0,0,0,0,0,0,0,0,0,0,0,959,956,956,956,959,959,959,959,959,959,962,962,962,962,962,962,1747.5,1751.5,1757.5,1762,1769,1771,1775.5,965,965,965,965,965,965,962,962,962,962,959,962,962,962,962,962,962,962,965,962,962,962,962,962,962,962,959,962,959,959,956,956,953.5,953.5,1886,1892,1897.5,1909.5,1915.5,1918,965,968.5,971.5,971.5,974.5,974.5,974.5,974.5,974.5,977.5,974.5,974.5,974.5,977.5,977.5,977.5,977.5,974.5,974.5,974.5,974.5,974.5,974.5,971.5,971.5,971.5,971.5,971.5,968.5,968.5,965,965,965,965,965,965,965,968.5,968.5,971.5,971.5,974.5,974.5,974.5,974.5,974.5,974.5,974.5,974.5,974.5,974.5,971.5,968.5,968.5,965,965,962,959,956,953.5,953.5,953.5,953.5,953.5,953.5,956,956,959,959,965,965,968.5,971.5,971.5,974.5,974.5,977.5,980.5,980.5,983.5,983.5,980.5,983.5,983.5,980.5,980.5,977.5,974.5,971.5,968.5,965,962,962,959,959,956,956,956,956,956,956,953.5,959,959,959,959,959,959,959,959,959,959,959,959,959,962,962,962,965,965,968.5,968.5,968.5,971.5,974.5,974.5,974.5,977.5,977.5,977.5,980.5,980.5,980.5,980.5,980.5,980.5,983.5,983.5,983.5,983.5,980.5,977.5,977.5,980.5,977.5,974.5,971.5,974.5,974.5,977.5,980.5,980.5,983.5,987,987,990,990,993,993,993,993,993,987,987,987,987,983.5,980.5,980.5,980.5,977.5,977.5,977.5,974.5,974.5,974.5,971.5,971.5,968.5,965,965,965,962,959,959,956,956,956,959,962,962,962,965,968.5,968.5,971.5,974.5,971.5,971.5,971.5,971.5,968.5,968.5,968.5,965,965,968.5,968.5,968.5,971.5,974.5,974.5,977.5,977.5,977.5,977.5,980.5,977.5,977.5,977.5,977.5,977.5,977.5,977.5,977.5,977.5,977.5,974.5,974.5,974.5,974.5,971.5,971.5,968.5,968.5,968.5,968.5,968.5,968.5,968.5,971.5,974.5,974.5,977.5,977.5,980.5,983.5,983.5,980.5,983.5,980.5,983.5,983.5,983.5,980.5,980.5,980.5,977.5,977.5,974.5,974.5,971.5,968.5,968.5,968.5,968.5,968.5,968.5,968.5,968.5,965,962,962,962,962,962,962,959,962,962,962,962,965,965,971.5,977.5,980.5,983.5,990,990,990,990,990,987,983.5,980.5,980.5,977.5,974.5,971.5,971.5,968.5,968.5,971.5,971.5,974.5,974.5,977.5,980.5,980.5,980.5,983.5,980.5,983.5,980.5,977.5,974.5,974.5,971.5,971.5,968.5,968.5,962,962,962,962,962,962,962,962,959,962,959,959,959,959,959,959,962,962,965,965,965,965,965,971.5,971.5,971.5,971.5,974.5,971.5,977.5,980.5,980.5,987,987,990,993,993,990,993,990,990,987,983.5,980.5,977.5,977.5,974.5,974.5,974.5,974.5,971.5,974.5,974.5,977.5,977.5,980.5,983.5,983.5,983.5,983.5,983.5,983.5,983.5,980.5,980.5,977.5,974.5,971.5,968.5,968.5,968.5,965,965,965,968.5,968.5,971.5,971.5,968.5,971.5,971.5,971.5,971.5,968.5,968.5,968.5,965,968.5,968.5,968.5,968.5,968.5,971.5,971.5,974.5,974.5,977.5,977.5,977.5,974.5,971.5,968.5,965,962,962,959,959,956,959,956,959,962,962,962,968.5,968.5,968.5,971.5,971.5,968.5,968.5,965,962,959,956,953.5,950.5,947.5,947.5,944.5,941.5,941.5,941.5,941.5,941.5,938.5,938.5,936,936,936,936,938.5,941.5,944.5,944.5,947.5,953.5,956,959,962,965,965,962,962,962,959,959,959,956,956,956,953.5,953.5,950.5,950.5,950.5,950.5,947.5,947.5,950.5,953.5,953.5,953.5,956,956,953.5,953.5,953.5,950.5,2423.5,2420.5,2420.5,947.5,947.5,947.5,947.5,947.5,950.5,953.5,956,959,959,962,965,965,971.5,971.5,974.5,974.5,974.5,977.5,977.5,980.5,980.5,980.5,980.5,980.5,980.5,980.5,980.5,977.5,977.5,977.5,977.5,977.5,977.5,977.5,974.5,971.5,968.5,965,962,959,959,953.5,950.5,947.5,947.5
0,0,0,0,0,0,0,0,0,0,0,0,0,0,0,0,0,956,956,956,956,956,956,953.5,956,956,956,959,962,959,959,962,962,1751.5,1755.5,1762,1766,1775.5,1777.5,1781.5,1786,965,965,965,965,965,962,962,962,959,959,959,959,962,962,962,962,962,962,1886.5,1889.5,1886.5,1886.5,1886.5,959,959,959,959,1878,1878,1875,953.5,953.5,953.5,1875.5,1878,956,959,1897.5,1900.5,1898,1895,968.5,971.5,971.5,1885,1882.5,974.5,974.5,974.5,974.5,974.5,974.5,974.5,977.5,977.5,977.5,974.5,974.5,974.5,974.5,974.5,974.5,974.5,971.5,971.5,971.5,971.5,968.5,968.5,968.5,965,965,965,965,965,965,968.5,968.5,971.5,971.5,974.5,974.5,974.5,977.5,977.5,977.5,977.5,974.5,974.5,974.5,971.5,968.5,968.5,965,962,962,959,956,956,956,953.5,956,959,959,959,959,962,962,965,965,968.5,968.5,971.5,974.5,974.5,977.5,980.5,980.5,983.5,983.5,983.5,983.5,983.5,983.5,980.5,980.5,977.5,974.5,971.5,968.5,965,962,962,959,956,956,953.5,953.5,953.5,953.5,953.5,956,956,956,959,959,959,959,959,959,959,959,959,962,962,962,965,965,965,965,968.5,968.5,971.5,971.5,974.5,974.5,974.5,977.5,977.5,977.5,977.5,980.5,980.5,980.5,980.5,980.5,980.5,980.5,980.5,980.5,980.5,980.5,980.5,980.5,980.5,980.5,980.5,980.5,983.5,983.5,983.5,987,987,987,990,990,990,990,990,990,987,987,987,983.5,983.5,980.5,983.5,980.5,977.5,977.5,977.5,977.5,971.5,971.5,974.5,971.5,968.5,965,965,962,962,959,959,956,953.5,953.5,956,956,959,962,962,962,965,968.5,968.5,971.5,971.5,971.5,971.5,968.5,968.5,968.5,965,965,965,965,965,968.5,968.5,971.5,974.5,974.5,974.5,974.5,977.5,977.5,977.5,977.5,977.5,977.5,977.5,977.5,977.5,977.5,977.5,977.5,974.5,974.5,974.5,974.5,971.5,971.5,968.5,968.5,968.5,968.5,968.5,968.5,968.5,971.5,971.5,974.5,974.5,977.5,980.5,980.5,980.5,980.5,980.5,980.5,983.5,983.5,983.5,980.5,980.5,980.5,977.5,974.5,974.5,971.5,968.5,968.5,968.5,968.5,968.5,965,968.5,968.5,965,962,962,962,962,962,962,962,959,959,959,962,962,962,965,971.5,977.5,980.5,983.5,990,990,990,990,987,987,980.5,980.5,977.5,974.5,974.5,968.5,968.5,968.5,968.5,968.5,968.5,968.5,971.5,974.5,974.5,977.5,977.5,977.5,977.5,977.5,977.5,974.5,2136.5,2129,2121.5,2121.5,2117.5,2114,962,962,962,962,959,959,956,956,956,956,956,953.5,953.5,953.5,953.5,953.5,956,959,962,962,962,962,965,968.5,971.5,971.5,971.5,974.5,971.5,974.5,977.5,980.5,983.5,987,990,990,990,993,990,987,987,983.5,983.5,977.5,977.5,977.5,974.5,974.5,971.5,971.5,971.5,971.5,974.5,974.5,977.5,977.5,977.5,980.5,980.5,980.5,980.5,980.5,980.5,980.5,980.5,977.5,974.5,971.5,968.5,968.5,968.5,968.5,968.5,968.5,968.5,968.5,971.5,971.5,971.5,971.5,971.5,968.5,968.5,965,965,965,965,965,965,965,965,965,968.5,968.5,971.5,974.5,977.5,977.5,974.5,971.5,971.5,968.5,965,962,959,956,953.5,953.5,953.5,950.5,953.5,956,959,959,962,962,965,965,965,965,965,962,959,956,953.5,947.5,947.5,944.5,941.5,941.5,938.5,936,938.5,936,936,936,933,933,933,933,933,936,936,938.5,941.5,944.5,947.5,950.5,950.5,956,956,956,953.5,953.5,953.5,953.5,950.5,953.5,950.5,950.5,950.5,950.5,950.5,947.5,947.5,947.5,947.5,947.5,947.5,947.5,953.5,953.5,956,956,956,956,956,2422,2419.5,2416.5,2416.5,2416.5,2413.5,947.5,947.5,947.5,947.5,950.5,953.5,953.5,956,956,959,959,962,965,968.5,968.5,968.5,971.5,974.5,974.5,977.5,980.5,980.5,980.5,980.5,980.5,980.5,980.5,980.5,980.5,977.5,977.5,977.5,977.5,977.5,974.5,971.5,968.5,965,965,962,959,959,953.5,950.5,950.5
0,0,0,0,0,0,0,0,0,0,0,0,0,0,0,0,959,959,956,953.5,953.5,953.5,953.5,953.5,953.5,953.5,956,956,959,959,959,962,962,1757.5,1769,1775.5,1781.5,1789.5,1794,1798.5,1803,1805,968.5,968.5,965,965,962,962,959,959,959,959,959,962,959,962,1881,1884,1884,1886.5,1886.5,1883.5,1883.5,1886.5,1883.5,1880.5,1880.5,1880.5,1878,1878,1872.5,1869.5,1869.5,1869.5,1872.5,950.5,953.5,953.5,1889,1889,1886.5,1886.5,1887,1885,1879.5,1879.5,1880,1890.5,1890.5,971.5,971.5,971.5,971.5,974.5,974.5,1922,1916,1916,1919,1922,971.5,971.5,971.5,971.5,968.5,968.5,971.5,971.5,968.5,968.5,1871.5,1862.5,1857.5,968.5,965,965,968.5,1833.5,971.5,971.5,971.5,974.5,974.5,977.5,977.5,977.5,977.5,977.5,977.5,977.5,974.5,971.5,968.5,968.5,965,965,962,962,962,962,959,959,962,962,962,962,965,965,965,968.5,968.5,968.5,971.5,971.5,974.5,974.5,977.5,980.5,980.5,983.5,983.5,983.5,983.5,983.5,983.5,980.5,980.5,977.5,974.5,971.5,971.5,968.5,965,962,959,959,956,953.5,953.5,953.5,953.5,953.5,953.5,953.5,956,956,959,959,959,962,962,959,959,959,962,962,962,962,962,962,962,965,968.5,968.5,971.5,971.5,971.5,974.5,974.5,974.5,977.5,977.5,977.5,977.5,977.5,977.5,980.5,980.5,980.5,980.5,980.5,980.5,983.5,983.5,983.5,983.5,983.5,987,987,987,990,990,990,990,990,987,990,987,990,987,987,987,983.5,980.5,980.5,983.5,983.5,980.5,977.5,977.5,974.5,974.5,974.5,971.5,971.5,971.5,968.5,965,965,962,959,959,959,956,953.5,953.5,950.5,953.5,956,956,959,962,962,962,965,968.5,968.5,968.5,968.5,968.5,968.5,965,965,965,965,965,962,962,962,968.5,968.5,971.5,974.5,974.5,974.5,977.5,977.5,977.5,977.5,977.5,977.5,977.5,974.5,974.5,974.5,974.5,974.5,974.5,974.5,974.5,971.5,971.5,971.5,968.5,968.5,968.5,968.5,968.5,968.5,971.5,971.5,971.5,974.5,974.5,977.5,980.5,980.5,983.5,980.5,983.5,983.5,983.5,983.5,983.5,980.5,980.5,977.5,977.5,974.5,974.5,971.5,968.5,968.5,968.5,968.5,968.5,965,968.5,968.5,965,962,962,962,962,962,962,959,959,959,959,962,962,962,965,971.5,977.5,980.5,983.5,987,990,990,990,987,983.5,980.5,977.5,974.5,974.5,968.5,968.5,965,965,965,965,965,968.5,968.5,968.5,971.5,971.5,971.5,971.5,971.5,974.5,974.5,971.5,968.5,968.5,968.5,2122.5,962,962,962,962,959,959,959,959,956,956,956,953.5,953.5,950.5,950.5,950.5,950.5,950.5,953.5,956,956,959,959,962,962,968.5,968.5,971.5,971.5,971.5,971.5,974.5,974.5,980.5,980.5,987,990,990,990,990,990,990,987,980.5,980.5,977.5,974.5,974.5,971.5,971.5,971.5,968.5,968.5,971.5,971.5,971.5,974.5,974.5,977.5,977.5,977.5,977.5,980.5,977.5,977.5,977.5,977.5,974.5,974.5,971.5,968.5,968.5,968.5,968.5,968.5,968.5,968.5,968.5,971.5,971.5,968.5,968.5,968.5,965,965,965,965,962,962,962,962,962,965,965,965,968.5,968.5,974.5,977.5,977.5,974.5,971.5,968.5,968.5,962,962,959,956,953.5,953.5,953.5,953.5,953.5,953.5,953.5,956,956,959,962,962,962,959,959,959,956,953.5,950.5,947.5,944.5,941.5,941.5,938.5,936,936,936,936,933,930,930,930,930,930,930,933,936,936,938.5,941.5,944.5,944.5,944.5,950.5,950.5,947.5,947.5,947.5,944.5,944.5,944.5,947.5,944.5,947.5,947.5,947.5,947.5,944.5,944.5,944.5,944.5,947.5,947.5,950.5,953.5,953.5,956,956,956,956,956,2422,2422,2416.5,2416.5,2410,2410,950.5,950.5,950.5,950.5,950.5,950.5,953.5,953.5,953.5,956,956,959,962,962,965,965,968.5,968.5,971.5,974.5,977.5,977.5,980.5,980.5,977.5,977.5,977.5,977.5,977.5,977.5,977.5,977.5,974.5,977.5,974.5,971.5,971.5,968.5,965,965,962,959,956,956,956
0,0,0,0,0,0,0,0,0,0,0,0,0,0,0,959,959,956,953.5,953.5,950.5,953.5,950.5,950.5,950.5,950.5,953.5,956,959,959,962,962,965,965,968.5,1792,1794,1801.5,1811,1818,1817.5,1819.5,971.5,1831.5,1834,968.5,965,962,959,959,956,959,959,959,959,959,1878,1884,1884,1886.5,1886.5,1883.5,1880.5,1883.5,1883.5,1883.5,1878,1878,1875.5,1872.5,1872.5,1872.5,1866.5,1866.5,1869.5,947.5,947.5,950.5,950.5,953.5,1870,1872.5,1872.5,1870.5,1865,1868,1868,1878.5,1881.5,968.5,968.5,968.5,968.5,968.5,1904.5,1910,1907.5,1907.5,1910,1913,1913,971.5,968.5,968.5,968.5,968.5,968.5,1879.5,965,1870.5,1873.5,1868,1862.5,965,1852.5,965,968.5,1838.5,1834,1827,1830,1832,974.5,977.5,977.5,977.5,977.5,977.5,977.5,977.5,974.5,974.5,971.5,968.5,968.5,968.5,965,962,962,962,962,962,965,968.5,968.5,968.5,968.5,968.5,971.5,971.5,971.5,971.5,974.5,974.5,974.5,974.5,977.5,980.5,980.5,980.5,983.5,980.5,983.5,983.5,983.5,983.5,980.5,977.5,974.5,971.5,968.5,968.5,965,962,959,956,953.5,953.5,953.5,953.5,950.5,950.5,953.5,953.5,953.5,956,959,959,959,959,962,959,959,959,962,959,959,962,962,962,962,965,965,965,968.5,971.5,971.5,974.5,974.5,974.5,974.5,974.5,977.5,977.5,977.5,977.5,980.5,980.5,980.5,980.5,980.5,980.5,983.5,987,987,987,987,990,990,990,993,990,990,990,990,987,987,987,987,983.5,983.5,983.5,980.5,977.5,980.5,980.5,980.5,977.5,977.5,974.5,974.5,974.5,974.5,971.5,968.5,968.5,965,965,965,962,959,959,959,956,953.5,953.5,953.5,953.5,956,959,959,959,962,962,962,968.5,968.5,968.5,968.5,965,965,965,965,962,962,959,959,959,962,962,968.5,968.5,971.5,974.5,974.5,974.5,974.5,974.5,974.5,974.5,974.5,974.5,974.5,974.5,974.5,974.5,974.5,974.5,974.5,971.5,971.5,971.5,971.5,968.5,968.5,968.5,968.5,968.5,968.5,971.5,971.5,971.5,974.5,974.5,977.5,980.5,980.5,983.5,983.5,983.5,983.5,983.5,983.5,983.5,983.5,980.5,977.5,977.5,974.5,974.5,974.5,971.5,968.5,968.5,968.5,968.5,965,968.5,968.5,965,962,962,962,962,962,962,959,959,959,959,962,962,962,965,971.5,977.5,1881,983.5,987,987,987,990,983.5,983.5,980.5,977.5,974.5,971.5,968.5,968.5,965,962,962,962,962,962,965,965,968.5,968.5,968.5,968.5,968.5,968.5,968.5,968.5,968.5,965,962,962,962,962,962,959,959,959,956,956,956,953.5,953.5,950.5,950.5,950.5,950.5,947.5,947.5,947.5,950.5,953.5,953.5,956,956,956,962,965,968.5,968.5,965,968.5,968.5,971.5,974.5,980.5,980.5,987,987,990,990,990,987,987,983.5,980.5,980.5,977.5,974.5,971.5,971.5,971.5,971.5,968.5,968.5,968.5,971.5,971.5,971.5,971.5,974.5,974.5,974.5,974.5,974.5,974.5,974.5,974.5,974.5,974.5,974.5,968.5,968.5,968.5,968.5,965,965,965,965,965,968.5,968.5,968.5,965,965,965,965,962,962,959,959,959,959,959,959,962,965,968.5,971.5,974.5,977.5,977.5,974.5,971.5,971.5,968.5,965,962,959,959,956,956,953.5,953.5,953.5,953.5,953.5,953.5,953.5,956,956,959,959,959,959,956,953.5,953.5,947.5,944.5,941.5,941.5,941.5,936,936,936,933,933,930,930,927.5,927.5,927.5,927.5,927.5,930,933,933,938.5,938.5,941.5,941.5,941.5,944.5,944.5,941.5,941.5,938.5,938.5,938.5,938.5,941.5,941.5,941.5,944.5,944.5,944.5,944.5,944.5,944.5,944.5,947.5,947.5,950.5,953.5,953.5,956,956,959,959,956,2415.5,2415.5,2413,2413,2413,2406,950.5,950.5,950.5,950.5,950.5,950.5,950.5,953.5,953.5,953.5,953.5,953.5,959,959,962,962,965,965,968.5,971.5,971.5,974.5,974.5,977.5,974.5,974.5,974.5,974.5,977.5,974.5,974.5,974.5,974.5,974.5,974.5,971.5,968.5,968.5,968.5,965,965,965,962,959,959
0,0,0,0,0,0,0,0,0,0,0,0,0,0,0,956,959,956,953.5,953.5,950.5,950.5,950.5,947.5,950.5,950.5,953.5,956,959,959,962,962,968.5,968.5,971.5,971.5,1808,1820.5,1825,1830,1834.5,971.5,971.5,971.5,1846,968.5,965,962,959,959,956,956,959,959,959,959,1881,1884,1886.5,1886.5,1886.5,1880.5,1880.5,1881,1881,1878,1875,1875,1872,1869.5,1869.5,1869.5,1866.5,1863.5,1863.5,944.5,944.5,944.5,944.5,947.5,947.5,950.5,953.5,1853.5,1851,1848.5,1854,1859.5,1865,962,962,962,965,965,1884,1893,1896,1898.5,968.5,968.5,965,965,965,965,962,962,962,962,962,962,1870.5,1870.5,1865.5,1860,965,968.5,968.5,968.5,1836.5,1834,1836.5,1842,1842,974.5,974.5,974.5,974.5,974.5,974.5,971.5,971.5,971.5,971.5,968.5,968.5,968.5,968.5,965,965,965,965,968.5,968.5,971.5,974.5,971.5,971.5,974.5,974.5,974.5,974.5,974.5,974.5,974.5,974.5,977.5,977.5,977.5,980.5,980.5,980.5,980.5,980.5,983.5,983.5,980.5,980.5,977.5,974.5,974.5,968.5,968.5,962,962,959,956,956,953.5,950.5,950.5,953.5,953.5,953.5,953.5,953.5,956,959,959,959,962,962,962,962,962,962,962,962,962,962,962,962,965,965,965,968.5,971.5,971.5,971.5,971.5,974.5,974.5,974.5,974.5,974.5,977.5,977.5,980.5,980.5,980.5,980.5,980.5,980.5,983.5,987,990,990,990,990,990,993,993,990,990,990,987,983.5,980.5,977.5,977.5,977.5,977.5,974.5,974.5,971.5,974.5,977.5,977.5,977.5,974.5,974.5,974.5,974.5,971.5,968.5,968.5,968.5,965,965,965,962,959,959,959,959,953.5,956,953.5,956,959,959,959,962,962,962,962,965,968.5,965,965,965,965,965,962,962,959,959,956,956,959,962,965,965,968.5,971.5,971.5,974.5,974.5,974.5,971.5,971.5,971.5,971.5,971.5,971.5,971.5,974.5,971.5,971.5,971.5,971.5,968.5,968.5,968.5,968.5,968.5,968.5,968.5,968.5,968.5,971.5,974.5,971.5,974.5,974.5,977.5,980.5,983.5,983.5,983.5,983.5,983.5,983.5,983.5,983.5,983.5,980.5,980.5,977.5,974.5,1958,1946,1936.5,1925,1922,1916,1910,1898.5,968.5,968.5,965,962,962,962,962,962,962,962,959,962,962,962,1862.5,1868,1869,1875,1881,1881,1881,1882,987,987,987,983.5,983.5,977.5,977.5,974.5,971.5,968.5,968.5,965,962,962,962,962,962,962,962,962,965,965,965,965,965,965,965,965,962,962,962,962,962,959,956,956,956,956,956,953.5,950.5,950.5,950.5,950.5,947.5,947.5,947.5,947.5,947.5,950.5,950.5,953.5,956,956,956,962,965,965,965,965,965,968.5,971.5,971.5,977.5,980.5,980.5,983.5,990,990,990,987,983.5,983.5,980.5,980.5,977.5,974.5,974.5,974.5,971.5,971.5,968.5,968.5,968.5,968.5,968.5,968.5,968.5,968.5,968.5,971.5,971.5,971.5,971.5,971.5,971.5,971.5,971.5,971.5,968.5,968.5,965,965,965,965,962,962,965,965,965,965,965,962,962,959,959,959,959,956,956,956,959,959,962,962,965,968.5,971.5,977.5,977.5,977.5,974.5,971.5,971.5,968.5,965,962,962,959,956,956,953.5,953.5,953.5,950.5,950.5,950.5,950.5,953.5,953.5,953.5,953.5,953.5,953.5,953.5,950.5,947.5,944.5,944.5,941.5,941.5,938.5,936,936,933,930,930,930,927.5,927.5,927.5,927.5,927.5,930,933,933,936,941.5,941.5,941.5,941.5,941.5,941.5,938.5,938.5,938.5,936,936,938.5,938.5,941.5,941.5,944.5,944.5,944.5,944.5,944.5,944.5,944.5,947.5,947.5,950.5,953.5,956,956,959,959,959,962,2421.5,2418.5,2418.5,2415.5,2408.5,2408.5,956,956,953.5,950.5,950.5,950.5,950.5,950.5,950.5,950.5,950.5,953.5,953.5,956,959,959,959,962,962,965,968.5,971.5,971.5,974.5,971.5,971.5,974.5,974.5,971.5,971.5,971.5,971.5,971.5,971.5,971.5,971.5,971.5,968.5,968.5,968.5,968.5,968.5,965,965,965
0,0,0,0,0,0,0,0,0,0,0,0,0,0,0,0,956,956,953.5,950.5,953.5,950.5,947.5,947.5,947.5,947.5,953.5,956,959,959,962,965,968.5,971.5,971.5,1825,1830,1832,1845,1852,1849,1851.5,1851,1851,1854,971.5,968.5,962,962,959,959,956,959,959,959,1878,1878,1884,1884,1884,1881,1880.5,1878,1878,1875,1875,1872,1872,1869.5,1866.5,1869,1863.5,1863.5,1860.5,1857.5,1857.5,1857.5,1852,1849.5,1842,1836.5,1837,1834.5,1835,1838,1838,1838,1846,1853.5,1856.5,1859,1862,1867.5,1864.5,1870.5,1878.5,1881.5,1881.5,1884,1887,1886.5,1886.5,1886.5,959,959,959,959,1878,1872.5,1870,1867.5,1867.5,1862.5,1860,1855,1850,1845.5,1843,1844,1844,1846,1851,1854,1859,1869,971.5,971.5,971.5,971.5,971.5,971.5,971.5,968.5,968.5,968.5,968.5,968.5,968.5,968.5,968.5,971.5,971.5,974.5,974.5,977.5,977.5,977.5,977.5,977.5,977.5,977.5,977.5,974.5,974.5,974.5,977.5,977.5,977.5,977.5,980.5,980.5,980.5,980.5,983.5,983.5,980.5,980.5,977.5,974.5,971.5,971.5,968.5,962,962,959,959,956,956,953.5,953.5,953.5,953.5,953.5,953.5,953.5,956,959,959,959,959,962,962,962,962,962,962,962,962,962,962,962,962,965,965,965,968.5,968.5,971.5,971.5,971.5,971.5,971.5,974.5,974.5,974.5,977.5,977.5,977.5,977.5,980.5,980.5,980.5,980.5,987,987,990,990,990,990,990,990,990,990,987,983.5,983.5,980.5,977.5,977.5,974.5,974.5,971.5,971.5,971.5,968.5,971.5,971.5,971.5,971.5,971.5,971.5,971.5,971.5,968.5,968.5,968.5,968.5,965,965,962,962,962,962,962,959,959,959,959,962,962,962,962,962,965,965,965,968.5,965,965,965,965,965,962,959,959,959,956,956,956,962,962,965,968.5,968.5,971.5,971.5,974.5,971.5,971.5,971.5,971.5,971.5,971.5,971.5,971.5,971.5,971.5,971.5,968.5,968.5,968.5,968.5,968.5,968.5,968.5,968.5,968.5,968.5,968.5,971.5,974.5,971.5,974.5,974.5,977.5,980.5,983.5,983.5,983.5,983.5,983.5,987,983.5,983.5,983.5,980.5,980.5,977.5,974.5,974.5,974.5,1930.5,1925,1916,1913,1904.5,968.5,968.5,968.5,968.5,965,962,962,962,965,962,962,962,962,962,965,965,1863.5,1864,1867,1873,1878.5,1878.5,1879.5,987,987,987,983.5,983.5,977.5,977.5,974.5,971.5,968.5,968.5,965,962,962,962,962,962,962,962,962,962,962,959,959,962,962,962,962,962,962,962,959,959,956,956,956,956,956,953.5,950.5,950.5,950.5,950.5,947.5,947.5,947.5,947.5,947.5,947.5,950.5,950.5,953.5,956,959,959,962,965,965,965,962,965,965,968.5,971.5,974.5,977.5,980.5,983.5,983.5,987,987,987,983.5,983.5,980.5,980.5,977.5,974.5,977.5,974.5,971.5,971.5,968.5,968.5,965,968.5,968.5,965,965,968.5,965,968.5,968.5,968.5,968.5,968.5,971.5,971.5,971.5,968.5,968.5,965,965,962,962,962,962,959,959,962,962,962,959,959,959,959,959,959,956,956,956,956,956,956,959,962,965,971.5,971.5,977.5,977.5,977.5,977.5,974.5,974.5,971.5,968.5,965,962,962,962,959,956,953.5,953.5,950.5,950.5,950.5,950.5,950.5,950.5,950.5,953.5,953.5,953.5,950.5,950.5,947.5,944.5,944.5,944.5,941.5,938.5,936,936,933,933,930,930,927.5,927.5,930,930,930,930,933,936,938.5,941.5,941.5,941.5,941.5,944.5,944.5,941.5,941.5,941.5,938.5,938.5,941.5,941.5,941.5,944.5,944.5,944.5,944.5,944.5,944.5,947.5,947.5,950.5,950.5,950.5,953.5,956,959,959,962,962,962,2414.5,2414.5,2411.5,2411.5,2411.5,2411.5,956,956,953.5,950.5,950.5,947.5,950.5,947.5,947.5,947.5,947.5,947.5,950.5,953.5,953.5,953.5,956,959,962,962,965,965,968.5,968.5,968.5,968.5,968.5,968.5,968.5,968.5,968.5,968.5,968.5,971.5,968.5,971.5,971.5,971.5,971.5,971.5,971.5,971.5,971.5,968.5,968.5
0,0,0,0,0,0,0,0,0,0,0,0,0,0,0,0,959,953.5,953.5,953.5,950.5,950.5,947.5,947.5,947.5,947.5,950.5,953.5,959,959,962,965,968.5,971.5,974.5,1854,1859.5,1862,1870,1875,1869.5,1877.5,1874.5,1877,1874.5,1872,968.5,962,962,962,959,959,959,959,1878,1878,1878,1878,1878,1878,1875,1875.5,1872.5,1872.5,1869.5,1866.5,1863.5,1866.5,1863.5,1863.5,1863.5,1863.5,1860.5,1857.5,1857.5,1852.5,1852.5,1847,1839,1831,1823.5,1818.5,1818,1816,1816,1824,1827,1835,1843,1851,1856.5,1861.5,1867,1867,1870,1872.5,1872.5,1872.5,1875.5,1878,1881,1881,1880.5,1880.5,1880.5,1880.5,1878,1878,1872.5,1869.5,1867,1870,1864.5,1862.5,1857,1855,1850,1851,1848,1851,1856,1858.5,1863.5,1871.5,1879.5,1890.5,968.5,968.5,968.5,968.5,968.5,968.5,968.5,968.5,968.5,968.5,971.5,971.5,971.5,971.5,971.5,974.5,977.5,977.5,977.5,977.5,977.5,977.5,977.5,977.5,977.5,977.5,977.5,974.5,974.5,977.5,977.5,977.5,980.5,980.5,980.5,980.5,980.5,983.5,980.5,980.5,980.5,977.5,974.5,974.5,971.5,968.5,965,962,962,962,962,959,959,956,956,956,959,959,959,959,959,959,959,959,962,962,962,962,962,962,959,959,959,959,962,962,965,965,965,968.5,968.5,968.5,968.5,971.5,971.5,971.5,971.5,971.5,971.5,971.5,974.5,974.5,977.5,977.5,977.5,977.5,980.5,980.5,983.5,983.5,987,987,987,987,987,987,983.5,983.5,980.5,980.5,977.5,974.5,974.5,974.5,974.5,968.5,968.5,968.5,968.5,968.5,971.5,971.5,971.5,971.5,968.5,971.5,971.5,968.5,968.5,968.5,968.5,968.5,968.5,965,965,965,965,965,962,962,962,962,965,965,965,965,965,965,965,968.5,968.5,968.5,968.5,965,965,965,962,959,959,959,956,956,959,962,962,965,968.5,968.5,971.5,971.5,974.5,971.5,971.5,968.5,968.5,968.5,968.5,968.5,968.5,968.5,968.5,968.5,968.5,968.5,968.5,968.5,968.5,965,965,968.5,968.5,968.5,968.5,971.5,974.5,974.5,974.5,977.5,977.5,980.5,983.5,983.5,983.5,983.5,987,987,983.5,983.5,983.5,980.5,980.5,980.5,977.5,974.5,974.5,974.5,974.5,974.5,971.5,971.5,968.5,968.5,968.5,968.5,968.5,965,965,965,965,962,962,962,965,965,968.5,968.5,968.5,971.5,1862.5,1865.5,1874.5,987,987,987,987,987,983.5,980.5,977.5,974.5,971.5,971.5,968.5,965,962,962,962,962,962,962,962,959,959,959,959,959,956,956,959,959,962,959,959,959,959,959,956,956,956,953.5,953.5,953.5,950.5,950.5,950.5,950.5,950.5,947.5,947.5,947.5,947.5,950.5,950.5,953.5,956,956,959,959,962,965,965,965,962,962,962,965,968.5,974.5,977.5,977.5,980.5,983.5,983.5,987,983.5,987,980.5,980.5,980.5,977.5,980.5,977.5,977.5,974.5,971.5,968.5,965,965,965,965,962,962,965,965,965,965,965,965,965,965,968.5,968.5,968.5,965,962,962,959,959,959,956,956,956,959,959,959,959,959,959,956,956,956,956,953.5,953.5,953.5,956,956,959,962,965,968.5,971.5,977.5,977.5,977.5,977.5,974.5,974.5,974.5,971.5,968.5,965,965,962,962,959,956,953.5,953.5,950.5,950.5,950.5,950.5,950.5,950.5,950.5,950.5,950.5,950.5,947.5,947.5,947.5,944.5,944.5,941.5,941.5,938.5,938.5,936,936,933,933,930,930,933,933,933,936,936,938.5,941.5,944.5,944.5,944.5,944.5,944.5,944.5,947.5,944.5,944.5,941.5,941.5,941.5,944.5,944.5,947.5,947.5,950.5,950.5,950.5,950.5,950.5,953.5,953.5,953.5,953.5,953.5,956,962,962,962,962,962,2407.5,2407.5,2407.5,2404.5,2404.5,2404.5,956,956,953.5,950.5,950.5,947.5,947.5,944.5,944.5,944.5,944.5,944.5,947.5,947.5,947.5,950.5,953.5,953.5,956,956,962,962,965,965,965,965,968.5,968.5,965,968.5,968.5,968.5,968.5,968.5,968.5,971.5,971.5,971.5,971.5,971.5,974.5,971.5,971.5,971.5,971.5
0,0,0,0,0,0,0,0,0,0,0,0,0,0,0,0,0,953.5,953.5,953.5,950.5,947.5,947.5,947.5,947.5,947.5,950.5,953.5,959,959,962,968.5,971.5,971.5,977.5,1952,1952,1946,1942.5,1939.5,1925,1922,1913,971.5,1890.5,1879.5,1871.5,1870.5,962,962,1886.5,1883.5,1884,1884,1878,1881,1878,1878,1878,1878,1875,1869.5,1866.5,1869.5,1866.5,1863.5,1860.5,1863.5,1860.5,1860.5,1860.5,1860.5,1860.5,1857.5,1855,1855,1849.5,1841.5,1830.5,1823,933,1807.5,1800.5,1798.5,1803.5,1806,1811,1821,1832,1842.5,1850.5,1856,1864.5,1861.5,1864.5,1867,1869.5,1869.5,1872.5,1872.5,1875.5,1878,1878,1881,1878,1881,1875,1875,1869.5,1869.5,1870,1867,1864.5,1862,1862.5,1857,1854.5,1852.5,1856,1858.5,1861,1866,1868,1876,1884,1895,1909.5,1912.5,962,962,965,965,965,965,968.5,968.5,971.5,971.5,974.5,974.5,974.5,977.5,977.5,977.5,980.5,980.5,980.5,980.5,980.5,977.5,977.5,977.5,977.5,977.5,977.5,977.5,977.5,980.5,980.5,980.5,980.5,980.5,980.5,980.5,980.5,980.5,980.5,977.5,977.5,974.5,974.5,971.5,968.5,968.5,965,965,965,962,962,962,962,962,962,959,959,959,959,959,959,959,959,959,959,962,962,959,959,959,959,959,962,962,965,965,965,968.5,965,968.5,968.5,968.5,968.5,968.5,968.5,968.5,971.5,971.5,974.5,974.5,974.5,974.5,974.5,977.5,980.5,980.5,983.5,983.5,983.5,983.5,983.5,983.5,983.5,980.5,980.5,980.5,977.5,977.5,974.5,974.5,971.5,971.5,971.5,968.5,965,965,965,965,968.5,968.5,968.5,968.5,968.5,971.5,971.5,968.5,968.5,971.5,971.5,971.5,968.5,968.5,968.5,968.5,968.5,968.5,968.5,968.5,968.5,968.5,971.5,971.5,971.5,971.5,971.5,968.5,968.5,971.5,971.5,968.5,968.5,968.5,965,965,965,962,962,959,959,959,962,962,965,965,968.5,968.5,971.5,971.5,971.5,971.5,971.5,968.5,968.5,965,965,965,965,965,965,968.5,965,965,965,965,965,965,968.5,968.5,968.5,968.5,968.5,974.5,974.5,974.5,974.5,977.5,977.5,980.5,983.5,983.5,983.5,983.5,983.5,983.5,983.5,983.5,980.5,980.5,977.5,977.5,974.5,977.5,977.5,974.5,974.5,974.5,971.5,971.5,968.5,968.5,968.5,968.5,968.5,965,965,968.5,968.5,965,965,965,965,968.5,968.5,971.5,971.5,974.5,980.5,983.5,983.5,987,987,987,987,983.5,983.5,980.5,977.5,974.5,971.5,971.5,968.5,965,962,962,962,962,962,962,962,959,959,959,956,956,956,956,956,956,959,959,959,959,959,959,956,956,953.5,953.5,953.5,953.5,950.5,950.5,950.5,950.5,950.5,947.5,950.5,950.5,950.5,953.5,953.5,956,959,959,959,962,962,965,965,965,965,962,962,965,968.5,971.5,974.5,974.5,977.5,977.5,980.5,983.5,983.5,980.5,980.5,980.5,980.5,980.5,977.5,977.5,977.5,974.5,971.5,968.5,965,962,965,962,962,962,962,959,959,962,962,962,965,965,965,965,965,962,959,959,956,953.5,953.5,953.5,950.5,953.5,956,956,956,956,959,959,959,956,956,956,953.5,950.5,953.5,956,956,959,962,965,968.5,971.5,974.5,977.5,977.5,974.5,974.5,974.5,974.5,971.5,971.5,971.5,965,965,962,962,959,956,953.5,953.5,950.5,950.5,950.5,950.5,950.5,950.5,950.5,950.5,950.5,950.5,947.5,947.5,947.5,947.5,944.5,944.5,944.5,941.5,941.5,941.5,938.5,936,936,936,938.5,938.5,938.5,941.5,941.5,941.5,944.5,947.5,947.5,947.5,947.5,950.5,950.5,950.5,950.5,947.5,944.5,944.5,947.5,950.5,950.5,953.5,953.5,956,956,956,956,956,956,959,956,956,956,959,962,962,962,962,962,962,962,2407.5,2407.5,2404.5,959,956,956,953.5,950.5,950.5,947.5,947.5,944.5,944.5,944.5,944.5,944.5,944.5,944.5,947.5,947.5,947.5,950.5,953.5,956,959,959,962,962,965,965,965,965,965,965,965,965,968.5,968.5,968.5,968.5,971.5,971.5,971.5,971.5,971.5,971.5,971.5,971.5,971.5
0,0,0,0,0,0,0,0,0,0,0,0,0,0,0,0,0,956,953.5,953.5,953.5,947.5,947.5,947.5,947.5,947.5,953.5,956,959,962,965,968.5,971.5,977.5,977.5,977.5,2010.5,2004,1997,1987,1977.5,1961.5,971.5,971.5,971.5,1904.5,1879.5,1884,962,1898,1895,1895,1892,1889.5,1883.5,1881,1884,1881,1875.5,1872.5,1870,1867,1866.5,1863.5,1863.5,1857.5,1855,1860.5,1860.5,1860.5,1860.5,1858,1858,1858,1852,1852,1846.5,1838.5,1827.5,1817.5,1807,1800,1795,1787.5,1793,1798,1803,936,1823.5,1836.5,1847.5,1850,1858.5,1858.5,1864,1867,1867,1870,1869.5,1869.5,1872.5,1875,1872,1875,1875,1875,1875,1872,1869.5,1866.5,1869.5,1870,1864.5,1864.5,1864.5,1862.5,1859.5,1857,1860,1862.5,1862.5,1867.5,1873,1878.5,1886.5,1895,1909.5,1915.5,1915.5,959,959,962,1900.5,1898,1895,1893,968.5,971.5,974.5,974.5,974.5,977.5,977.5,980.5,980.5,980.5,980.5,980.5,980.5,980.5,977.5,977.5,977.5,977.5,977.5,977.5,977.5,977.5,977.5,980.5,980.5,980.5,980.5,980.5,980.5,980.5,980.5,980.5,977.5,977.5,974.5,974.5,974.5,971.5,971.5,968.5,968.5,968.5,968.5,968.5,968.5,965,965,965,965,962,962,962,959,959,959,959,959,959,959,959,959,959,959,959,962,962,965,965,965,965,965,968.5,968.5,968.5,968.5,968.5,968.5,968.5,968.5,971.5,971.5,971.5,971.5,971.5,974.5,974.5,977.5,980.5,980.5,980.5,980.5,980.5,980.5,980.5,980.5,980.5,980.5,977.5,977.5,977.5,974.5,974.5,971.5,971.5,968.5,965,965,965,965,965,965,965,965,968.5,968.5,971.5,971.5,971.5,971.5,974.5,974.5,971.5,974.5,971.5,971.5,974.5,974.5,974.5,974.5,974.5,974.5,974.5,974.5,974.5,974.5,974.5,974.5,971.5,971.5,971.5,971.5,971.5,968.5,968.5,968.5,965,965,965,962,962,962,962,962,965,965,968.5,968.5,968.5,971.5,971.5,971.5,971.5,968.5,968.5,965,965,965,962,962,962,962,965,965,965,965,965,965,968.5,968.5,968.5,968.5,968.5,971.5,974.5,974.5,974.5,974.5,977.5,977.5,980.5,983.5,983.5,983.5,983.5,983.5,983.5,980.5,980.5,980.5,977.5,977.5,974.5,974.5,974.5,1930.5,1925,1919,1913,1904.5,971.5,968.5,968.5,968.5,968.5,968.5,968.5,968.5,968.5,968.5,968.5,968.5,968.5,968.5,971.5,971.5,971.5,971.5,1850,1855,983.5,983.5,983.5,983.5,983.5,983.5,983.5,980.5,980.5,977.5,971.5,971.5,968.5,968.5,965,962,962,962,962,962,959,959,956,959,959,956,956,956,956,956,956,959,959,959,959,959,959,959,956,956,953.5,953.5,953.5,950.5,950.5,950.5,950.5,950.5,950.5,950.5,950.5,953.5,953.5,959,959,959,962,965,965,965,968.5,968.5,968.5,965,965,962,965,968.5,968.5,971.5,974.5,974.5,977.5,980.5,980.5,980.5,980.5,980.5,980.5,980.5,980.5,980.5,977.5,977.5,974.5,971.5,968.5,965,962,962,962,959,959,959,956,959,959,959,959,959,962,962,962,962,959,959,956,953.5,950.5,950.5,950.5,947.5,947.5,950.5,950.5,956,956,956,956,956,956,956,956,953.5,950.5,953.5,956,956,959,962,965,968.5,971.5,974.5,974.5,974.5,974.5,974.5,974.5,974.5,971.5,971.5,971.5,968.5,965,965,962,962,959,956,956,956,953.5,953.5,953.5,950.5,950.5,953.5,950.5,950.5,950.5,950.5,950.5,950.5,950.5,950.5,950.5,947.5,947.5,944.5,944.5,944.5,941.5,941.5,941.5,944.5,944.5,944.5,947.5,947.5,947.5,950.5,950.5,953.5,953.5,953.5,953.5,956,956,956,953.5,953.5,953.5,956,956,956,959,959,962,962,962,962,962,962,962,962,962,959,962,962,962,962,962,962,962,962,962,962,962,959,959,956,953.5,953.5,947.5,947.5,944.5,944.5,941.5,944.5,944.5,944.5,944.5,944.5,947.5,947.5,947.5,950.5,953.5,953.5,956,959,959,962,962,965,965,965,965,965,968.5,968.5,968.5,968.5,968.5,971.5,971.5,971.5,971.5,971.5,974.5,974.5,974.5,974.5,974.5
0,0,0,0,0,0,0,0,0,0,0,0,0,0,0,0,959,956,953.5,950.5,950.5,950.5,947.5,947.5,947.5,950.5,953.5,959,962,965,968.5,971.5,974.5,977.5,977.5,977.5,977.5,2039,2035.5,2025.5,2018,1998,971.5,971.5,968.5,1933.5,968.5,965,965,965,1898,1901,1895,1892.5,1886.5,1886.5,1887,1881,959,1867,1864.5,1861,1858,1858,1858,1852.5,1849.5,1852,1858,1858,1858,1858,1858,1855,1852,1846.5,1841,1833,1822.5,1812.5,1799,1792,1787,1782,1787.5,1792.5,1797.5,1804.5,1815,1831,1839,1847,1855.5,1855.5,1858,1861,1861,1861,1866.5,1866.5,1866.5,1866,1866,1869,1869,1869,1869,1869,1869,1869,1866.5,1869.5,1864,1867,1862,1861.5,1862,1859.5,1865,1865,1870.5,1873,1878,1881,1889,1894.5,1906.5,1909.5,1909.5,1906.5,1903.5,959,1897.5,1898,1895,1892.5,1896,1896,974.5,974.5,974.5,977.5,977.5,980.5,980.5,980.5,980.5,980.5,980.5,977.5,977.5,977.5,977.5,977.5,977.5,977.5,977.5,977.5,977.5,977.5,977.5,980.5,980.5,980.5,980.5,980.5,980.5,980.5,980.5,980.5,977.5,977.5,977.5,974.5,974.5,974.5,974.5,974.5,971.5,971.5,971.5,971.5,968.5,968.5,965,965,962,962,962,959,959,956,956,956,956,956,956,956,956,962,962,962,965,965,965,965,965,968.5,968.5,968.5,968.5,968.5,968.5,968.5,968.5,968.5,971.5,971.5,971.5,971.5,971.5,974.5,974.5,974.5,977.5,977.5,977.5,977.5,977.5,977.5,977.5,977.5,977.5,977.5,974.5,974.5,974.5,971.5,971.5,968.5,968.5,965,965,965,965,965,965,965,968.5,971.5,971.5,971.5,974.5,974.5,974.5,974.5,977.5,977.5,977.5,974.5,974.5,977.5,977.5,977.5,977.5,977.5,977.5,980.5,980.5,980.5,980.5,980.5,977.5,977.5,977.5,977.5,974.5,971.5,971.5,971.5,968.5,968.5,968.5,965,965,965,965,965,965,968.5,968.5,968.5,971.5,971.5,974.5,974.5,971.5,971.5,968.5,968.5,965,962,962,962,962,962,962,965,965,965,965,965,968.5,968.5,968.5,971.5,971.5,971.5,971.5,974.5,974.5,974.5,974.5,977.5,977.5,977.5,980.5,983.5,983.5,980.5,980.5,980.5,980.5,977.5,1967.5,974.5,1952,1949,1943,1936.5,1928,1922,1916,1907.5,1904.5,1899,1893,1887.5,1885,968.5,1879.5,1877,1871.5,1869,968.5,968.5,968.5,968.5,971.5,971.5,1829,1829,1831.5,1839.5,1845,1850.5,1856,1858,1857.5,980.5,980.5,980.5,980.5,977.5,974.5,971.5,968.5,968.5,968.5,965,962,962,962,962,962,959,959,956,956,956,956,956,956,956,956,959,959,959,959,959,959,959,959,959,956,956,956,953.5,953.5,953.5,953.5,953.5,950.5,950.5,953.5,956,956,959,959,962,965,965,968.5,968.5,968.5,968.5,968.5,968.5,965,965,965,965,968.5,968.5,971.5,974.5,974.5,977.5,977.5,977.5,977.5,977.5,977.5,977.5,980.5,980.5,977.5,977.5,977.5,974.5,971.5,968.5,965,962,962,962,959,956,956,953.5,953.5,953.5,956,956,956,956,959,959,959,956,953.5,953.5,950.5,950.5,947.5,944.5,944.5,947.5,947.5,950.5,953.5,953.5,956,956,956,956,956,956,956,953.5,953.5,956,956,959,962,962,965,968.5,971.5,971.5,971.5,971.5,971.5,971.5,971.5,971.5,971.5,971.5,968.5,968.5,968.5,962,962,962,959,959,959,956,956,953.5,953.5,953.5,956,953.5,953.5,953.5,953.5,953.5,953.5,953.5,953.5,953.5,953.5,953.5,950.5,950.5,950.5,950.5,950.5,950.5,953.5,953.5,953.5,953.5,953.5,953.5,956,959,959,959,959,959,959,962,959,959,959,962,962,962,962,965,968.5,968.5,968.5,968.5,965,965,965,965,962,962,962,962,962,962,962,962,962,965,965,965,962,962,962,959,956,956,953.5,950.5,947.5,944.5,944.5,941.5,941.5,941.5,941.5,941.5,944.5,944.5,947.5,947.5,950.5,953.5,953.5,956,956,959,962,962,965,965,965,965,968.5,968.5,968.5,968.5,968.5,968.5,971.5,971.5,971.5,971.5,971.5,971.5,971.5,974.5,974.5,974.5
0,0,0,0,0,0,0,0,0,0,0,0,0,0,0,0,962,959,956,953.5,953.5,950.5,950.5,950.5,950.5,953.5,956,962,965,968.5,971.5,974.5,977.5,980.5,980.5,980.5,980.5,977.5,977.5,2066.5,2052,2033,2019.5,1998.5,968.5,1955.5,968.5,965,965,965,968.5,1901,1898,1892.5,1886.5,1886.5,1884,1878.5,1867,1859,1859,1853,1849.5,1849.5,1852,1847,1843.5,1849.5,1852,1852,1855,1855,1855,1852,1852,1846.5,1841,1830.5,1822.5,1807,1796.5,1786.5,1781.5,1776.5,1779,1781.5,1794.5,1799,1812,1822.5,1830.5,1844.5,1849.5,1849.5,1855,1855,1855,1855,1855,1857.5,1860.5,1860.5,1860.5,1863.5,1863.5,1866,1866,1868.5,1866,1866,1869,1869,1869,1869.5,1869.5,1872.5,1872.5,1869.5,1872.5,1875.5,1881,1883.5,1886.5,1889,1894.5,1900.5,1909.5,1909.5,1907,1904,1901,1898,1894.5,1895,1895,1892,965,968.5,971.5,974.5,974.5,977.5,977.5,977.5,977.5,980.5,980.5,977.5,977.5,977.5,977.5,977.5,977.5,974.5,974.5,974.5,977.5,977.5,977.5,977.5,977.5,980.5,980.5,980.5,980.5,983.5,980.5,980.5,980.5,980.5,980.5,980.5,980.5,980.5,980.5,980.5,980.5,980.5,977.5,977.5,977.5,974.5,974.5,971.5,968.5,965,965,962,962,959,956,953.5,953.5,956,956,956,956,956,956,959,962,962,962,965,965,965,965,965,968.5,968.5,968.5,968.5,968.5,968.5,965,968.5,968.5,968.5,968.5,971.5,971.5,971.5,971.5,971.5,974.5,974.5,974.5,974.5,974.5,974.5,977.5,977.5,977.5,977.5,974.5,974.5,974.5,971.5,971.5,968.5,968.5,965,965,962,965,965,965,968.5,968.5,971.5,971.5,971.5,974.5,974.5,977.5,977.5,977.5,977.5,980.5,980.5,980.5,980.5,980.5,980.5,980.5,980.5,983.5,983.5,987,987,987,983.5,983.5,983.5,980.5,977.5,977.5,977.5,974.5,974.5,971.5,971.5,971.5,968.5,968.5,968.5,965,968.5,968.5,971.5,971.5,974.5,974.5,974.5,974.5,974.5,974.5,974.5,971.5,968.5,968.5,965,965,962,962,962,962,965,965,965,968.5,968.5,968.5,971.5,971.5,971.5,974.5,974.5,974.5,974.5,974.5,974.5,974.5,977.5,977.5,977.5,977.5,977.5,977.5,977.5,977.5,977.5,974.5,974.5,1967.5,1961.5,1952,1949,1943,1936.5,1930.5,1922,1916,1913,1907.5,1898.5,1893,1890.5,1881.5,1881.5,1882,1879.5,1877,1871.5,1866,1858.5,1851,1846,1839,1831.5,1829,1827,1832,1834.5,1840,1842.5,1842.5,1845,1850,1852,977.5,977.5,977.5,974.5,971.5,968.5,968.5,968.5,968.5,965,965,962,962,962,959,959,956,956,956,956,956,956,956,956,959,962,962,962,962,965,965,965,965,962,962,959,959,959,956,953.5,956,956,956,953.5,956,956,959,962,962,965,968.5,968.5,971.5,971.5,971.5,971.5,971.5,968.5,968.5,965,965,968.5,968.5,968.5,971.5,971.5,971.5,974.5,974.5,977.5,977.5,977.5,977.5,977.5,980.5,980.5,977.5,977.5,977.5,974.5,971.5,971.5,965,965,962,962,956,956,953.5,950.5,950.5,950.5,950.5,950.5,953.5,953.5,953.5,956,956,953.5,953.5,950.5,947.5,947.5,944.5,944.5,944.5,944.5,947.5,950.5,953.5,953.5,956,956,959,959,959,959,956,956,956,956,956,962,962,962,965,968.5,968.5,968.5,971.5,971.5,971.5,971.5,971.5,971.5,971.5,971.5,968.5,968.5,968.5,965,962,962,962,962,959,959,959,959,956,956,959,956,956,956,956,956,959,956,959,959,959,959,956,956,956,956,956,959,959,959,959,959,959,959,959,959,959,962,962,965,965,965,965,965,965,965,968.5,968.5,971.5,971.5,974.5,974.5,974.5,971.5,971.5,971.5,971.5,968.5,968.5,965,962,965,965,965,962,965,965,965,968.5,965,965,962,962,962,959,956,953.5,953.5,950.5,947.5,944.5,944.5,944.5,944.5,944.5,944.5,944.5,947.5,947.5,950.5,950.5,953.5,953.5,956,962,962,962,965,965,965,965,968.5,968.5,968.5,968.5,968.5,968.5,971.5,971.5,971.5,971.5,971.5,971.5,971.5,971.5,974.5,977.5,977.5
0,0,0,0,0,0,0,0,0,0,0,0,0,0,0,0,962,956,956,956,956,953.5,950.5,950.5,953.5,956,959,965,968.5,971.5,974.5,977.5,980.5,980.5,980.5,2125,2121,2105.5,2098,2098,2087,2061,965,965,965,965,965,965,965,965,965,1903.5,1903.5,1898,1886.5,1883.5,1881,1872.5,1862,1853,1847.5,1841.5,1841.5,1844.5,1844.5,1838.5,1838.5,1846.5,1846.5,1849,1852,1852,1852,1852,1846.5,1841,1838.5,1828,1817,1807,1793.5,1786.5,1779,1776.5,1776.5,1781.5,1789,1798.5,1806.5,1817,1830.5,1833,1844,1844,1847,1849.5,1849.5,1846.5,1849.5,1852,1852,1852,1854.5,1854.5,1857.5,1857.5,1860.5,1863,1863,1863,1866,1868.5,1871.5,1872,1875,1878,1875,1878,1881,1886,1886.5,1889.5,1894.5,1895,1898,1904,1904,1906.5,1904,1898,1895,1895,1892,1889.5,1892,1895,1892,1895,1901.5,1904.5,1910.5,1913.5,1916,1916,1916,1919,1922,977.5,977.5,977.5,1925,1925,974.5,974.5,974.5,974.5,974.5,974.5,977.5,977.5,977.5,980.5,980.5,980.5,980.5,983.5,983.5,980.5,980.5,983.5,980.5,983.5,983.5,983.5,983.5,983.5,987,987,983.5,983.5,983.5,980.5,977.5,974.5,971.5,968.5,965,962,959,959,956,953.5,953.5,956,956,956,956,956,956,959,962,962,962,965,965,965,965,965,968.5,968.5,968.5,968.5,968.5,965,965,965,968.5,968.5,968.5,968.5,968.5,971.5,971.5,971.5,971.5,971.5,971.5,971.5,971.5,974.5,974.5,974.5,974.5,974.5,974.5,974.5,974.5,971.5,971.5,968.5,968.5,965,965,965,965,965,965,965,968.5,968.5,971.5,974.5,974.5,974.5,977.5,977.5,977.5,980.5,980.5,980.5,980.5,983.5,983.5,983.5,987,987,987,987,990,990,990,987,987,987,983.5,983.5,980.5,977.5,977.5,977.5,974.5,974.5,971.5,971.5,971.5,971.5,971.5,971.5,971.5,974.5,974.5,974.5,977.5,977.5,977.5,974.5,974.5,974.5,971.5,971.5,968.5,968.5,965,965,962,965,965,965,968.5,968.5,968.5,971.5,971.5,974.5,974.5,977.5,977.5,974.5,974.5,974.5,974.5,974.5,974.5,974.5,974.5,971.5,974.5,974.5,974.5,974.5,974.5,974.5,971.5,1971.5,1965,1958.5,1952,1949,1943,1933.5,1930.5,1922,1916,1913,1907,1901.5,1892.5,1889.5,1884,1884,1887,1896,1896,1904.5,1904.5,1910,1910,1913,1907.5,1902,1896.5,1890.5,1893.5,1888,1894,1894,1896.5,1893.5,1904.5,974.5,974.5,974.5,971.5,971.5,968.5,968.5,968.5,968.5,968.5,965,965,962,962,962,959,959,956,956,956,959,959,956,956,959,959,962,962,965,968.5,965,965,965,965,965,965,965,962,959,959,956,956,956,956,956,956,959,962,962,965,965,968.5,968.5,971.5,971.5,971.5,971.5,971.5,971.5,971.5,971.5,968.5,971.5,968.5,971.5,971.5,971.5,971.5,971.5,974.5,971.5,974.5,974.5,974.5,974.5,980.5,980.5,977.5,977.5,977.5,974.5,974.5,971.5,968.5,965,965,962,959,956,953.5,950.5,950.5,947.5,947.5,950.5,950.5,950.5,950.5,953.5,953.5,950.5,950.5,947.5,944.5,944.5,944.5,944.5,944.5,944.5,947.5,950.5,953.5,953.5,956,959,962,959,959,959,959,959,959,959,959,962,962,962,965,965,968.5,968.5,968.5,968.5,971.5,971.5,971.5,971.5,971.5,971.5,968.5,968.5,965,965,962,962,962,962,962,962,959,959,959,959,962,959,959,959,959,959,962,959,959,959,959,959,959,959,959,959,959,959,962,962,962,962,962,962,962,965,965,965,965,968.5,971.5,971.5,971.5,971.5,971.5,974.5,974.5,977.5,977.5,977.5,980.5,980.5,980.5,977.5,977.5,977.5,974.5,974.5,968.5,968.5,965,965,965,965,962,965,965,965,965,965,965,965,962,962,959,959,956,953.5,950.5,950.5,947.5,947.5,947.5,947.5,947.5,947.5,947.5,947.5,950.5,953.5,953.5,959,959,962,962,962,965,968.5,968.5,971.5,971.5,971.5,971.5,971.5,971.5,971.5,971.5,971.5,971.5,971.5,971.5,971.5,971.5,971.5,971.5,974.5,974.5,977.5
0,0,0,0,0,0,0,0,0,0,0,0,0,0,0,0,0,956,953.5,956,956,953.5,953.5,953.5,956,959,962,968.5,971.5,971.5,977.5,977.5,980.5,980.5,980.5,2139.5,2135,2123.5,2116,2116,2101,2084.5,962,962,2050,965,962,962,962,965,965,1912.5,1903.5,1898,1889,1883.5,1880.5,1872.5,1853.5,1845,1842,1836.5,1836,1836,1835.5,1833,1833,1838.5,1841,1846.5,1846.5,1846.5,1849.5,1846.5,1843.5,1838.5,1836,1828,1819.5,1807,1796,1789,1781.5,1779,1779,1784,1789,1796,1804,1811.5,1822.5,1830,1838.5,1841,1841,1841,1838.5,1841,1844,1846.5,1846.5,1846.5,1846.5,1846.5,1849,1855,1855,1860,1857.5,1857.5,1860.5,1866,1868.5,1868.5,1871.5,1874.5,1877.5,1880.5,1886.5,1886.5,1889,1892,1895,1898,1901,1904,1904,1901,1901,1898,1895,1892,1892,1889.5,1892,1892,1895,1895,1901.5,1904.5,1907.5,1910.5,1916,1916,977.5,977.5,977.5,977.5,977.5,977.5,977.5,974.5,974.5,974.5,974.5,974.5,974.5,974.5,974.5,974.5,977.5,977.5,980.5,980.5,980.5,980.5,980.5,980.5,983.5,983.5,983.5,983.5,987,987,987,987,990,990,990,990,987,987,983.5,980.5,974.5,971.5,968.5,968.5,962,959,959,956,956,956,956,956,956,959,959,959,962,962,962,965,968.5,968.5,968.5,968.5,968.5,968.5,968.5,965,965,965,965,965,965,965,965,968.5,968.5,968.5,968.5,968.5,968.5,968.5,968.5,968.5,968.5,971.5,971.5,971.5,971.5,974.5,974.5,974.5,974.5,971.5,971.5,968.5,968.5,968.5,965,965,965,965,965,968.5,968.5,968.5,971.5,971.5,974.5,974.5,977.5,977.5,977.5,980.5,980.5,980.5,983.5,983.5,983.5,987,987,987,990,990,993,993,993,990,990,990,987,983.5,983.5,983.5,980.5,977.5,977.5,977.5,977.5,974.5,974.5,974.5,974.5,974.5,977.5,977.5,977.5,980.5,980.5,980.5,977.5,977.5,977.5,977.5,974.5,974.5,971.5,968.5,968.5,968.5,968.5,968.5,968.5,968.5,971.5,971.5,974.5,974.5,977.5,977.5,980.5,980.5,980.5,977.5,977.5,977.5,977.5,974.5,971.5,971.5,971.5,971.5,971.5,971.5,971.5,971.5,968.5,968.5,968.5,1968,1964.5,1955,1952,1945.5,1939.5,1933.5,1927,1924.5,1919,1909.5,1906.5,1901,1895,1892.5,1884,1889.5,1898.5,1910,1919,1930.5,1939.5,1946,1946,1955,1958,1949,1939.5,1930.5,1927.5,1928,1922,974.5,1925,1925,971.5,971.5,968.5,968.5,968.5,968.5,968.5,968.5,968.5,968.5,968.5,965,962,962,962,962,959,959,956,956,956,959,959,959,959,962,962,965,965,968.5,971.5,971.5,971.5,971.5,971.5,971.5,968.5,965,965,962,962,959,956,956,956,956,956,956,962,962,962,965,968.5,968.5,971.5,971.5,971.5,971.5,971.5,971.5,971.5,971.5,971.5,971.5,971.5,971.5,971.5,971.5,971.5,974.5,974.5,971.5,974.5,974.5,974.5,974.5,977.5,977.5,977.5,977.5,977.5,974.5,974.5,971.5,968.5,968.5,965,962,959,956,950.5,947.5,947.5,944.5,944.5,944.5,944.5,947.5,947.5,947.5,950.5,950.5,947.5,947.5,947.5,944.5,944.5,944.5,944.5,944.5,947.5,947.5,953.5,956,959,962,962,962,962,962,962,962,962,962,962,962,962,962,962,965,965,965,968.5,968.5,968.5,968.5,968.5,968.5,971.5,971.5,968.5,965,965,962,962,962,962,962,962,962,962,962,962,962,962,959,959,959,959,959,962,962,962,962,962,962,962,962,962,965,965,965,965,965,965,965,965,965,965,965,965,968.5,971.5,971.5,971.5,974.5,977.5,977.5,980.5,980.5,980.5,983.5,983.5,983.5,983.5,983.5,983.5,983.5,980.5,980.5,977.5,974.5,971.5,968.5,965,965,965,965,962,965,965,965,965,965,965,965,962,962,962,959,956,956,953.5,950.5,950.5,947.5,947.5,947.5,950.5,950.5,950.5,950.5,953.5,956,959,959,962,962,965,968.5,968.5,971.5,971.5,971.5,971.5,974.5,974.5,974.5,974.5,971.5,971.5,971.5,971.5,971.5,971.5,971.5,971.5,971.5,974.5,974.5,977.5,977.5
0,0,0,0,0,0,0,0,0,0,0,0,0,0,0,0,0,956,956,956,956,953.5,953.5,956,959,962,965,971.5,971.5,974.5,977.5,980.5,980.5,980.5,980.5,980.5,2148,2136.5,2129,2124.5,2109.5,2094,2078.5,2070.5,2062.5,2043,962,962,959,959,959,1933.5,1921,1912.5,1898,1889.5,1886.5,953.5,1858.5,1844.5,1839,1830.5,1830.5,1833,1830.5,1825,1827.5,1833,1835.5,1838.5,1841,1843.5,1843.5,1843.5,1838.5,1836,1833,1828,1819.5,1809.5,1798.5,1789,1784,1781,1781,1783.5,1785.5,1793,1801,1809,1819.5,1825,1830.5,1833,1833,1835.5,1835.5,1835.5,1835.5,1838.5,1841,1841,1841,1841,1844,1846.5,1849,1852,1855,1855,1857.5,1863,1866,1868.5,1874.5,1874.5,1877.5,1877.5,1880.5,1886,1889,1892,1895,1898,1901,1901,1901,1901,1901,1895,1895,1889,1892,1889,1889,1894.5,1895,1898,1904.5,1904.5,1907.5,1910.5,1916,1916,1919,1919,1919,977.5,977.5,974.5,974.5,974.5,974.5,971.5,971.5,1916,971.5,971.5,971.5,971.5,971.5,974.5,977.5,977.5,980.5,980.5,980.5,980.5,983.5,983.5,987,987,987,987,990,990,990,990,990,990,990,987,987,980.5,977.5,974.5,971.5,968.5,965,962,959,959,959,959,959,959,959,959,962,962,962,965,965,968.5,968.5,968.5,968.5,968.5,968.5,968.5,968.5,965,965,965,965,965,965,965,965,965,968.5,968.5,968.5,968.5,968.5,968.5,968.5,968.5,968.5,968.5,968.5,968.5,971.5,971.5,971.5,971.5,971.5,971.5,971.5,971.5,968.5,968.5,965,965,965,965,965,968.5,968.5,968.5,971.5,971.5,971.5,974.5,977.5,977.5,977.5,980.5,980.5,983.5,983.5,987,987,987,990,990,993,993,993,993,993,993,993,990,990,990,987,983.5,983.5,980.5,980.5,977.5,977.5,977.5,977.5,977.5,977.5,977.5,977.5,980.5,980.5,980.5,980.5,980.5,980.5,980.5,980.5,977.5,974.5,974.5,974.5,971.5,971.5,971.5,971.5,971.5,971.5,971.5,974.5,977.5,977.5,977.5,980.5,983.5,983.5,983.5,983.5,980.5,980.5,980.5,977.5,974.5,974.5,971.5,968.5,968.5,968.5,968.5,968.5,965,965,965,962,1965,1961.5,1952,1949,1945.5,1939.5,1933.5,1927,1921,1918.5,1912.5,1906.5,1898,1895,1889.5,1889.5,1889.5,1901.5,1919,1933.5,1952,1955,1964.5,1967.5,1977,1983.5,1974,974.5,971.5,968.5,968.5,971.5,971.5,968.5,968.5,965,965,968.5,968.5,968.5,968.5,968.5,968.5,968.5,968.5,968.5,965,965,962,962,962,959,959,956,959,959,959,962,962,962,962,965,965,971.5,971.5,971.5,974.5,974.5,974.5,974.5,974.5,974.5,971.5,968.5,965,962,962,959,956,956,956,956,956,959,962,962,962,965,968.5,968.5,971.5,971.5,971.5,971.5,974.5,971.5,971.5,971.5,974.5,971.5,971.5,974.5,974.5,974.5,971.5,974.5,974.5,974.5,974.5,974.5,974.5,977.5,977.5,977.5,977.5,977.5,977.5,974.5,2829.5,971.5,968.5,965,962,959,953.5,950.5,947.5,944.5,941.5,938.5,941.5,941.5,944.5,944.5,947.5,947.5,947.5,947.5,947.5,947.5,947.5,947.5,947.5,944.5,947.5,950.5,950.5,953.5,956,959,962,962,965,965,962,962,962,962,962,962,962,962,962,962,962,965,965,965,968.5,968.5,965,965,965,968.5,968.5,968.5,965,965,962,962,962,962,962,962,962,962,962,962,962,962,959,959,959,959,959,959,962,962,962,965,965,965,965,968.5,968.5,968.5,968.5,968.5,965,965,965,965,962,962,965,968.5,968.5,971.5,971.5,974.5,977.5,977.5,980.5,983.5,983.5,983.5,983.5,983.5,983.5,987,987,983.5,983.5,983.5,983.5,980.5,980.5,974.5,971.5,971.5,968.5,965,965,962,965,965,965,965,965,965,965,965,962,962,959,959,956,956,953.5,950.5,950.5,950.5,953.5,953.5,953.5,953.5,956,956,959,962,965,965,965,971.5,971.5,974.5,974.5,974.5,977.5,977.5,977.5,974.5,974.5,974.5,974.5,974.5,971.5,971.5,971.5,971.5,971.5,971.5,971.5,971.5,974.5,977.5,980.5
0,0,0,0,0,0,0,0,0,0,0,0,0,0,0,0,956,956,953.5,956,953.5,953.5,956,956,962,965,971.5,971.5,974.5,977.5,980.5,980.5,983.5,983.5,980.5,980.5,2157,2149.5,2138,2126,2114,2094,2078.5,959,959,956,959,956,956,959,956,956,1933.5,1922,1904,1895,1892,1875,1855,1847,1839,1833.5,1825,1828,1828,1822.5,1825,1830.5,1833,1835.5,1838.5,1838.5,1838.5,1836,1833,1830,1827.5,1822,1814.5,1809.5,1801.5,1791,1786,1783.5,1783.5,1783,1785.5,1791,1798.5,1803.5,1811,1819.5,1824.5,1827.5,1830.5,1830.5,1827.5,1830,1830,1832.5,1835.5,1835.5,1833,1833,1835.5,1838,1844,1844,1849,1849,1855,1857.5,1863,1863,1866,1866,1871.5,1871.5,1877.5,1880,1883,1886,1889,1895,1895,1898,1898,1895,1892,1889,1886,1886,1889,1886,1889,1892,1894.5,1897.5,1900.5,1907,1907,1910,1916,1919,1919,1922,1922,1919,1922,1922,1919,1919,1916,1913,1913,1913,1910,1907,1904.5,1901.5,1901.5,1901.5,1904.5,1904.5,1907.5,977.5,980.5,980.5,983.5,983.5,987,987,990,990,990,990,993,990,990,990,990,990,987,983.5,980.5,977.5,974.5,974.5,968.5,965,965,962,962,962,962,962,962,962,962,962,965,965,965,968.5,968.5,968.5,968.5,968.5,968.5,968.5,968.5,965,965,965,965,965,965,965,965,965,965,965,965,965,965,965,965,965,965,968.5,968.5,968.5,968.5,971.5,971.5,971.5,971.5,971.5,971.5,968.5,968.5,968.5,965,965,965,965,965,968.5,968.5,968.5,971.5,971.5,971.5,974.5,977.5,977.5,977.5,980.5,980.5,983.5,983.5,987,987,987,990,990,993,996.5,996.5,996.5,996.5,993,993,990,990,990,987,983.5,983.5,983.5,980.5,980.5,980.5,977.5,980.5,980.5,980.5,980.5,980.5,980.5,980.5,980.5,980.5,983.5,980.5,980.5,980.5,980.5,977.5,974.5,974.5,974.5,974.5,971.5,974.5,974.5,974.5,977.5,977.5,980.5,980.5,983.5,987,987,990,987,987,983.5,983.5,980.5,980.5,974.5,974.5,971.5,968.5,965,965,965,965,965,965,962,1971.5,1965,1961.5,1958.5,1955,1945.5,1942.5,1936.5,1933.5,1927,1921,1915.5,1909.5,1903.5,1900.5,1898,1892.5,1898,1919,1936.5,1958,1974,1987.5,1997.5,1997.5,2010.5,977.5,974.5,974.5,971.5,968.5,968.5,971.5,968.5,968.5,968.5,965,965,965,968.5,968.5,968.5,968.5,968.5,968.5,968.5,968.5,965,965,965,965,962,962,959,959,959,959,962,962,962,962,965,2196.5,2195,2198,2193.5,2196.5,2196.5,2201,2201,2214,2219,2216,2226,2228.5,2235.5,965,2239.5,2247.5,956,956,956,956,956,959,959,962,2368,2381,965,965,968.5,968.5,968.5,971.5,971.5,971.5,971.5,974.5,974.5,971.5,974.5,977.5,977.5,977.5,977.5,977.5,977.5,974.5,977.5,977.5,977.5,977.5,977.5,977.5,977.5,977.5,977.5,2818,2852,2899,2929.5,2964.5,962,959,953.5,950.5,944.5,941.5,938.5,938.5,938.5,938.5,941.5,941.5,944.5,947.5,947.5,947.5,947.5,947.5,947.5,947.5,947.5,947.5,950.5,953.5,953.5,956,959,962,962,965,965,965,965,962,962,962,962,965,965,965,965,965,962,962,962,965,962,962,965,962,965,965,965,968.5,965,965,962,962,962,962,962,962,962,962,959,962,962,962,959,956,956,959,959,959,959,962,962,965,965,968.5,968.5,968.5,971.5,971.5,971.5,968.5,968.5,968.5,968.5,965,962,962,962,965,965,968.5,968.5,971.5,974.5,977.5,977.5,980.5,983.5,983.5,983.5,983.5,983.5,983.5,987,983.5,983.5,983.5,983.5,983.5,980.5,977.5,977.5,974.5,971.5,968.5,968.5,965,965,965,968.5,968.5,968.5,968.5,968.5,965,965,962,962,959,959,956,956,956,953.5,953.5,956,956,956,956,959,962,962,965,965,968.5,971.5,974.5,977.5,977.5,977.5,980.5,980.5,977.5,977.5,977.5,974.5,974.5,974.5,974.5,971.5,971.5,971.5,971.5,971.5,971.5,974.5,971.5,974.5,980.5,983.5
0,0,0,0,0,0,0,0,0,0,0,0,0,0,0,0,0,956,956,956,956,959,959,962,965,968.5,971.5,974.5,977.5,980.5,980.5,983.5,983.5,983.5,980.5,980.5,977.5,2149.5,2142,2130.5,2111,2095,2078.5,2059.5,956,956,956,953.5,953.5,953.5,956,953.5,953.5,1928,1912.5,1903.5,1898,1883.5,1863.5,1852,1844.5,1833,1828,1830.5,1825,1822.5,1819.5,1824.5,1830.5,1830.5,1833,1833,1833,1827.5,1825,1827.5,1822.5,1817,1814.5,1806.5,1799,1790.5,1785.5,1785.5,1783,1782.5,1785,1788,1793,1798,1806,1811.5,1816.5,1819.5,1819.5,1824.5,1822,1822,1825,1827.5,1827.5,1824.5,1824.5,1827,1827,1833,1835.5,1838,1841,1844,1849,1852,1855,1860,1860.5,1863,1863,1869,1871.5,1874.5,1877.5,1880,1883,1889,1889,1892,1892,1889,1886,1886,1886,1883,1886,1883,1886,1886,1889.5,1892,1895,1898,1903.5,1907,1910,1913,1916,1916,1919,1916,1916,1913,1913,1913,1909.5,1906.5,1903.5,1903.5,1903.5,1903.5,1901,1898,1898.5,1898.5,1901.5,1901.5,1904.5,974.5,977.5,980.5,980.5,983.5,983.5,987,990,990,990,990,990,990,990,990,990,990,987,987,980.5,980.5,977.5,974.5,974.5,968.5,968.5,965,965,965,965,962,962,962,965,965,968.5,968.5,968.5,968.5,968.5,968.5,968.5,968.5,968.5,968.5,968.5,965,965,965,965,962,962,962,962,962,962,965,965,962,962,962,962,965,965,965,965,965,968.5,968.5,971.5,971.5,971.5,971.5,968.5,968.5,968.5,968.5,965,965,965,965,965,965,968.5,968.5,968.5,971.5,971.5,974.5,974.5,977.5,977.5,980.5,980.5,980.5,983.5,987,987,990,990,990,993,993,996.5,996.5,993,993,993,990,990,990,987,983.5,983.5,983.5,983.5,983.5,980.5,980.5,980.5,980.5,980.5,980.5,980.5,980.5,980.5,980.5,980.5,983.5,980.5,980.5,980.5,980.5,977.5,977.5,977.5,977.5,977.5,977.5,974.5,974.5,977.5,977.5,980.5,983.5,983.5,983.5,990,990,990,990,990,987,983.5,983.5,980.5,977.5,974.5,971.5,968.5,965,962,962,962,962,962,962,1971.5,1968,1961.5,1958.5,1955,1952,1945.5,1939.5,1936.5,1930.5,1927,1921,1912.5,1909.5,1903.5,1903.5,1901,968.5,968.5,974.5,974.5,2000.5,2017.5,2021,2028.5,2035.5,2039,2032.5,2029,2019,2012,2012,2005,2005,2001.5,1998,2005,2009.5,965,965,968.5,968.5,968.5,968.5,971.5,971.5,971.5,968.5,968.5,965,965,965,965,965,962,962,2245,2239.5,2232,2222,2206.5,2201.5,2195,2198,2198,2201,2201,2201,2206,2214,2219,2224,2229,2231.5,2236.5,968.5,968.5,965,962,962,959,956,956,956,956,959,959,2355,2368,962,965,965,965,968.5,968.5,971.5,971.5,971.5,974.5,977.5,974.5,977.5,977.5,980.5,980.5,977.5,980.5,977.5,977.5,980.5,980.5,980.5,977.5,977.5,977.5,980.5,977.5,2799.5,2843.5,2875,2911,2955,965,962,956,953.5,950.5,944.5,941.5,938.5,938.5,938.5,941.5,941.5,944.5,944.5,947.5,947.5,950.5,953.5,950.5,953.5,953.5,953.5,953.5,953.5,956,956,959,962,962,965,965,965,965,965,965,965,965,965,965,965,965,965,962,962,962,962,962,962,962,962,962,965,965,965,965,965,962,962,962,962,962,962,962,962,959,959,959,959,959,956,956,956,956,956,959,959,959,962,965,965,965,965,968.5,968.5,968.5,968.5,968.5,968.5,968.5,965,962,962,962,962,962,965,965,968.5,968.5,971.5,974.5,977.5,977.5,980.5,980.5,980.5,983.5,983.5,983.5,983.5,983.5,983.5,983.5,983.5,983.5,983.5,980.5,977.5,974.5,974.5,971.5,968.5,968.5,968.5,968.5,968.5,968.5,968.5,971.5,968.5,968.5,965,965,965,962,962,959,956,956,956,959,959,959,959,962,962,962,965,968.5,971.5,971.5,974.5,977.5,980.5,980.5,980.5,980.5,980.5,980.5,980.5,977.5,974.5,974.5,974.5,971.5,971.5,971.5,971.5,971.5,971.5,971.5,971.5,974.5,977.5,980.5,983.5
0,0,0,0,0,0,0,0,0,0,0,0,0,0,0,0,0,956,956,959,959,959,962,962,965,971.5,974.5,977.5,980.5,980.5,980.5,983.5,983.5,980.5,980.5,977.5,977.5,2149.5,2138,2122.5,2102.5,2078.5,2066.5,2037.5,953.5,953.5,953.5,953.5,953.5,953.5,950.5,950.5,1947,1934.5,1919,1909.5,1903.5,1889,1868.5,1855,1844,1838.5,1830,1830,1827.5,1819.5,1814,1819.5,1824.5,1824.5,1824.5,1824.5,1822,1822,1819.5,1816.5,1814,1809,1806.5,1801,1796,1788,1785.5,1780,1780,1780,1785.5,1785.5,1788,1793,1800.5,1803,1809,1809,1811.5,1811.5,1814,1814,1814,1819,1822,1819.5,1816.5,1819.5,1819.5,1824.5,1830,1830,1833,1838,1841,1844,1849,1855,1855,1857.5,1857.5,1863,1866,1872,1874.5,1874.5,1877,1880,1883,1886,1886,1883,1880,1883,1883,1880,1880,1883,1880,1883,1886,1889,1892,1897.5,1900.5,1903.5,1906.5,1910,1913,1916,1916,1913,1916,1912.5,1906.5,1906.5,1906.5,1900.5,1900.5,1900.5,1897.5,1895,1895,1895,1892,1895,1898.5,1898.5,1899,1904.5,974.5,977.5,980.5,983.5,983.5,983.5,987,987,987,990,990,990,990,990,990,987,987,987,980.5,980.5,980.5,980.5,974.5,974.5,968.5,968.5,968.5,968.5,968.5,965,965,965,968.5,968.5,968.5,968.5,968.5,968.5,968.5,968.5,971.5,968.5,968.5,968.5,968.5,968.5,965,965,965,962,962,962,962,962,962,962,962,962,962,962,962,962,962,962,965,965,968.5,968.5,968.5,968.5,968.5,968.5,968.5,968.5,968.5,965,962,962,962,962,962,965,965,965,968.5,968.5,971.5,974.5,974.5,974.5,977.5,977.5,980.5,980.5,983.5,987,987,987,990,990,990,993,993,993,990,990,990,990,990,990,987,983.5,983.5,983.5,983.5,983.5,980.5,980.5,980.5,980.5,980.5,980.5,980.5,980.5,980.5,980.5,980.5,983.5,980.5,980.5,980.5,980.5,980.5,980.5,980.5,980.5,980.5,977.5,977.5,977.5,980.5,980.5,983.5,987,987,987,990,990,993,993,990,990,983.5,980.5,980.5,977.5,974.5,968.5,965,962,962,962,962,962,962,962,962,1968,1965,1958.5,1958.5,1955,1949,1945.5,1939.5,1936.5,1930.5,1927,1918,1912.5,1909.5,1913,968.5,971.5,971.5,974.5,977.5,2025,2035.5,2046.5,2058,2061.5,2065.5,2061.5,2055,2055,2048,2045,2041.5,2037.5,2037.5,2034,2034,2038,965,968.5,971.5,968.5,971.5,971.5,971.5,974.5,974.5,974.5,971.5,971.5,971.5,968.5,968.5,965,965,2258.5,2264,2253.5,2242.5,2230.5,2220,2210,2203,2203,2198,2201,2201,2201,2206,2214,2219,2229,2234.5,2239.5,2247,2249,2251.5,2257,2255.5,2261,2263.5,956,956,956,956,2312.5,2324.5,2339.5,2352,2368,2394,962,962,965,968.5,971.5,971.5,974.5,977.5,977.5,977.5,977.5,983.5,983.5,983.5,983.5,2612.5,2630,983.5,2657,2666,980.5,980.5,980.5,980.5,977.5,2778,2810.5,2852,2887,2935.5,2981,3017.5,3068,3127.5,3184.5,3231.5,3280,3313,3366,3382,3421.5,941.5,941.5,944.5,947.5,947.5,950.5,953.5,953.5,953.5,953.5,956,956,956,956,959,959,962,962,965,965,968.5,968.5,968.5,968.5,968.5,965,965,965,965,965,965,962,962,962,962,962,962,962,962,962,965,965,965,965,965,965,962,962,962,959,959,962,959,959,959,959,959,959,959,956,956,956,956,956,956,956,956,959,959,962,962,965,965,965,968.5,968.5,965,965,968.5,965,962,962,959,959,962,962,962,962,965,965,968.5,974.5,977.5,977.5,977.5,977.5,980.5,983.5,983.5,983.5,983.5,983.5,983.5,983.5,983.5,983.5,980.5,977.5,974.5,974.5,971.5,968.5,968.5,965,965,968.5,968.5,968.5,968.5,968.5,968.5,968.5,965,965,965,962,959,959,959,959,959,959,962,962,962,962,965,968.5,971.5,974.5,974.5,977.5,980.5,983.5,983.5,983.5,983.5,983.5,980.5,980.5,977.5,974.5,971.5,971.5,968.5,971.5,968.5,968.5,971.5,971.5,971.5,974.5,974.5,977.5,980.5,987
0,0,0,0,0,0,0,0,0,0,0,0,0,0,0,0,0,956,959,959,959,962,962,965,968.5,971.5,974.5,977.5,980.5,980.5,980.5,980.5,980.5,980.5,977.5,977.5,974.5,971.5,968.5,965,962,959,2044,2022.5,2008,1994,1983.5,1973.5,1966.5,1963.5,1960,1953.5,1944,1934.5,1922,1913,1906.5,1892,1877,1863.5,1852,1838.5,1833,1827.5,1825,1817,1814,1816.5,1819.5,1819.5,1819.5,1819.5,1819.5,1817,1814,1811.5,1809,1806,1803.5,1798.5,1793.5,1785,1780,1777.5,1774.5,1777,1780,1780,1782.5,1785,1793,1795.5,1798,1800.5,1803,1803,1803,1803,1809,1811.5,1811.5,1811.5,1811.5,1811.5,1814,1819.5,1822,1824.5,1827,1830,1835.5,1838,1844,1849,1849,1852,1855,1855,1860,1866,1869,1869,1874.5,1877,1877,1880,1880,1877,1877.5,1874.5,1877.5,1874.5,1877,1877,1880,1877.5,1880.5,1883.5,1886.5,1892,1897.5,1897.5,1900.5,1906.5,1906.5,1906.5,1909.5,1909.5,1906.5,1903.5,1900.5,1903.5,1900.5,1895,1895,1895,1892,1892,1889,1892,1889,1892,1892,1895,1898.5,1898.5,1901.5,1904.5,1907.5,977.5,977.5,980.5,983.5,983.5,983.5,983.5,983.5,983.5,983.5,983.5,987,987,987,983.5,980.5,980.5,980.5,980.5,977.5,974.5,971.5,971.5,971.5,971.5,968.5,968.5,968.5,968.5,968.5,968.5,968.5,968.5,971.5,971.5,971.5,971.5,971.5,971.5,968.5,968.5,968.5,968.5,965,965,965,965,962,962,962,962,962,962,962,962,962,962,962,965,965,965,965,965,968.5,968.5,968.5,968.5,968.5,968.5,968.5,968.5,968.5,962,962,962,962,962,962,965,965,965,965,968.5,968.5,971.5,974.5,974.5,974.5,977.5,980.5,980.5,983.5,983.5,987,987,987,990,990,990,990,990,990,990,990,990,987,987,987,983.5,983.5,983.5,983.5,983.5,980.5,980.5,980.5,977.5,980.5,977.5,977.5,980.5,980.5,980.5,980.5,980.5,980.5,980.5,980.5,980.5,980.5,980.5,980.5,980.5,980.5,980.5,977.5,980.5,980.5,983.5,983.5,987,987,987,990,990,993,993,990,987,983.5,980.5,980.5,974.5,974.5,968.5,965,962,962,962,962,962,962,962,962,1968,1965,1961.5,1958.5,1955,1952,1946,1945.5,1942.5,1936.5,1933.5,1924,1921,1918.5,968.5,971.5,971.5,974.5,974.5,977.5,980.5,2076.5,2084,2085,2097,2101,2097,2093,2086,2083,2076,2076,2068,2064.5,968.5,965,968.5,968.5,968.5,971.5,971.5,971.5,971.5,974.5,977.5,977.5,974.5,974.5,974.5,974.5,974.5,971.5,971.5,2281.5,2273,2273,2267.5,2251.5,2244,2228.5,2218,2208,2203,2203,2201,2201,2201,2206,2219,2224,2229,2234.5,2244.5,2247,2254.5,2260,2262,2264,2261,2263.5,2266,2272,2283,2294.5,2306.5,2318.5,2330.5,2336.5,2352,959,962,962,962,968.5,968.5,971.5,974.5,977.5,977.5,980.5,983.5,987,987,987,987,2607.5,2616,2642.5,2651.5,2669.5,2684.5,2713.5,2730,2760.5,2778,2778,2810.5,2863.5,2908,2945.5,2990.5,3028.5,3082.5,3139.5,3201,3231.5,3280,3313,3347,3385,3424.5,944.5,944.5,947.5,947.5,950.5,953.5,956,956,956,956,959,959,959,962,962,962,965,965,968.5,971.5,968.5,971.5,968.5,968.5,968.5,968.5,965,965,965,965,965,962,962,962,962,962,965,965,965,965,965,965,965,968.5,965,965,962,962,962,959,959,959,956,956,956,959,959,959,959,956,953.5,956,956,953.5,953.5,953.5,953.5,956,956,956,959,962,965,965,965,965,965,962,965,962,959,956,953.5,953.5,956,959,959,959,962,962,965,968.5,971.5,974.5,974.5,977.5,977.5,980.5,983.5,983.5,983.5,983.5,983.5,983.5,983.5,983.5,980.5,980.5,977.5,974.5,971.5,968.5,965,965,965,965,965,968.5,968.5,968.5,968.5,968.5,965,965,965,962,962,962,962,962,962,962,962,962,962,965,968.5,968.5,971.5,974.5,977.5,980.5,983.5,987,987,987,983.5,980.5,980.5,977.5,974.5,974.5,971.5,968.5,968.5,968.5,968.5,968.5,968.5,968.5,971.5,974.5,974.5,977.5,980.5,987
0,0,0,0,0,0,0,0,0,0,0,0,0,0,0,0,0,0,0,959,959,962,962,962,968.5,971.5,974.5,977.5,977.5,977.5,980.5,980.5,980.5,977.5,977.5,977.5,974.5,971.5,968.5,965,962,959,2021.5,2004.5,1993.5,1983.5,1977,1970,1963.5,1960.5,1957,1950.5,1947.5,1934.5,1925.5,1916,1916,1900.5,1883,1869,1854.5,1844,1835.5,1830.5,1824.5,1816.5,1811.5,1811.5,1814,1814,1814,1811,1811,1806,1803.5,1803.5,1803.5,1798.5,1801,1796,1790.5,1785.5,1780,1777,1774.5,1772,1777.5,1777.5,1780,1782.5,1785,1787.5,1792.5,1798,1798,1795.5,1795.5,1798,1800.5,1800.5,1806,1806,1806,1806,1808.5,1808.5,1814,1816.5,1819.5,1824.5,1830,1833,1838,1838,1841,1844,1844,1849,1855,1860,1860,1863,1866,1869,1872,1872,1872,1872,1872,1869,1871.5,1872,1872,1872,1874.5,1874.5,1877.5,1880.5,1883.5,1886.5,1889.5,1894.5,1894.5,1897.5,1900.5,1900.5,1900.5,1897.5,1900.5,1897.5,1895,1895,1892,1892,1889,1889,1889,1889.5,1889.5,1886.5,1886,1889,1892,1892,1892,1895,1898.5,1898.5,971.5,974.5,974.5,977.5,977.5,977.5,977.5,977.5,977.5,977.5,977.5,977.5,977.5,980.5,980.5,977.5,977.5,977.5,977.5,977.5,977.5,974.5,974.5,974.5,974.5,974.5,971.5,968.5,968.5,968.5,968.5,971.5,971.5,971.5,971.5,971.5,974.5,971.5,971.5,971.5,971.5,971.5,971.5,968.5,968.5,968.5,968.5,965,965,962,962,962,962,962,962,962,962,962,965,965,965,965,965,965,968.5,968.5,968.5,968.5,968.5,968.5,968.5,965,965,962,962,962,962,962,962,962,962,962,965,965,968.5,968.5,971.5,974.5,977.5,977.5,977.5,980.5,983.5,983.5,983.5,987,987,987,990,990,990,990,987,987,987,987,987,983.5,983.5,983.5,983.5,983.5,983.5,983.5,980.5,980.5,977.5,977.5,977.5,977.5,977.5,977.5,977.5,977.5,980.5,980.5,980.5,980.5,980.5,980.5,980.5,980.5,980.5,983.5,983.5,983.5,980.5,980.5,983.5,983.5,987,987,987,987,990,990,990,990,990,983.5,983.5,980.5,977.5,974.5,971.5,968.5,965,962,962,962,965,965,965,965,962,962,1968,965,1965,1961.5,1955,1952,1952,1949,1942.5,1942.5,1936.5,1933.5,965,968.5,971.5,971.5,974.5,977.5,980.5,2104,2112.5,2116.5,2121,2125,2128,2116.5,2116.5,2105.5,2098,2090,2082,2071,971.5,968.5,968.5,968.5,971.5,971.5,971.5,971.5,971.5,974.5,977.5,977.5,977.5,977.5,980.5,980.5,980.5,977.5,977.5,974.5,2296,2290.5,2290.5,2281.5,2270.5,2254.5,2238.5,2228.5,2218,2213,2208,2203,2206,2203,2208,2216,2221,2231.5,2239.5,2241.5,2252,2254.5,2257,2262,2264,2266.5,2266.5,2263.5,2266,2272,2283,2300.5,2306.5,2318.5,2330.5,2346,2358.5,2384.5,2407.5,2428,2452.5,968.5,971.5,2514,2525,2528,2546.5,2546.5,2561,2572,2585.5,2585.5,2605,2622,2636.5,2642.5,2669.5,2684.5,2703.5,2730,2760.5,2778,2775,2807.5,2860.5,2908,2955,2990.5,3042.5,3082.5,3139.5,3201,3231.5,3280,3316,3350,3388,3427.5,947.5,947.5,950.5,953.5,956,956,959,962,962,962,962,962,962,962,962,965,968.5,968.5,971.5,971.5,971.5,971.5,968.5,968.5,968.5,968.5,965,965,965,965,965,962,962,962,965,968.5,968.5,968.5,968.5,968.5,968.5,971.5,968.5,971.5,968.5,965,965,962,959,959,956,956,953.5,953.5,956,956,956,956,956,953.5,953.5,953.5,953.5,953.5,950.5,950.5,953.5,953.5,953.5,953.5,956,959,962,962,962,962,962,962,962,959,953.5,953.5,950.5,953.5,953.5,953.5,953.5,956,959,959,962,965,968.5,968.5,968.5,974.5,974.5,977.5,980.5,983.5,983.5,983.5,983.5,983.5,983.5,983.5,983.5,980.5,977.5,974.5,971.5,968.5,965,962,962,962,965,968.5,968.5,968.5,968.5,968.5,968.5,965,965,965,965,962,962,962,965,965,965,965,965,968.5,968.5,971.5,974.5,977.5,980.5,983.5,987,987,987,987,983.5,980.5,980.5,977.5,974.5,971.5,968.5,968.5,968.5,965,965,965,968.5,968.5,971.5,974.5,974.5,977.5,980.5,987
0,0,0,0,0,0,0,0,0,0,0,0,0,0,0,0,0,0,0,0,959,962,962,962,965,968.5,971.5,971.5,974.5,977.5,977.5,977.5,977.5,977.5,974.5,974.5,971.5,971.5,968.5,962,962,959,956,1990,1983.5,1977,1973.5,1963.5,1960.5,1960.5,1954,1954,1950.5,1941,1934.5,1925.5,1919,1910,1892,1877.5,1860.5,1849,1841,1833,1824.5,1816.5,1811.5,1811.5,1811.5,1808.5,1808.5,1806,1803.5,1803.5,1798.5,1798.5,1796,1790.5,1790.5,1788,1785.5,1780,1774.5,1772,1772,1772,1775,1772.5,1775,1780,1780,1785,1790,1790,1792.5,1792.5,1790,1795.5,1795.5,1798,1798,1798,1798,1798,1798,1803.5,1806,1808.5,1814,1814,1819.5,1824.5,1830,1833,1833,1833,1838,1838,1844,1849,1855,1855,1857.5,1860,1860,1866,1866,1866,1863,1863,1869,1869,1869,1872,1872,1874.5,1877.5,1874.5,1877.5,1880.5,1883.5,1889,1892,1892,1892,1892,1892,1892,1892,1889,1889,1886,1886,1880.5,1880.5,1880.5,1880.5,1880.5,1883.5,1883.5,1886.5,1886.5,1883.5,1886,1889,1892,1892,1895,968.5,968.5,971.5,971.5,971.5,971.5,971.5,971.5,971.5,971.5,971.5,971.5,971.5,971.5,971.5,971.5,971.5,974.5,974.5,974.5,977.5,974.5,974.5,974.5,974.5,974.5,971.5,968.5,968.5,968.5,968.5,971.5,971.5,971.5,971.5,974.5,974.5,974.5,971.5,971.5,971.5,971.5,971.5,971.5,968.5,968.5,968.5,968.5,965,965,965,962,962,965,965,962,962,965,965,965,965,965,965,965,965,968.5,968.5,968.5,968.5,965,965,965,962,962,962,962,959,962,962,962,962,962,962,965,968.5,968.5,971.5,971.5,974.5,977.5,977.5,980.5,980.5,983.5,983.5,983.5,987,987,987,987,987,987,987,983.5,983.5,983.5,980.5,980.5,980.5,980.5,983.5,980.5,980.5,980.5,980.5,980.5,977.5,977.5,974.5,974.5,974.5,977.5,977.5,977.5,980.5,980.5,980.5,980.5,983.5,980.5,980.5,983.5,983.5,983.5,983.5,983.5,983.5,983.5,983.5,983.5,987,987,987,987,987,990,990,987,987,983.5,980.5,977.5,977.5,974.5,971.5,968.5,968.5,965,965,965,968.5,968.5,968.5,965,965,965,965,965,962,1955,1952,1949,1946,1949,962,962,962,962,968.5,968.5,971.5,971.5,974.5,977.5,980.5,980.5,2169.5,2165,2155.5,980.5,2150,2141,2129.5,2108.5,2101,974.5,974.5,974.5,974.5,971.5,971.5,971.5,971.5,971.5,974.5,974.5,974.5,977.5,977.5,980.5,980.5,983.5,983.5,983.5,983.5,983.5,983.5,980.5,2313.5,2310.5,2304.5,2299,2290.5,2273.5,2263,2249,2238.5,2233.5,2223,971.5,2223,2223,2223,2228.5,2236.5,2241.5,2247,2249,2254.5,2260,2262,2267.5,2264,2266.5,2272,2266.5,2269,2275,2286,2297.5,2303.5,2312.5,2327.5,2339.5,2352,2371.5,2394,962,965,968.5,971.5,2506.5,2517,2528,2538.5,2542,2553,2564,2580,2588.5,2605,2622,2631,2648.5,2672.5,2688,2703.5,2730,2760.5,2778,2775,2818,2860.5,2917.5,2964.5,3014.5,3068,3112,3155.5,3201,3234.5,3283,3319,3353,3391,3433.5,953.5,953.5,956,959,959,962,962,962,962,962,965,965,965,965,965,968.5,968.5,968.5,971.5,971.5,968.5,968.5,968.5,968.5,965,965,965,965,965,965,962,962,962,962,962,965,968.5,968.5,968.5,968.5,971.5,971.5,971.5,971.5,971.5,968.5,965,962,959,959,956,956,953.5,953.5,953.5,953.5,953.5,953.5,953.5,950.5,950.5,950.5,950.5,950.5,950.5,947.5,950.5,950.5,950.5,953.5,956,959,959,962,962,959,959,959,962,956,953.5,950.5,947.5,947.5,950.5,950.5,953.5,953.5,953.5,956,959,962,965,965,968.5,968.5,974.5,977.5,980.5,980.5,983.5,983.5,987,987,987,983.5,980.5,980.5,977.5,971.5,971.5,968.5,965,962,962,962,962,965,968.5,968.5,968.5,968.5,968.5,968.5,968.5,968.5,968.5,968.5,968.5,968.5,968.5,968.5,968.5,968.5,968.5,971.5,974.5,974.5,977.5,980.5,983.5,987,987,987,987,987,983.5,980.5,980.5,977.5,974.5,971.5,968.5,968.5,965,965,965,965,968.5,968.5,971.5,974.5,977.5,977.5,980.5,987
0,0,0,0,0,0,0,0,0,0,0,0,0,0,0,0,0,0,0,0,959,959,959,959,962,965,968.5,971.5,971.5,974.5,974.5,974.5,974.5,974.5,974.5,974.5,974.5,971.5,968.5,965,962,962,959,1979,1975.5,1969.5,1966.5,1963.5,1957,1957,1957,1957,1950.5,1947.5,1941,1931.5,1928,1919,1900.5,1886,1869,1854.5,1844,1833,1824.5,1816.5,1811.5,1806,1803,1800.5,1803.5,1801,1798.5,1796,1793,1790.5,1788,1785,1780,1780,1775,1770,1767.5,1769.5,1767,1769.5,1769.5,1772.5,1775,1777.5,1780,1785,1787.5,1790,1790,1790,1790,1790,1792.5,1795.5,1795.5,1792.5,1792.5,1792.5,1792.5,1798,1801,1803.5,1808.5,1808.5,1814,1814,1819.5,1824.5,1824.5,1824.5,1827,1830,1833,1838,1844,1844,1849,1849,1852,1855,1857.5,1855,1855,1855,1857.5,1863,1866,1866,1866,1869,1871.5,1874.5,1877.5,1877.5,1880.5,1880.5,1886,1886,1886,1889,1886,1886,1886,1883,1880,1880,1880,1877.5,1874.5,1877.5,1877.5,1880.5,1880.5,1877.5,1877.5,1880.5,1880.5,1883.5,1883.5,1886,1889,1892,1892,1895,965,965,965,965,965,962,962,962,962,962,962,965,965,965,965,968.5,971.5,974.5,974.5,974.5,974.5,974.5,974.5,974.5,968.5,968.5,968.5,968.5,968.5,968.5,968.5,968.5,971.5,974.5,974.5,974.5,974.5,971.5,971.5,971.5,971.5,971.5,971.5,971.5,968.5,968.5,968.5,968.5,965,965,965,965,965,965,965,965,965,968.5,965,965,965,965,965,968.5,968.5,965,965,962,962,962,962,962,959,959,959,959,962,962,962,962,962,962,965,968.5,968.5,974.5,974.5,974.5,977.5,980.5,980.5,980.5,980.5,983.5,983.5,983.5,983.5,983.5,983.5,983.5,983.5,980.5,980.5,980.5,980.5,980.5,980.5,980.5,980.5,980.5,980.5,980.5,980.5,977.5,977.5,977.5,974.5,974.5,974.5,977.5,977.5,977.5,980.5,980.5,980.5,983.5,983.5,983.5,983.5,983.5,983.5,983.5,983.5,983.5,983.5,983.5,983.5,983.5,983.5,983.5,983.5,983.5,983.5,983.5,983.5,983.5,983.5,980.5,977.5,977.5,974.5,974.5,971.5,968.5,968.5,968.5,968.5,968.5,968.5,968.5,968.5,968.5,968.5,968.5,965,965,965,962,1949,1946,1949,1949,962,962,962,965,968.5,968.5,971.5,974.5,974.5,977.5,980.5,980.5,980.5,983.5,983.5,983.5,983.5,983.5,983.5,980.5,2100,977.5,977.5,977.5,977.5,974.5,974.5,974.5,974.5,974.5,974.5,977.5,977.5,977.5,980.5,980.5,983.5,983.5,987,987,987,987,983.5,983.5,2346,2337,2337,2322,2304.5,2296,2279,2268,2254.5,2249,971.5,971.5,971.5,971.5,971.5,971.5,971.5,971.5,971.5,2254.5,2260,2265,2262,2267.5,2269.5,2269.5,2272,2266.5,2272,2278,2280.5,2292,2297.5,2309.5,2315.5,2336.5,2349,2361.5,2381,2401,2424.5,2449,2466,2491.5,2509.5,2512.5,2523,2542,2545,2556,2572,2592,2600,2617,2622,2639.5,2663.5,2669.5,2697.5,2710.5,2740,2754.5,2775,2826.5,2881,2929.5,2987.5,3042.5,3082.5,3127.5,3155.5,3201,3234.5,3286,3322,3359,3397,3436.5,956,959,959,962,962,965,965,968.5,968.5,968.5,968.5,968.5,968.5,968.5,968.5,968.5,968.5,971.5,971.5,968.5,968.5,968.5,965,965,965,962,962,962,962,962,959,959,959,962,962,962,965,968.5,968.5,971.5,971.5,974.5,974.5,974.5,974.5,971.5,971.5,965,962,959,956,956,953.5,950.5,950.5,953.5,953.5,953.5,950.5,950.5,947.5,947.5,950.5,947.5,947.5,947.5,947.5,947.5,950.5,950.5,953.5,956,959,959,959,959,959,959,959,953.5,953.5,947.5,947.5,947.5,947.5,950.5,953.5,953.5,950.5,950.5,956,959,962,962,965,968.5,968.5,971.5,977.5,980.5,980.5,983.5,983.5,983.5,983.5,983.5,983.5,980.5,977.5,974.5,971.5,968.5,962,962,962,962,962,965,965,968.5,968.5,968.5,971.5,971.5,971.5,971.5,971.5,971.5,971.5,974.5,974.5,974.5,974.5,974.5,974.5,974.5,977.5,980.5,983.5,983.5,987,990,990,990,987,987,983.5,980.5,977.5,974.5,971.5,968.5,965,962,962,962,962,962,965,968.5,968.5,971.5,974.5,977.5,980.5,987
0,0,0,0,0,0,0,0,0,0,0,0,0,0,0,0,0,0,956,956,956,959,959,959,962,965,965,968.5,971.5,971.5,974.5,974.5,974.5,974.5,974.5,974.5,971.5,968.5,968.5,965,962,962,962,1972,1965.5,1965.5,1963,1963,1963,1960,1960,1957,1953.5,1950.5,1944,1940.5,1934.5,1922,1909.5,1895,1880,1860.5,1846.5,1835.5,1824.5,1816.5,1806,1800.5,1798,1795.5,1795.5,1793,1790.5,1790.5,1788,1785,1785,1780,1775.5,1770.5,1767.5,1765,1765,1762.5,1762.5,1764.5,1769.5,1772.5,1775,1775,1780,1782.5,1785,1785,1787.5,1790,1790,1790,1792.5,1792.5,1792.5,1790,1790,1792.5,1792.5,1792.5,1798,1798,1803.5,1803.5,1806,1808.5,1814,1819.5,1819.5,1819.5,1819.5,1822,1827,1833,1833,1838,1838,1838,1841,1844,1846.5,1846.5,1849,1849,1852,1855,1860,1863,1863,1863,1866,1869,1869,1871.5,1871.5,1874.5,1877.5,1877.5,1883,1883,1883,1877.5,1874.5,1874.5,1874.5,1874.5,1874.5,1872,1872,1872,1874.5,1871.5,1874.5,1874.5,1874.5,1874.5,1874.5,1877.5,1880.5,1883.5,1883.5,1886,1886,1886,1892,1892,1895,959,956,956,956,1897.5,1897.5,1897.5,956,959,959,959,959,1898,1903.5,1907,1910,1910,1913,1913,974.5,971.5,968.5,968.5,965,965,965,965,968.5,968.5,968.5,971.5,974.5,974.5,974.5,974.5,974.5,974.5,974.5,974.5,974.5,974.5,971.5,971.5,968.5,968.5,968.5,968.5,968.5,968.5,968.5,968.5,965,968.5,968.5,968.5,965,965,965,965,965,965,965,962,962,962,962,962,959,959,959,959,959,959,959,959,962,962,962,962,962,968.5,968.5,971.5,974.5,974.5,977.5,977.5,980.5,980.5,980.5,980.5,980.5,983.5,983.5,980.5,980.5,980.5,980.5,980.5,980.5,980.5,977.5,977.5,977.5,977.5,980.5,980.5,980.5,980.5,980.5,977.5,977.5,974.5,974.5,974.5,974.5,977.5,977.5,977.5,977.5,980.5,980.5,983.5,983.5,983.5,983.5,983.5,983.5,983.5,983.5,983.5,983.5,980.5,983.5,983.5,980.5,980.5,980.5,980.5,980.5,980.5,980.5,980.5,977.5,977.5,974.5,974.5,974.5,971.5,971.5,971.5,968.5,968.5,971.5,971.5,971.5,974.5,974.5,974.5,971.5,971.5,968.5,968.5,968.5,965,1945.5,1945.5,1945.5,1942.5,1942.5,962,965,965,968.5,971.5,974.5,971.5,974.5,974.5,977.5,977.5,980.5,980.5,980.5,980.5,983.5,983.5,983.5,983.5,983.5,980.5,980.5,980.5,980.5,980.5,977.5,977.5,977.5,977.5,977.5,977.5,977.5,977.5,980.5,980.5,983.5,983.5,987,987,990,990,990,987,2376.5,2364,2358,2337,2328,2316,2301.5,2287.5,2270.5,2270.5,971.5,971.5,968.5,968.5,968.5,968.5,971.5,971.5,971.5,2265,2265,2270.5,2267.5,2267.5,2273,2273,2275,2266.5,2266.5,2272,2278,2289,2289,2300.5,2312.5,2318.5,2336.5,2349,2371,2394,2414,2434.5,2452,2476.5,2494.5,2512.5,2523,2534.5,2545,2556,2564,2575.5,2583.5,2600,2613.5,2639.5,2657.5,2663.5,2688,2710.5,2727,2744,2772,2826.5,2881,2951.5,962,3056.5,3097,3139.5,3187,3203.5,3254,3288.5,3324.5,3361.5,3402.5,3442,959,962,965,965,968.5,968.5,971.5,971.5,971.5,968.5,971.5,968.5,971.5,971.5,968.5,968.5,971.5,971.5,968.5,968.5,968.5,965,962,962,962,959,956,956,956,956,956,956,959,959,962,962,962,965,968.5,971.5,974.5,977.5,977.5,977.5,977.5,974.5,971.5,971.5,965,962,959,956,956,950.5,950.5,953.5,953.5,950.5,950.5,947.5,947.5,947.5,950.5,947.5,947.5,947.5,947.5,947.5,950.5,950.5,953.5,956,959,959,959,959,959,956,959,953.5,950.5,947.5,947.5,947.5,947.5,950.5,950.5,950.5,950.5,950.5,953.5,956,959,962,962,962,968.5,971.5,974.5,977.5,980.5,980.5,983.5,983.5,983.5,983.5,980.5,980.5,977.5,971.5,968.5,965,962,962,962,962,962,962,965,965,968.5,968.5,971.5,974.5,974.5,974.5,974.5,974.5,974.5,974.5,977.5,977.5,977.5,977.5,980.5,980.5,980.5,983.5,987,987,990,993,993,990,987,987,983.5,980.5,977.5,974.5,968.5,968.5,965,962,962,962,959,962,962,962,968.5,971.5,971.5,974.5,977.5,980.5
0,0,0,0,0,0,0,0,0,0,0,0,0,0,0,0,0,0,0,956,956,959,959,959,962,965,965,968.5,968.5,971.5,974.5,974.5,974.5,974.5,974.5,974.5,974.5,971.5,971.5,968.5,965,965,962,1965,1958.5,1962,1959,1959,1959,1956.5,1959.5,1959.5,1956.5,1953.5,1950,1943.5,1937.5,1925,1916,1898,1883,1866,1849,1838,1824.5,1819.5,1808.5,1800.5,1795.5,1790.5,1788,1790.5,1785.5,1780,1780,1780,1777.5,1773,1770.5,1765,1762.5,1762.5,1760,1762.5,1762.5,1762.5,1769.5,1769.5,1772.5,1772.5,1780,1782.5,1782.5,1785,1785,1785,1785,1790,1790,1790,1790,1787.5,1787.5,1790,1790,1792.5,1795,1798,1798,1803.5,1803.5,1803.5,1808.5,1808.5,1814,1814,1814,1817,1822,1824.5,1827,1827,1830,1833,1833,1835.5,1835.5,1838,1841,1841,1846.5,1849,1852,1855,1857.5,1857.5,1857.5,1860,1863,1863,1866,1869,1869,1869,1874.5,1874.5,1874.5,1872,1869,1869,1866,1866,1866,1866,1863,1866,1866,1869,1871.5,1871.5,1871.5,1871.5,1871.5,1874.5,1875,1875,1878,1878,1881,1883.5,1883.5,1886.5,1889.5,1889.5,1889,1889,1892,1889,1889,1886,1889,1889,950.5,950.5,1889.5,956,1897.5,1900.5,1903.5,968.5,968.5,968.5,971.5,968.5,965,965,962,962,962,962,965,965,968.5,968.5,971.5,971.5,974.5,974.5,974.5,974.5,974.5,974.5,974.5,974.5,974.5,971.5,971.5,971.5,971.5,968.5,968.5,968.5,968.5,968.5,968.5,968.5,968.5,968.5,965,965,965,965,965,965,962,962,962,962,959,959,959,956,956,956,956,956,959,959,959,962,962,962,965,965,968.5,971.5,974.5,974.5,977.5,977.5,980.5,980.5,980.5,980.5,980.5,980.5,980.5,980.5,980.5,980.5,980.5,977.5,977.5,977.5,974.5,974.5,974.5,974.5,977.5,980.5,977.5,977.5,977.5,977.5,977.5,977.5,974.5,974.5,974.5,977.5,977.5,977.5,977.5,980.5,980.5,983.5,983.5,983.5,983.5,983.5,983.5,983.5,983.5,983.5,980.5,980.5,980.5,980.5,980.5,980.5,980.5,977.5,977.5,977.5,977.5,977.5,974.5,974.5,971.5,971.5,971.5,971.5,971.5,971.5,971.5,971.5,974.5,974.5,974.5,977.5,977.5,977.5,974.5,974.5,974.5,971.5,968.5,968.5,1942.5,1939.5,962,1942.5,1942.5,1942.5,965,965,968.5,971.5,971.5,971.5,971.5,974.5,974.5,977.5,977.5,980.5,977.5,980.5,980.5,983.5,983.5,987,983.5,983.5,983.5,983.5,983.5,983.5,980.5,980.5,980.5,977.5,977.5,977.5,977.5,977.5,977.5,980.5,983.5,983.5,987,990,987,990,990,987,2393,2383,2373.5,2361,2340,2328,2319,2304.5,2293,2281.5,2267.5,2262,2262,2257,2258.5,968.5,968.5,968.5,968.5,968.5,968.5,968.5,2273,2273,2276,2273,2273,2269.5,2269.5,2269.5,2275,2281,2281,2289,2298,2309.5,2321.5,2337,2355.5,2374.5,968.5,2417,2437.5,2462,2479.5,2497.5,2512.5,2526.5,2529.5,2545,2548,2567.5,2583.5,2583.5,2596.5,2613.5,2628,2654.5,2684.5,2700.5,2717,2744,971.5,968.5,968.5,965,962,959,959,956,956,956,956,956,959,959,959,962,965,965,968.5,968.5,971.5,971.5,971.5,971.5,971.5,971.5,971.5,971.5,971.5,971.5,971.5,971.5,971.5,968.5,968.5,968.5,965,962,962,959,959,956,956,953.5,953.5,953.5,953.5,953.5,953.5,956,959,959,962,962,968.5,971.5,971.5,977.5,977.5,980.5,980.5,977.5,974.5,974.5,971.5,965,962,959,959,956,956,953.5,953.5,953.5,953.5,950.5,950.5,950.5,950.5,950.5,950.5,950.5,950.5,950.5,950.5,950.5,953.5,956,959,959,959,959,959,959,959,956,953.5,950.5,947.5,947.5,947.5,950.5,950.5,950.5,950.5,950.5,953.5,953.5,959,959,962,962,962,968.5,971.5,974.5,977.5,977.5,980.5,980.5,980.5,980.5,980.5,980.5,977.5,971.5,968.5,965,962,959,959,962,962,962,965,965,968.5,971.5,974.5,974.5,974.5,974.5,974.5,977.5,977.5,977.5,980.5,980.5,980.5,980.5,983.5,983.5,987,987,990,990,993,993,993,993,987,987,980.5,980.5,974.5,974.5,968.5,965,962,962,959,959,959,959,959,962,965,968.5,968.5,971.5,974.5,980.5
0,0,0,0,0,0,0,0,0,0,0,0,0,0,0,0,0,956,956,956,959,959,959,959,962,965,965,968.5,971.5,974.5,974.5,974.5,974.5,974.5,974.5,974.5,974.5,971.5,971.5,968.5,965,965,965,1958.5,1958.5,1958.5,1958.5,1958.5,1955.5,1955.5,1959,1956.5,1956.5,1953,1950,1946.5,1937.5,1928,1916,1906.5,1889,1868.5,1858,1838.5,1830,1817,1811,1801,1793,1793,1788,1785.5,1780,1777.5,1780,1777.5,1775.5,1770.5,1765,1762.5,1762.5,1760,1760,1762.5,1760,1765,1767,1767,1772.5,1770,1775,1777.5,1777.5,1777.5,1777.5,1780,1782.5,1782.5,1782.5,1785,1787.5,1787.5,1787.5,1790,1790,1792.5,1792.5,1795,1798,1798,1798,1800.5,1803.5,1803.5,1806,1808.5,1808.5,1811,1817,1819.5,1822,1827,1827,1827,1827,1827,913.5,1830,1830,1835.5,1835.5,1841,1846.5,1846.5,1852,1852,1852,1852,1854.5,1857.5,1857.5,1857.5,1860,1860,1860,1866,1866,1863,1863,1860,1863,1860,1860,1860,1860,1860,1863,1863,1863,1866,1868.5,1868.5,1869,1872,1872,1872,1875,1875,1875,1877.5,1877.5,1880.5,1880.5,1883.5,1880.5,1883,1883,1880,1880,1880,1877.5,1877.5,1877.5,1877.5,1880.5,1883.5,1889.5,1892,1895,1900.5,1900.5,1903.5,965,965,962,962,959,959,959,959,962,962,965,968.5,968.5,968.5,971.5,974.5,974.5,974.5,974.5,974.5,974.5,974.5,974.5,974.5,974.5,974.5,974.5,971.5,971.5,971.5,971.5,968.5,968.5,968.5,968.5,968.5,965,965,965,962,962,962,962,962,962,959,959,956,956,956,956,956,956,959,959,959,962,962,962,965,965,968.5,968.5,971.5,974.5,974.5,974.5,977.5,977.5,980.5,977.5,980.5,980.5,980.5,980.5,980.5,980.5,977.5,977.5,977.5,974.5,974.5,974.5,974.5,974.5,974.5,977.5,977.5,977.5,977.5,977.5,977.5,977.5,977.5,974.5,974.5,974.5,974.5,974.5,977.5,977.5,980.5,980.5,983.5,983.5,983.5,983.5,983.5,983.5,983.5,983.5,983.5,980.5,980.5,980.5,980.5,977.5,977.5,977.5,974.5,974.5,974.5,974.5,974.5,971.5,968.5,968.5,968.5,968.5,971.5,971.5,971.5,971.5,974.5,974.5,977.5,977.5,980.5,980.5,980.5,977.5,977.5,974.5,974.5,971.5,968.5,968.5,965,965,965,965,965,965,965,965,968.5,971.5,968.5,971.5,971.5,971.5,974.5,977.5,977.5,977.5,977.5,980.5,980.5,983.5,987,987,987,983.5,983.5,983.5,983.5,983.5,983.5,980.5,977.5,977.5,977.5,977.5,977.5,977.5,977.5,980.5,980.5,983.5,983.5,983.5,987,987,987,2393,2389.5,2380,2370.5,2358,2343,2331,2322,2304.5,2290,2284.5,2273,2267.5,2264,2264,2264,2267.5,968.5,971.5,971.5,971.5,2276,2273,2276,2276,2276,2273,2273,2267.5,2267.5,2267.5,2270.5,2273,2278.5,2284.5,2290,2301.5,2313,2331,2358.5,2371,2397,2413.5,2434,2455,2465,2482.5,2500.5,2511.5,2522,2537.5,2548,2564,2572,2588.5,2602,2619,2651.5,2675.5,2700.5,2717,2744,2761.5,968.5,968.5,965,962,2825,2825,2825,956,956,956,959,962,962,962,962,965,965,968.5,968.5,971.5,971.5,971.5,971.5,971.5,971.5,971.5,971.5,971.5,971.5,971.5,968.5,968.5,968.5,965,962,962,962,959,956,953.5,953.5,950.5,950.5,950.5,950.5,950.5,950.5,950.5,953.5,953.5,959,962,962,965,968.5,971.5,977.5,980.5,980.5,980.5,980.5,977.5,977.5,974.5,971.5,968.5,965,959,959,959,956,956,956,956,953.5,953.5,953.5,953.5,953.5,953.5,953.5,956,956,956,956,956,959,962,962,962,962,959,959,962,959,956,953.5,950.5,950.5,953.5,953.5,953.5,953.5,953.5,953.5,953.5,956,956,959,959,962,962,965,971.5,974.5,977.5,977.5,977.5,980.5,980.5,980.5,980.5,977.5,971.5,968.5,965,962,959,959,959,959,959,962,965,965,968.5,971.5,974.5,974.5,974.5,977.5,977.5,977.5,977.5,977.5,980.5,980.5,980.5,983.5,987,987,987,990,993,993,993,996.5,993,990,987,983.5,980.5,977.5,974.5,971.5,965,962,959,959,959,956,956,956,956,959,962,965,965,968.5,971.5,977.5
0,0,0,0,0,0,0,0,0,0,0,0,0,0,0,0,0,0,0,956,959,959,962,962,965,965,968.5,971.5,971.5,974.5,974.5,974.5,974.5,974.5,974.5,974.5,974.5,971.5,971.5,968.5,968.5,968.5,968.5,965,1955,1955,1958.5,1955.5,1958.5,1955.5,1959,1959,1959,1953,1953,1946.5,1940.5,1931,1919,1906.5,1892,1874.5,1855,1841.5,1835.5,1825,1814,1806,1801,1796,1790.5,1788,1782.5,1782.5,1778,1778,1773,1768,1765.5,1763,1760,1760,1760,1762.5,1762.5,1765,1767.5,1767,1767,1767,1770,1772.5,1770,1770,1770,1770,1772.5,1777.5,1777.5,1777.5,1780,1782.5,1782.5,1787.5,1787.5,1790,1790,1790,1795,1792.5,1792.5,1798,1798,1803.5,1803.5,1803.5,1803.5,1803.5,1808.5,1811,1817,1817,1822,1822,1822,1824.5,1824.5,1824.5,1824.5,1830,1830,1835.5,1841,1843.5,1843.5,1846.5,1846.5,1846.5,1846.5,1846.5,1849,1849,1849,1852,1852,1855,1855,1852,1852,1852,1855,1857.5,1857.5,1855,1855,1855,1857.5,1857.5,1857.5,1857.5,1860.5,1860.5,1860.5,1866,1869,1869,1869,1869,1869,1869,1871.5,1871.5,1871.5,1871.5,1869,1872,1872,1874.5,1874.5,1871.5,1872,1872,1872,1869,1874.5,1877.5,1880.5,1883.5,1889.5,1892,1894.5,1897.5,1900.5,1897.5,959,956,956,956,956,956,959,959,959,962,965,968.5,968.5,971.5,971.5,971.5,974.5,974.5,974.5,974.5,974.5,974.5,974.5,974.5,974.5,974.5,974.5,974.5,974.5,971.5,971.5,971.5,968.5,968.5,965,965,962,962,962,962,962,959,959,959,959,959,959,956,959,959,959,959,959,959,962,962,962,965,965,968.5,968.5,971.5,971.5,974.5,974.5,974.5,974.5,974.5,974.5,977.5,977.5,977.5,977.5,977.5,977.5,977.5,977.5,974.5,974.5,974.5,974.5,974.5,974.5,974.5,977.5,977.5,977.5,977.5,977.5,977.5,977.5,977.5,974.5,974.5,974.5,974.5,974.5,977.5,977.5,980.5,980.5,983.5,983.5,983.5,983.5,983.5,983.5,983.5,983.5,980.5,980.5,980.5,980.5,977.5,977.5,977.5,977.5,974.5,974.5,974.5,971.5,971.5,968.5,968.5,968.5,968.5,968.5,971.5,971.5,971.5,974.5,974.5,977.5,980.5,980.5,980.5,983.5,983.5,980.5,980.5,977.5,977.5,974.5,971.5,968.5,968.5,968.5,968.5,968.5,968.5,965,965,968.5,968.5,968.5,968.5,968.5,968.5,971.5,971.5,974.5,974.5,974.5,977.5,980.5,980.5,983.5,987,987,987,987,987,983.5,983.5,983.5,983.5,980.5,977.5,977.5,977.5,977.5,974.5,974.5,974.5,977.5,977.5,980.5,980.5,980.5,983.5,983.5,983.5,983.5,2406,2396.5,2383.5,2377,2361.5,2346,2334,2319,2307,2295.5,2286.5,2281,2275,2275,965,965,968.5,968.5,968.5,971.5,971.5,971.5,971.5,2276,2276,2276,2270.5,2270.5,2265,2270.5,2270.5,2270.5,2267.5,2273,2284.5,2293,2304.5,2328,2343,2358.5,2377.5,2400,2420,2440.5,2455,2465,2490,2500.5,2515.5,2526.5,2545,2553,2569,2585.5,2593.5,2616,2642.5,2675.5,2700.5,2714,974.5,971.5,968.5,965,965,962,962,959,959,959,959,959,962,962,962,962,962,965,965,968.5,968.5,968.5,971.5,971.5,971.5,971.5,971.5,971.5,971.5,971.5,971.5,968.5,968.5,968.5,965,962,962,962,959,956,953.5,953.5,950.5,950.5,950.5,947.5,947.5,944.5,947.5,947.5,950.5,953.5,953.5,959,962,965,968.5,971.5,977.5,977.5,980.5,980.5,980.5,980.5,980.5,977.5,974.5,971.5,968.5,962,959,959,959,959,959,959,956,956,959,959,959,959,959,959,962,962,959,959,962,962,962,962,962,962,962,962,962,959,956,953.5,953.5,953.5,956,956,953.5,953.5,953.5,953.5,956,956,956,959,962,962,965,968.5,971.5,974.5,974.5,977.5,977.5,977.5,977.5,974.5,971.5,968.5,965,962,959,959,956,956,959,959,959,962,965,965,968.5,971.5,974.5,974.5,974.5,974.5,974.5,974.5,974.5,977.5,980.5,980.5,983.5,987,987,990,993,993,996.5,996.5,993,993,987,983.5,980.5,974.5,974.5,968.5,965,962,959,956,956,953.5,953.5,953.5,953.5,953.5,956,959,959,962,965,968.5,971.5
0,0,0,0,0,0,0,0,0,0,0,0,0,0,0,0,0,0,0,959,962,962,965,965,965,968.5,971.5,971.5,974.5,974.5,977.5,977.5,977.5,974.5,974.5,974.5,974.5,974.5,971.5,971.5,968.5,968.5,968.5,968.5,965,1955,962,1958.5,1955.5,1952.5,1955.5,1959,1956.5,1956.5,1950,1946.5,1940.5,1931,1922,1909.5,950.5,1875,1861,938.5,936,930,1817,1809,1804,1801,1796,1790.5,1788,1783,1781,1778.5,1773,1770.5,1768,1765.5,1763,1763,1763,1762.5,1765,1765,1767.5,1765,1764.5,1764.5,1767,1764.5,1762,1762,1762,1762,1762,1767.5,1767.5,1767.5,1770,1770,1775,1777.5,1780,1782.5,1785,1787.5,1787.5,1790,1792.5,1792.5,1792.5,1795.5,1798,1798,1798,1803.5,1806,1808.5,1811,1811,1814,1814,1814,1814,1819.5,1819.5,1819.5,1824.5,1827.5,1832.5,1835.5,1838.5,1841,1841,1841,1841,1844,1844,1844,1844,1844,1844,1846.5,1846.5,1846.5,1846.5,1846.5,1846.5,1852,1852,1852,1849,1846.5,1849,1849,1852,1849,1849.5,1849.5,1852,1852,1857.5,1860.5,1860.5,1858,1855,1857.5,1857.5,1860.5,1860.5,1863,1863,1866,1866,1866,1866,1866,1863.5,1863.5,1860.5,1860.5,1863,1866,1869,1871.5,1877.5,1883.5,1886.5,1889.5,1892,1892,1894.5,1892,1892,953.5,950.5,950.5,953.5,953.5,953.5,956,959,962,962,968.5,968.5,968.5,968.5,971.5,974.5,1913,1910.5,974.5,974.5,974.5,974.5,974.5,974.5,974.5,974.5,974.5,974.5,971.5,971.5,968.5,968.5,965,965,962,962,962,962,962,959,959,959,959,956,959,959,959,959,962,962,962,962,962,965,965,968.5,968.5,968.5,968.5,971.5,971.5,971.5,974.5,974.5,974.5,974.5,974.5,974.5,974.5,974.5,974.5,977.5,977.5,977.5,974.5,974.5,974.5,974.5,974.5,974.5,974.5,974.5,977.5,977.5,977.5,977.5,977.5,980.5,977.5,977.5,974.5,974.5,974.5,974.5,974.5,977.5,977.5,980.5,980.5,983.5,983.5,983.5,983.5,983.5,983.5,983.5,983.5,980.5,980.5,980.5,980.5,977.5,977.5,977.5,974.5,974.5,971.5,971.5,971.5,971.5,968.5,968.5,968.5,968.5,968.5,971.5,971.5,974.5,974.5,977.5,980.5,980.5,983.5,983.5,987,983.5,983.5,980.5,980.5,980.5,977.5,974.5,971.5,968.5,968.5,971.5,968.5,968.5,968.5,965,968.5,968.5,968.5,968.5,968.5,968.5,968.5,971.5,971.5,974.5,974.5,977.5,980.5,980.5,983.5,987,987,983.5,987,987,987,983.5,983.5,983.5,980.5,977.5,977.5,977.5,974.5,974.5,971.5,971.5,971.5,974.5,974.5,974.5,974.5,974.5,977.5,977.5,977.5,977.5,2409.5,2393.5,2380.5,2367.5,2352,2340,2319,2313,2298,2286.5,2281,2275,2275,2269.5,965,968.5,968.5,968.5,971.5,971.5,971.5,971.5,2279,2279,2273.5,2273.5,2265,2265,2265,2268,2260,2260,2270.5,2281.5,2290.5,2296,2313,2331,2349,2367.5,2387,2403.5,2420,974.5,974.5,2479.5,2487,2505,2512.5,2531,2546.5,2554.5,2562.5,983.5,983.5,983.5,980.5,980.5,974.5,974.5,971.5,968.5,968.5,965,962,962,962,962,962,962,959,962,962,962,962,962,962,962,965,968.5,968.5,968.5,968.5,968.5,968.5,968.5,968.5,968.5,968.5,968.5,968.5,965,965,962,962,962,959,956,953.5,953.5,950.5,947.5,947.5,947.5,947.5,947.5,944.5,944.5,947.5,947.5,950.5,950.5,956,959,962,965,968.5,974.5,977.5,977.5,980.5,980.5,980.5,980.5,980.5,974.5,971.5,968.5,965,962,962,962,962,959,962,962,962,962,965,965,965,965,965,965,965,965,965,965,968.5,968.5,965,965,965,962,962,962,959,959,956,956,956,956,956,956,956,956,956,956,956,956,959,962,962,962,968.5,968.5,974.5,974.5,974.5,974.5,974.5,974.5,971.5,968.5,965,962,959,959,956,956,953.5,956,956,959,962,965,965,968.5,968.5,971.5,971.5,971.5,974.5,974.5,974.5,974.5,974.5,977.5,980.5,980.5,987,987,990,993,996.5,996.5,996.5,993,990,987,980.5,977.5,971.5,968.5,965,962,959,953.5,953.5,953.5,950.5,950.5,950.5,950.5,950.5,953.5,956,959,959,962,965,971.5
0,0,0,0,0,0,0,0,0,0,0,0,0,0,0,0,0,962,962,962,965,965,965,968.5,971.5,971.5,974.5,974.5,977.5,977.5,977.5,977.5,977.5,977.5,974.5,974.5,974.5,974.5,974.5,971.5,971.5,968.5,968.5,968.5,968.5,965,962,962,959,959,1955.5,1956.5,953.5,953.5,953.5,953.5,953.5,953.5,950.5,953.5,953.5,950.5,1856,1847.5,938.5,1825.5,1820,1815,1807,1801.5,1798.5,1796,1791,1789,1786.5,1783.5,1778.5,1776,1773.5,1768.5,1765.5,1763,1763,1768,1768,1768,1767.5,1767.5,1765,1767,1764.5,1762,1759.5,1754,1754,1754,1756.5,1757,1759.5,1759.5,1759.5,1759.5,1764.5,1767,1770,1770,1777.5,1777.5,1780,1782.5,1782.5,1785,1787.5,1790,1792.5,1795.5,1795.5,1798,1803.5,1806,1808.5,1811,1811,1811,1808.5,1808.5,1811.5,1814,1816.5,1822,1822,1827.5,1830,1832.5,1835.5,1838.5,1835.5,1835.5,1838,1838,1838,1835.5,1838.5,1838.5,1838.5,1841,1841,1841,1841,1841,1843.5,1846.5,1846.5,1844,1844,1841,1841,1841,1841,1841,1843.5,1843.5,1846.5,1852,1852,1852,1852,1846.5,1849.5,1852,1854.5,1857.5,1855,1855,1857.5,1857.5,1860.5,1860.5,1860.5,1860.5,1857.5,1857.5,1857.5,1857.5,1860.5,1863,1863,1866,1874.5,1877.5,1880.5,1883.5,1886.5,1886.5,950.5,950.5,950.5,947.5,947.5,950.5,950.5,953.5,953.5,956,959,962,962,965,1910,968.5,968.5,1910,1910.5,1907.5,1904.5,1902,974.5,974.5,977.5,977.5,974.5,974.5,974.5,974.5,974.5,971.5,968.5,968.5,965,962,962,959,959,962,959,959,959,959,959,959,959,959,959,962,962,962,965,965,968.5,968.5,968.5,968.5,968.5,968.5,971.5,971.5,971.5,971.5,971.5,971.5,971.5,971.5,971.5,974.5,974.5,974.5,974.5,974.5,974.5,974.5,974.5,974.5,974.5,974.5,974.5,974.5,974.5,974.5,977.5,977.5,977.5,977.5,977.5,980.5,980.5,977.5,977.5,977.5,977.5,977.5,974.5,977.5,977.5,980.5,980.5,980.5,983.5,983.5,983.5,983.5,983.5,983.5,983.5,980.5,980.5,980.5,980.5,977.5,977.5,977.5,974.5,974.5,971.5,971.5,971.5,971.5,971.5,968.5,968.5,968.5,971.5,971.5,974.5,974.5,977.5,977.5,980.5,980.5,983.5,983.5,987,987,983.5,983.5,980.5,980.5,980.5,977.5,974.5,971.5,971.5,971.5,971.5,971.5,971.5,968.5,971.5,968.5,968.5,968.5,965,965,968.5,968.5,971.5,971.5,974.5,974.5,977.5,980.5,983.5,983.5,983.5,983.5,983.5,987,987,987,983.5,983.5,980.5,977.5,977.5,977.5,974.5,971.5,968.5,968.5,968.5,968.5,968.5,968.5,968.5,971.5,971.5,971.5,971.5,971.5,2417,2406.5,971.5,2377.5,2358.5,2340,2325,2313,2295.5,2286.5,2281,2275,2269.5,2269.5,965,965,968.5,968.5,971.5,971.5,971.5,974.5,974.5,2273.5,2273.5,2268,2268,2268,2263,2263,2257.5,2260,2263,2270.5,2279,2284.5,2296,2319,2340,2352,2364.5,2390.5,2397,2417,971.5,2462,2476.5,2491.5,2502,2520,2528,2543.5,2551.5,980.5,980.5,980.5,980.5,980.5,974.5,974.5,971.5,971.5,968.5,965,965,962,962,962,962,962,962,962,962,962,962,962,962,962,962,962,962,965,965,968.5,968.5,968.5,968.5,968.5,965,965,965,962,962,962,959,959,956,956,953.5,950.5,947.5,947.5,947.5,947.5,947.5,944.5,947.5,947.5,947.5,950.5,950.5,950.5,953.5,956,959,962,965,968.5,974.5,974.5,974.5,974.5,977.5,977.5,977.5,974.5,971.5,968.5,965,965,965,965,965,965,965,965,965,965,968.5,971.5,971.5,971.5,971.5,971.5,974.5,971.5,971.5,971.5,968.5,968.5,968.5,965,965,965,965,965,962,959,959,959,956,959,959,959,959,956,956,959,959,959,959,959,959,962,965,968.5,968.5,968.5,968.5,971.5,971.5,968.5,968.5,965,962,959,956,953.5,953.5,953.5,953.5,953.5,953.5,959,959,962,965,965,968.5,968.5,971.5,971.5,968.5,971.5,971.5,971.5,974.5,974.5,977.5,980.5,983.5,987,990,993,996.5,996.5,996.5,990,987,980.5,977.5,971.5,968.5,965,959,959,953.5,950.5,950.5,950.5,950.5,947.5,950.5,950.5,950.5,953.5,956,959,959,962,965,968.5
