287.183,287.044,286.981,286.932,286.865,286.748,286.67,286.736,286.758,286.816,286.865,286.898,286.928,286.92,286.977,286.968,286.958,286.97,286.972,286.99,287.007,287.03,287.11,287.456,287.889,287.97,288.151,288.849,288.953,289.051,289.511,289.894,289.957,290.024,290.409,290.92,291.175,291.707,292.047,292.459,292.894,293.13,293.53,293.937,294.273,294.665,295.076,295.57,296.107,296.7,297.318,298.051,298.478,299.15,300.043,300.758,301.074,301.525,301.939,80.724,121.268,203.663,280.78,297.536,306.587,307.273,308.1,309.049,310.173,311.221,312.43,313.942,315.211,316.455,317.565,318.45,319.451,320.571,320.924,148.912,121.521,0.325,70,645,959,978,1000,1000,1000,1000,1000,1000,1000,1000,1000,1000,1000,1000,1000,1000,1000,1000,1000,1000,1000,1000,1000,1000,1000,1000,1000,1000,1000,1000,1000,1000,1000,1000,1000,1000,1000,1000,1000,1000,1000,1000,1000,1000,1000,1000,1000,1000,1000,1000,1000,1000,1000,1000,1000,1000,1000,1000,1000,1000,1000,1000,1000,1000,1000,1000,1000,1000,1000,1000,1000,1000,1000,1000,1000,1000,1000,1000,1000,1000,1000,1000,1000,1000,1000,1000,1000,1000,1000,1000,1000,1000,1000,1000,1000,1000,1000,1000,1000,1000,1000,1000,1000,1000,1000,1000,1000,1000,1000,1000,1000,1000,1000,1000,1000,1000,1000,1000,1000,1000,1000,1000,1000,1000,1000,1000,1000,1000,1000,1000,1000,1000,1000,1000,1000,1000,1000,1000,1000,1000,1000,1000,1000,1000,1000,1000,1000,1000,1000,1000,1000,1000,1000,1000,1000,1000,1000,1000,1000,1000,1000,1000,1000,1000,1000,1000,1000,1000,1000,1000,1000,1000,1000,1000,1000,1000,1000,1000,1000,1000,1000,1000,1000,1000,1000,1000,1000,1000,1000,1000,1000,1000,1000,1000,1000,1000,1000,1000,1000,1000,1000,1000,1000,1000,1000,1000,1000,1000,1000,1000,1000,1000,1000,1000,1000,1000,1000,1000,1000,1000,1000,1000,1000,1000,1000,1000,1000,1000,1000,1000,1000,1000,1000,1000,1000,1000,1000,1000,1000,1000,1000,1000,1000,1000,1000,1000,1000,1000,1000,1000,1000,1000,1000,1000,1000,1000,453,54,0,0,0,0,0,0,0,0,36.987,441.289,955.088,973.144,973.461,973.992,974.7,975.299,975.51,975.573,975.294,974.569,973.439,972.766,971.66,969.47,967.816,966.245,964.719,963.526,962.5,961.935,961.637,961.706,962.098,962.885,963.956,964.994,965.998,967.138,968.201,969.136,970.058,971.009,971.668,972.135,972.545,972.786,972.706,972.773,972.702,972.507,972.322,971.969,971.103,969.739,968.016,966.009,963.145,959.641,955.354,907.335,941.597,940.739,936.547,932.599,928.895,925.37,922.707,920.765,919.54,918.757,918.368,917.81,917.491,917.161,917.235,917.065,917.005,917.002,916.749,916.427,916.176,915.967,915.863,915.633,915.723,916.027,916.13,916.433,916.763,917.313,917.672,918.094,918.756,919.473,919.561,919.949,920.232,920.472,920.508,920.63,920.832,920.795,920.788,920.736,920.765,920.809,920.932,921.146,921.258,921.217,921.163,921.06,920.99,920.622,920.03,918.809,917.742,917.201,916.637,916.046,915.438,914.427,913.398,912.511,912.015,911.052,909.659,908.278,906.787,905.421,904.289,903.372,902.537,901.891,901.564,901.727,903.041,904.765,906.912,909.6,913.243,917.922,923.76,930.907,938.437,945.292,952.108,959.148,965.923,971.547,976.058,979.665,982.226,984.011,984.706,984.742,983.812,982.454,981.037,979.723,978.481,977.754,977.504,977.748,978.481,979.855,981.581,983.348,984.815,986.4,987.51,988.553,989.532,1000,1000,989.922,989.144,988.189,987.034,985.902,984.678,983.416,982.075,980.953,979.867,978.735,977.519,975.237,973.765,973.226,971.686,970.29,969.203,968.089,967.206,966.428,965.55,964.763
287.334,287.113,287.024,286.979,286.929,286.845,286.731,286.685,286.655,286.676,286.73,286.775,286.84,286.892,286.933,286.938,286.919,286.923,286.936,286.969,287.008,287.045,287.17,287.51,287.902,287.973,288.225,288.903,288.974,289.105,289.531,289.895,289.961,290.031,290.459,290.934,291.205,291.726,292.039,292.46,292.899,293.166,293.629,294.045,294.373,294.785,295.172,295.656,296.162,296.763,297.355,298.059,287.686,258.246,288.536,300.476,300.928,301.281,301.784,283.158,148.151,234.617,299.015,305.728,306.557,307.291,308.199,308.819,309.613,310.966,312.511,313.913,315.103,315.97,308.512,313.869,318.381,320.453,321.115,274.489,58.533,0.972,55,474,893,983,1000,988,1000,1000,1000,1000,1000,1000,1000,1000,1000,1000,1000,1000,1000,1000,1000,1000,1000,1000,1000,1000,1000,1000,1000,1000,1000,1000,1000,1000,1000,1000,1000,1000,1000,1000,1000,1000,1000,1000,1000,1000,1000,1000,1000,1000,1000,1000,1000,1000,1000,1000,1000,1000,1000,1000,1000,1000,1000,1000,1000,1000,1000,1000,1000,1000,1000,1000,1000,1000,1000,1000,1000,1000,1000,1000,1000,1000,1000,1000,1000,1000,1000,1000,1000,1000,1000,1000,1000,1000,1000,1000,1000,1000,1000,1000,1000,1000,1000,1000,1000,1000,1000,1000,1000,1000,1000,1000,1000,1000,1000,1000,1000,1000,1000,1000,1000,1000,1000,1000,1000,1000,1000,1000,1000,1000,1000,1000,1000,1000,1000,1000,1000,1000,1000,1000,1000,1000,1000,1000,1000,1000,1000,1000,1000,1000,1000,1000,1000,1000,1000,1000,1000,1000,1000,1000,1000,1000,1000,1000,1000,1000,1000,1000,1000,1000,1000,1000,1000,1000,1000,1000,1000,1000,1000,1000,1000,1000,1000,1000,1000,1000,1000,1000,1000,1000,1000,1000,1000,1000,1000,1000,1000,1000,1000,1000,1000,1000,1000,1000,1000,1000,1000,1000,1000,1000,1000,1000,1000,1000,1000,1000,1000,1000,1000,1000,1000,1000,1000,1000,1000,1000,1000,1000,1000,1000,1000,1000,1000,1000,1000,1000,1000,1000,1000,1000,1000,1000,1000,1000,1000,1000,1000,1000,1000,1000,1000,1000,1000,1000,1000,1000,1000,973,390,0,0,0,0,0,0,0,0,3.884,610.337,968.648,969.302,969.348,970.193,971.059,971.82,972.165,972.332,972.297,971.949,971.155,969.954,968.592,966.967,964.802,962.777,960.697,958.838,957.301,956.032,955.378,954.924,955.006,955.366,956.032,956.74,957.81,958.98,960.216,961.408,962.482,963.541,964.622,965.424,966.006,966.474,966.682,966.664,966.787,966.728,966.64,966.437,966.033,965.049,963.6,961.87,959.734,956.894,953.395,943.488,932.156,940.109,935.743,932.161,928.666,925.529,922.466,920.234,918.745,917.772,917.118,916.847,916.513,916.329,916.06,916.126,915.988,915.953,915.905,915.587,915.222,914.881,914.469,914.229,913.922,913.876,914.084,914.093,914.273,914.545,914.965,915.28,915.679,916.192,916.934,917.064,917.443,917.729,918.126,918.256,918.537,918.731,918.796,918.8,918.711,918.761,918.835,918.865,918.975,918.955,918.867,918.744,918.556,918.4,918.005,917.35,916.163,915.151,914.544,913.927,913.413,912.877,911.921,910.895,909.969,909.369,908.436,907.083,905.81,904.468,903.11,902.105,901.319,900.598,899.996,899.643,899.627,900.524,901.834,903.534,905.693,908.92,913.195,918.797,926.129,934.158,942.073,950.083,958.456,965.63,973.227,978.392,982.481,985.329,987.184,987.947,987.914,987.027,985.547,983.951,982.554,981.281,980.545,980.235,980.417,981.002,982.3,983.846,985.442,986.866,988.212,989.158,989.983,1000,1000,1000,1000,989.592,988.478,987.209,985.882,984.501,983.091,981.718,980.398,979.059,977.804,976.453,975.046,973.573,972.031,970.555,969.167,968.111,967.124,966.277,965.613,964.841,964.098
287.668,287.349,287.113,287.025,286.976,286.93,286.85,286.772,286.719,286.696,286.715,286.741,286.768,286.828,286.867,286.88,286.848,286.88,286.884,286.957,287.024,287.079,287.204,287.53,287.887,287.983,288.26,288.858,288.968,289.077,289.424,289.838,289.952,290.025,290.356,290.904,291.134,291.623,291.981,292.354,292.867,293.168,293.705,294.117,294.452,294.845,295.219,295.689,296.205,296.751,297.31,297.923,227.486,243.692,279.054,300.077,300.632,301.012,301.495,302.022,302.809,303.758,304.705,305.666,306.587,307.374,308.289,309.219,309.982,311.31,312.526,313.855,314.976,305.696,285.883,309.935,317.699,320.383,320.054,260.524,63.39,6.492,22,271,631,923,968,964,1000,1000,1000,1000,1000,1000,1000,1000,1000,1000,1000,1000,1000,1000,1000,1000,1000,1000,1000,1000,1000,1000,1000,1000,1000,1000,1000,1000,1000,1000,1000,1000,1000,1000,1000,1000,1000,1000,1000,1000,1000,1000,1000,1000,1000,1000,1000,1000,1000,1000,1000,1000,1000,1000,1000,1000,1000,1000,1000,1000,1000,1000,1000,1000,1000,1000,1000,1000,1000,1000,1000,1000,1000,1000,1000,1000,1000,1000,1000,1000,1000,1000,1000,1000,1000,1000,1000,1000,1000,1000,1000,1000,1000,1000,1000,1000,1000,1000,1000,1000,1000,1000,1000,1000,1000,1000,1000,1000,1000,1000,1000,1000,1000,1000,1000,1000,1000,1000,1000,1000,1000,1000,1000,1000,1000,1000,1000,1000,1000,1000,1000,1000,1000,1000,1000,1000,1000,1000,1000,1000,1000,1000,1000,1000,1000,1000,1000,1000,1000,1000,1000,1000,1000,1000,1000,1000,1000,1000,1000,1000,1000,1000,1000,1000,1000,1000,1000,1000,1000,1000,1000,1000,1000,1000,1000,1000,1000,1000,1000,1000,1000,1000,1000,1000,1000,1000,1000,1000,1000,1000,1000,1000,1000,1000,1000,1000,1000,1000,1000,1000,1000,1000,1000,1000,1000,1000,1000,1000,1000,1000,1000,1000,1000,1000,1000,1000,1000,1000,1000,1000,1000,1000,1000,1000,1000,1000,1000,1000,1000,1000,1000,1000,1000,1000,1000,1000,1000,1000,1000,1000,1000,1000,1000,1000,1000,1000,1000,1000,1000,1000,1000,957,486,122,0,0,0,0,0,0,1.941,41.705,497.361,966.874,967.031,967.137,967.956,968.617,968.944,969.023,969.185,969.014,968.444,967.136,965.983,964.35,962.376,960.13,957.256,956.174,954.224,952.693,951.404,950.573,950.005,949.95,950.077,950.641,951.382,952.154,953.28,954.099,955.337,956.547,957.75,958.968,959.87,960.581,961.137,961.301,961.265,961.401,961.395,961.231,961.038,960.526,959.479,957.851,956.02,953.819,951.006,946.674,938.917,939.437,935.29,931.536,928.229,925.283,922.515,919.851,918.093,916.9,916.063,915.562,915.438,915.286,915.243,915.059,915.118,914.964,914.878,914.781,914.426,913.961,913.471,912.88,912.439,912.014,911.82,911.848,911.765,911.812,911.923,912.27,912.549,912.929,913.539,914.452,914.517,914.892,915.326,915.853,916.051,916.415,916.72,916.801,916.858,916.686,916.73,916.744,916.7,916.706,916.526,916.307,916.024,915.767,915.55,915.083,914.357,913.239,912.323,911.664,911.01,910.468,909.973,909.144,908.207,907.216,906.505,905.587,904.339,903.167,901.936,900.581,899.609,898.996,898.442,897.905,897.487,897.324,897.853,898.716,900.041,901.859,904.599,908.651,914.035,921.19,929.375,937.721,946.357,953.452,963.319,971.779,977.458,981.828,984.915,986.736,987.514,987.541,986.731,985.338,983.731,982.325,981.136,980.579,980.367,980.648,981.266,982.567,984.118,985.658,986.988,988.22,988.956,989.654,1000,1000,1000,989.855,988.967,987.858,986.509,985.126,983.604,982.12,980.652,979.169,977.628,976.196,974.701,973.196,971.751,970.338,968.869,967.557,966.66,965.786,965.112,964.569,963.867,963.204
287.889,287.682,287.383,287.153,287.026,286.981,286.919,286.837,286.764,286.684,286.658,286.658,286.665,286.728,286.764,286.767,286.738,286.797,286.837,286.943,287.035,287.115,287.288,287.556,287.858,287.724,288.314,287.334,288.955,289.062,289.295,289.709,289.932,289.997,290.237,290.824,291.065,291.456,291.921,292.203,292.784,293.12,293.685,294.136,294.487,294.875,295.243,295.709,296.21,296.713,297.234,297.801,297.487,295.363,299.146,299.97,300.404,300.903,301.387,301.936,302.736,303.66,304.615,305.555,306.482,307.311,308.246,307.644,309.332,311.297,312.512,313.806,314.931,316.077,314.081,317.555,319.295,320.369,320.955,213.429,52.694,8.76,2,102,381,728,922,951,1000,1000,1000,1000,1000,1000,1000,1000,1000,1000,1000,1000,1000,1000,1000,1000,1000,1000,1000,1000,1000,1000,1000,1000,1000,1000,1000,1000,1000,1000,1000,1000,1000,1000,1000,1000,1000,1000,1000,1000,1000,1000,1000,1000,1000,1000,1000,1000,1000,1000,1000,1000,1000,1000,1000,1000,1000,1000,1000,1000,1000,1000,1000,1000,1000,1000,1000,1000,1000,1000,1000,1000,1000,1000,1000,1000,1000,1000,1000,1000,1000,1000,1000,1000,1000,1000,1000,1000,1000,1000,1000,1000,1000,1000,1000,1000,1000,1000,1000,1000,1000,1000,1000,1000,1000,1000,1000,1000,1000,1000,1000,1000,1000,1000,1000,1000,1000,1000,1000,1000,1000,1000,1000,1000,1000,1000,1000,1000,1000,1000,1000,1000,1000,1000,1000,1000,1000,1000,1000,1000,1000,1000,1000,1000,1000,1000,1000,1000,1000,1000,1000,1000,1000,1000,1000,1000,1000,1000,1000,1000,1000,1000,1000,1000,1000,1000,1000,1000,1000,1000,1000,1000,1000,1000,1000,1000,1000,1000,1000,1000,1000,1000,1000,1000,1000,1000,1000,1000,1000,1000,1000,1000,1000,1000,1000,1000,1000,1000,1000,1000,1000,1000,1000,1000,1000,1000,1000,1000,1000,1000,1000,1000,1000,1000,1000,1000,1000,1000,1000,1000,1000,1000,1000,1000,1000,1000,1000,1000,1000,1000,1000,1000,1000,1000,1000,1000,1000,1000,1000,1000,1000,1000,1000,1000,1000,1000,1000,1000,1000,981,931,801,457,88,0,0,0,0,0,1.964,12.628,163.538,705.323,895.29,965.931,965.55,966.124,966.644,966.369,966.321,966.087,965.652,965.091,963.66,962.398,960.647,958.612,956.476,954.54,952.4,950.465,948.957,947.852,946.941,946.386,946.236,946.268,946.477,947.08,947.546,948.529,949.772,950.988,951.973,953.278,953.977,954.887,955.626,956.232,956.409,956.385,956.509,956.449,956.234,955.968,954.347,953.174,952.37,950.454,947.301,945.48,942.165,938.483,934.544,930.92,927.454,924.651,921.963,919.585,917.427,916.044,915.074,914.377,914,913.943,913.943,913.992,913.869,913.894,913.739,913.619,913.436,912.943,912.348,911.766,910.988,910.43,909.886,909.524,909.474,909.37,909.399,909.526,909.855,910.155,910.614,911.26,912.124,912.271,912.699,913.231,913.78,914.103,914.452,914.787,914.844,914.898,914.682,914.594,914.477,914.323,914.203,913.886,913.563,913.171,912.793,912.471,911.919,911.21,910.059,909.206,908.54,907.907,907.323,906.962,906.171,905.237,904.273,903.462,902.53,901.341,900.293,899.135,897.839,896.918,896.476,896.086,895.603,895.157,894.891,895.103,895.759,896.694,898.089,900.475,904.224,909.702,916.968,925.291,934.04,942.954,952.311,959.727,969.523,975.282,979.549,982.628,984.427,985.353,985.625,985.149,983.925,982.597,981.418,980.475,980.113,980.057,980.486,981.239,982.455,984.017,985.538,986.731,987.774,988.322,988.825,989.321,989.554,989.313,988.863,988.083,986.889,985.552,984.197,982.641,981.079,979.512,977.768,976.062,974.441,972.823,971.268,969.799,968.49,967.216,966.027,965.289,964.623,964.083,963.669,963.111,962.553
288.011,287.857,287.659,287.413,287.174,287.047,286.971,286.885,286.789,286.701,286.64,286.607,286.604,286.629,286.637,286.641,286.651,286.717,286.819,286.941,287.07,287.191,287.385,287.626,287.865,288.061,288.369,288.395,288.9,289.032,289.206,289.531,289.552,288.815,289.562,290.607,290.976,291.273,291.755,292.104,292.695,293.081,293.671,294.118,294.503,294.889,295.264,295.723,296.191,296.644,297.163,297.666,298.229,298.877,299.255,299.903,300.291,300.871,301.378,301.967,302.73,303.609,304.528,305.477,306.408,307.273,295.607,213.395,261.552,293.864,309.104,313.859,314.965,316.156,317.388,318.368,319.475,320.541,320.487,126.568,54.325,5.52,0,12,149,541,787,914,1000,1000,1000,1000,1000,1000,1000,1000,1000,1000,1000,1000,1000,1000,1000,1000,1000,1000,1000,1000,1000,1000,1000,1000,1000,1000,1000,1000,1000,1000,1000,1000,1000,1000,1000,1000,1000,1000,1000,1000,1000,1000,1000,1000,1000,1000,1000,1000,1000,1000,1000,1000,1000,1000,1000,1000,1000,1000,1000,1000,1000,1000,1000,1000,1000,1000,1000,1000,1000,1000,1000,1000,1000,1000,1000,1000,1000,1000,1000,1000,1000,1000,1000,1000,1000,1000,1000,1000,1000,1000,1000,1000,1000,1000,1000,1000,1000,1000,1000,1000,1000,1000,1000,1000,1000,1000,1000,1000,1000,1000,1000,1000,1000,1000,1000,1000,1000,1000,1000,1000,1000,1000,1000,1000,1000,1000,1000,1000,1000,1000,1000,1000,1000,1000,1000,1000,1000,1000,1000,1000,1000,1000,1000,1000,1000,1000,1000,1000,1000,1000,1000,1000,1000,1000,1000,1000,1000,1000,1000,1000,1000,1000,1000,1000,1000,1000,1000,1000,1000,1000,1000,1000,1000,1000,1000,1000,1000,1000,1000,1000,1000,1000,1000,1000,1000,1000,1000,1000,1000,1000,1000,1000,1000,1000,1000,1000,1000,1000,1000,1000,1000,1000,1000,1000,1000,1000,1000,1000,1000,1000,1000,1000,1000,1000,1000,1000,1000,1000,1000,1000,1000,1000,1000,1000,1000,1000,1000,1000,1000,1000,1000,1000,1000,1000,1000,1000,1000,1000,1000,1000,1000,1000,1000,1000,1000,1000,1000,1000,963,927,832,587,212,4,0,0,0,0,0,1.962,25.147,326.41,840.102,944.719,963.78,963.467,963.9,963.991,963.72,963.307,962.847,962.43,961.848,960.733,959.423,957.558,955.48,953.441,951.403,949.415,947.637,946.122,944.891,943.91,943.324,943.2,943.082,943.202,943.693,944.204,945.107,946.186,947.012,948.085,949.338,950.476,951.426,952.211,952.599,952.725,952.719,952.804,952.626,952.265,951.869,950.905,949.381,947.578,944.498,943.417,939.938,936.737,934.259,930.645,927.385,924.449,921.964,919.664,917.547,915.74,914.601,913.739,913.137,912.892,912.872,912.42,912.46,912.427,912.426,912.244,912.138,911.883,911.313,910.665,909.996,909.289,908.688,908.164,907.809,907.653,907.537,907.54,907.677,908.021,908.367,908.741,909.354,909.915,910.206,910.635,911.229,911.942,912.266,912.674,913.003,913.004,912.899,912.817,912.597,912.335,911.909,911.601,911.106,910.644,910.129,909.68,909.262,908.633,907.827,906.733,905.888,905.196,904.5,903.875,903.702,903.105,902.176,901.141,900.331,899.364,898.353,897.458,896.498,895.321,894.476,894.177,893.971,893.48,893.012,892.638,892.644,893.046,893.851,894.93,896.913,900.53,906.114,913.603,922.078,931.01,940.099,949.538,959.045,967.112,972.793,976.986,980.006,981.922,983.115,983.829,983.835,983.195,982.298,981.603,980.887,980.742,980.918,981.48,982.252,983.426,984.725,985.998,987.03,987.907,988.287,988.488,988.61,988.571,988.04,987.47,986.509,985.258,983.854,982.515,980.94,979.308,977.714,975.864,974.022,972.34,970.694,969.171,967.765,966.62,965.508,964.491,963.965,963.489,963.143,962.909,962.371,961.943
288.254,288.007,287.826,287.641,287.401,287.183,287.026,286.914,286.814,286.722,286.636,286.591,286.565,286.567,286.574,286.585,286.64,286.725,286.842,286.977,287.112,287.27,287.477,287.714,287.911,288.119,288.418,288.627,288.821,288.972,289.14,289.372,289.101,287.593,289.796,290.398,290.812,291.112,291.559,292.001,292.547,285.688,288.359,294.123,294.567,294.953,295.327,295.776,296.211,296.729,297.168,297.706,298.19,298.855,299.171,299.864,300.251,300.85,301.394,301.994,302.782,303.646,304.546,305.43,306.353,307.255,288.556,261.635,277.063,287.025,310.082,313.884,314.988,316.15,317.486,317.236,319.647,320.719,315.86,76.039,57.97,5.527,0,0,17,221,677,910,970,1000,1000,1000,1000,1000,1000,1000,1000,1000,1000,1000,1000,1000,1000,1000,1000,1000,1000,1000,1000,1000,1000,1000,1000,1000,1000,1000,1000,1000,1000,1000,1000,1000,1000,1000,1000,1000,1000,1000,1000,1000,1000,1000,1000,1000,1000,1000,1000,1000,1000,1000,1000,1000,1000,1000,1000,1000,1000,1000,1000,1000,1000,1000,1000,1000,1000,1000,1000,1000,1000,1000,1000,1000,1000,1000,1000,1000,1000,1000,1000,1000,1000,1000,1000,1000,1000,1000,1000,1000,1000,1000,1000,1000,1000,1000,1000,1000,1000,1000,1000,1000,1000,1000,1000,1000,1000,1000,1000,1000,1000,1000,1000,1000,1000,1000,1000,1000,1000,1000,1000,1000,1000,1000,1000,1000,1000,1000,1000,1000,1000,1000,1000,1000,1000,1000,1000,1000,1000,1000,1000,1000,1000,1000,1000,1000,1000,1000,1000,1000,1000,1000,1000,1000,1000,1000,1000,1000,1000,1000,1000,1000,1000,1000,1000,1000,1000,1000,1000,1000,1000,1000,1000,1000,1000,1000,1000,1000,1000,1000,1000,1000,1000,1000,1000,1000,1000,1000,1000,1000,1000,1000,1000,1000,1000,1000,1000,1000,1000,1000,1000,1000,1000,1000,1000,1000,1000,1000,1000,1000,1000,1000,1000,1000,1000,1000,1000,1000,1000,1000,1000,1000,1000,1000,1000,1000,1000,1000,1000,1000,1000,1000,1000,1000,1000,1000,1000,1000,1000,1000,1000,1000,1000,1000,1000,1000,1000,981,929,783,479,109,0,0,0,0,0,0,0,1.962,32.831,617.892,962.593,961.718,961.585,961.084,961.441,961.4,961.175,960.76,960.287,959.839,959.34,958.301,956.98,955.028,952.742,950.589,948.67,946.706,944.889,943.293,942.035,940.962,940.419,940.401,940.333,940.153,940.568,941.162,942.041,943.16,944.193,945.173,946.141,947.319,948.44,949.184,949.816,949.995,949.897,949.708,949.327,948.732,948.1,946.909,945.211,943.337,941.244,939.116,936.656,933.734,930.497,927.192,924.349,921.737,919.466,917.449,915.609,914.041,912.919,912.135,911.71,911.474,911.401,911.08,911.018,911.028,911.07,911.051,911.118,910.88,910.349,909.71,909.085,908.574,907.924,907.347,906.831,906.386,906.2,906.153,906.31,906.585,906.858,907.196,907.716,908.282,908.708,909.175,909.781,910.447,910.779,911.173,911.47,911.469,911.372,911.14,910.855,910.485,910.106,909.651,908.98,908.354,907.773,907.181,906.557,905.715,904.892,903.651,902.764,901.977,901.196,900.49,900.326,899.912,899.128,898.118,897.3,896.484,895.627,894.981,894.283,893.186,892.556,892.503,892.448,892.108,891.703,891.387,891.225,891.416,891.976,892.83,894.548,898.023,903.464,910.737,919.028,927.794,936.8,946.177,955.67,963.964,969.506,973.662,976.694,978.752,980.361,981.585,982.18,982.157,981.819,981.555,981.092,981.081,981.26,981.646,982.18,983.03,984.065,985.1,985.962,986.732,987.101,987.303,987.396,987.197,986.665,985.971,984.912,983.542,982.19,980.814,979.174,977.45,975.705,973.86,972.067,970.324,968.712,967.191,965.804,964.686,963.751,962.96,962.579,962.337,962.19,962.092,961.75,961.41
288.533,288.215,287.992,287.805,287.606,287.358,287.134,286.972,286.875,286.773,286.693,286.618,286.569,286.546,286.554,286.6,286.677,286.742,286.862,287.019,287.164,287.32,287.542,287.757,287.946,288.185,288.414,288.577,288.723,288.875,289.005,289.202,289.43,289.112,289.65,290.192,290.541,290.902,291.35,291.858,292.387,292.073,291.829,294.09,294.583,294.967,295.33,295.794,296.217,296.719,297.158,297.727,298.136,298.766,299.117,299.715,300.185,300.813,301.36,301.974,302.758,303.579,304.455,305.284,306.239,307.19,307.909,302.745,298.83,307.023,312.645,313.864,314.948,316.099,314.975,318.255,318.74,320.808,310.866,75.792,20.771,0.651,0,0,0,4,75,282,432,594,624,509,563,654,710,906,950,967,966,971,977,972,980,982,978,979,979,975,972,953,895,801,780,841,937,967,957,935,922,940,938,929,882,922,925,928,935,938,928,920,915,936,942,894,800,758,759,856,953,976,984,988,1000,1000,987,974,978,980,987,1000,1000,1000,1000,1000,1000,1000,1000,1000,1000,1000,1000,1000,1000,1000,1000,1000,1000,1000,1000,1000,1000,1000,1000,1000,1000,1000,1000,1000,1000,1000,1000,1000,1000,1000,1000,1000,1000,1000,1000,1000,1000,1000,1000,1000,1000,1000,1000,1000,1000,1000,1000,1000,1000,1000,1000,1000,1000,1000,1000,1000,1000,1000,1000,1000,1000,1000,1000,1000,1000,1000,1000,1000,1000,1000,1000,1000,1000,1000,1000,1000,1000,1000,1000,1000,1000,1000,1000,1000,1000,1000,1000,1000,1000,1000,1000,1000,1000,1000,1000,1000,1000,1000,1000,1000,1000,1000,1000,1000,1000,1000,1000,1000,1000,1000,1000,1000,1000,1000,1000,1000,1000,1000,1000,1000,1000,1000,1000,1000,1000,1000,1000,1000,1000,1000,1000,1000,1000,1000,1000,1000,1000,1000,1000,1000,1000,1000,1000,1000,1000,1000,1000,1000,1000,1000,1000,1000,1000,1000,1000,1000,1000,1000,1000,1000,1000,1000,1000,1000,1000,1000,1000,1000,1000,1000,1000,1000,1000,1000,1000,1000,1000,1000,1000,1000,1000,975,873,525,112,0,0,0,0,0,0,0,0,0.977,7.735,384.088,959.67,959.531,958.869,958.242,958.407,958.37,958.141,957.879,957.468,957.091,956.689,955.729,954.469,952.563,950.298,948.229,946.241,944.367,942.699,941.164,939.777,938.593,938.019,937.88,937.601,937.474,937.771,938.497,939.326,940.253,941.436,942.562,943.624,944.831,945.957,946.762,947.306,947.604,947.528,947.352,946.98,945.405,945.525,944.169,942.419,940.557,938.467,936.414,934.184,931.416,928.26,925.036,922.443,920.104,918.057,916.184,914.458,912.835,911.723,911.04,910.671,910.539,910.555,910.345,910.574,910.594,910.728,910.81,910.87,910.693,910.034,909.398,908.725,908.113,907.514,906.964,906.383,905.809,905.501,905.468,905.571,905.795,905.986,906.286,906.828,907.343,907.499,908.284,908.886,909.554,909.979,910.366,910.633,910.565,910.258,909.916,909.553,909.117,908.611,908.003,907.2,906.458,905.733,904.944,904.163,903.15,902.134,900.999,900.046,899.146,898.317,897.552,897.434,897.14,896.433,895.526,894.755,894.129,893.473,893.01,892.603,891.598,891.101,891.202,891.358,891.142,890.815,890.399,890.279,890.282,890.742,891.466,893.052,896.428,901.662,908.905,917.197,925.821,934.536,943.582,952.593,960.574,965.986,970.149,973.01,975.314,977.461,979.088,980.199,980.685,980.858,980.877,980.854,980.928,981.188,981.515,981.902,982.603,983.32,984.031,984.663,985.416,985.674,985.853,985.841,985.591,984.933,984.238,983.099,981.747,980.412,979.033,977.48,975.763,974.119,972.288,970.483,968.826,967.342,965.855,964.503,963.398,962.449,961.744,961.456,961.32,961.272,961.228,960.96,960.691
288.677,288.389,288.146,287.941,287.731,287.52,287.261,287.053,286.927,286.842,286.758,286.666,286.597,286.578,286.593,286.662,286.723,286.826,286.928,287.058,287.187,287.373,287.58,287.774,287.977,288.173,288.371,288.52,288.651,288.778,288.918,289.096,289.283,289.507,289.804,290.071,290.36,290.724,291.188,291.715,292.244,292.871,293.525,294.033,294.567,294.967,295.3,295.834,296.207,296.789,297.157,297.733,298.121,298.75,299.091,299.63,300.129,300.774,301.316,301.96,302.726,303.515,304.348,305.177,306.155,307.167,308.227,309.277,310.378,311.448,312.685,313.871,314.895,315.131,304.512,316.947,317.089,320.834,312.58,96.19,14.63,1.967,0,0,0,0,0.353,3.523,6.349,17.333,25.413,31.738,36.965,32.407,42.2,64.262,63.883,93.408,82.246,60.524,52.807,65.159,62.449,51.587,88.855,123.847,179.512,202.152,285.812,298.778,265.595,240.095,340.887,307.815,295.744,289.031,286.214,278.938,275.955,271.972,268.714,258.217,186.037,164.855,159.261,144.568,98.813,207.835,181.085,171.468,143.639,110.504,82.367,40.638,2,3.358,6.931,13.428,15.715,18.073,16.357,16,16,14,15,14,15,19,20,20,21,18,18,17,19,19,18,17,64,165,343,330,324,342,326,336,338,340,337,346,352,355,365,377,388,387,394,394,402,397,390,386,376,357,362,347,342,353,308,305,327,290,315,330,341,332,323,318,322,342,348,379,237,161,376,559,586,601,617,620,626,628,638,636,633,635,630,633,644,643,650,650,648,647,652,657,659,666,672,677,678,683,682,677,670,659,594,508,644,633,618,650,669,660,636,638,667,679,700,729,747,765,780,774,746,665,667,753,809,819,826,814,830,829,819,822,817,822,822,800,752,746,758,757,740,731,736,842,907,732,746,756,730,738,743,769,758,726,596,516,575,659,763,780,785,782,806,797,802,832,874,890,902,887,882,881,871,835,851,885,921,931,931,925,912,899,903,923,969,968,966,969,964,967,966,981,985,970,926,933,944,956,952,927,885,772,465,67,0,0,0,0,0,0,0,0,0,0,1.956,42.35,732.042,957.567,956.584,955.376,955.046,954.74,954.522,954.341,954.054,953.82,953.645,952.897,951.964,950.39,948.463,946.432,944.627,942.79,941.086,939.397,937.979,936.661,935.84,935.525,935.108,934.784,935.112,935.712,936.7,937.754,939.03,940.325,941.428,942.596,943.751,944.573,945.118,945.467,945.39,945.195,944.691,943.977,943.102,941.662,939.879,938.004,935.939,933.942,931.852,929.22,926.275,923.217,920.784,918.601,916.67,914.943,913.237,911.647,910.552,909.916,909.518,909.455,909.47,909.547,909.692,909.837,909.829,910.026,910.168,910.053,909.569,908.951,908.244,907.703,907.068,906.506,905.957,905.313,904.974,904.868,904.969,905.093,905.249,905.494,905.98,906.456,906.936,907.196,907.865,908.509,908.931,909.321,909.565,909.371,909.061,908.658,908.122,907.624,907.111,906.337,905.442,904.601,903.778,902.906,901.922,900.784,899.656,898.483,897.552,896.68,895.829,895.225,895.011,894.917,894.353,893.546,892.811,892.14,891.732,891.46,890.983,890.095,889.76,890.026,890.347,890.235,889.953,889.689,889.367,889.312,889.631,890.13,891.504,894.686,899.822,906.995,915.263,923.629,932.073,940.796,949.536,957.398,962.916,967.017,969.895,972.227,974.604,976.688,978.394,979.453,980.077,980.63,980.823,981.107,981.534,981.878,982.171,982.614,983.082,983.635,984.088,984.743,984.963,985.086,985.044,984.704,984.044,983.222,982.08,980.611,979.145,977.762,976.132,974.476,972.8,970.925,969.108,967.508,966.034,964.52,963.212,962.196,961.347,960.757,960.629,960.637,960.71,960.706,960.573,960.282
288.662,288.405,288.16,287.948,287.732,287.517,287.298,287.075,286.95,286.866,286.776,286.697,286.64,286.628,286.646,286.729,286.809,286.871,286.954,287.084,287.225,287.419,287.62,287.818,287.993,288.161,288.321,288.456,288.585,288.68,288.846,289.018,289.194,289.423,289.763,290.04,290.308,290.674,291.133,291.676,292.224,292.882,293.535,294.031,294.576,294.973,295.271,295.872,296.198,296.809,297.146,297.722,298.106,298.702,299.085,299.577,299.504,299.544,301.307,301.991,302.706,303.462,304.304,305.151,306.151,307.191,308.304,309.39,310.494,311.513,312.753,313.79,314.498,316.02,314.912,301.977,229.619,259.63,319.667,111.799,9.104,0,0,0,0.352,1.764,9.169,19.422,30.003,39.123,51.738,34.125,16.517,25.945,82.332,66.913,98.382,111.047,178.375,192.886,191.632,199.201,120.789,144.244,163.567,197.587,260.799,312.662,348.384,355.348,201.324,144.318,357.484,357.766,357.904,357.997,358.054,357.922,357.816,357.743,357.651,357.48,352.533,293.689,313.651,347.483,329.612,340.889,335.536,326.656,316.328,307.804,294.751,261.748,5.361,7.856,245.863,246.394,240.567,246.126,249.911,228.147,239.543,239.896,260.658,266.996,265.874,256.019,251.169,249.951,244.263,243.876,235.585,224.151,196.887,158.286,121.121,64.187,0,0,0,0,9.198,39.975,71.49,108.625,140.747,175.004,199.75,221.307,253.784,277.769,189.527,190.178,188.334,196.014,325.064,329.53,332.565,333.176,335.956,337.396,336.809,336.011,332.974,336.375,333.803,329.265,52.106,50.717,67.791,343.377,338.759,332.079,320.429,272.963,185.325,135.258,127.163,100.882,154.851,108.509,0,0.358,40.386,12.507,15.711,23.185,22.813,24.222,21.356,16.356,6.394,6.733,5.663,7.421,7.059,4.937,3.878,2.464,1.408,1.054,0.702,0.351,0,0,0,0,0,0,0,0,0,0,0.352,0,0,0,0,0.355,4.26,5.319,6.742,1.772,1.771,0.709,0,0,0,0,0,0.353,0,0,0,0,0,0,0.354,0.354,0.354,0.355,0.355,0,0,0,0,0,0,0,1.065,1.425,1.424,0.715,0.715,1.071,1.07,1.784,3.205,4.625,2.846,1.782,1.424,0.712,0.709,0,0.355,0,0.357,0,0,0,0,0,0,0,0,0,0,0,0,0,0,0,0,0,0,0,0,0,0,0,0,0,0,0,0,0,0,0,0,0,0,0,0,0,0,0,0,0,0,0,0,0,0,0,0,0,0,0,0,0,0,0,0,0,0,0,0,2.894,66.289,740.214,955.539,953.905,953.318,952.809,952.445,952.179,952.02,951.872,951.809,951.531,950.951,949.576,947.94,946.015,944.203,942.338,940.677,939.075,937.749,936.363,935.391,934.803,934.279,933.844,934.088,934.484,935.327,936.449,937.67,938.869,940.139,941.296,942.559,943.315,943.901,944.131,943.944,943.611,943.051,942.224,941.139,939.528,937.589,935.729,933.645,931.723,929.814,927.215,924.401,921.468,919.162,916.971,915.02,913.16,911.348,909.786,908.791,908.276,908.049,908.122,908.366,908.778,909.11,909.425,909.532,909.697,909.862,909.681,909.182,908.556,907.769,907.194,906.598,906.085,905.493,904.868,904.52,904.406,904.451,904.543,904.651,904.841,905.263,905.684,906.2,906.44,906.973,907.603,907.999,908.399,908.567,908.305,907.939,907.374,906.817,906.262,905.721,904.865,903.907,902.985,902.217,901.292,900.223,899.056,897.798,896.635,895.888,895.049,894.331,893.594,893.561,893.515,892.887,892.108,891.442,890.751,890.247,890.018,889.664,888.8,888.453,888.939,889.393,889.407,889.249,888.946,888.644,888.598,888.828,889.189,890.368,893.386,898.522,905.556,913.703,920.821,929.783,938.199,946.774,954.621,959.972,963.923,966.74,969.155,971.77,974.245,976.521,978.193,979.307,980.161,980.786,981.419,981.959,982.38,982.558,982.767,982.943,983.307,983.603,984.038,984.198,984.321,984.231,983.776,982.927,982.143,980.834,979.35,977.858,976.429,974.761,972.975,971.351,969.423,967.489,965.824,964.266,962.837,961.553,960.751,960.119,959.674,959.655,959.861,960.043,960.201,960.105,959.876
288.625,288.376,288.154,287.953,287.745,287.528,287.31,287.127,286.985,286.882,286.787,286.71,286.676,286.669,286.676,286.767,286.848,286.903,286.98,287.086,287.234,287.418,287.634,287.814,287.969,288.117,288.278,288.389,288.493,288.614,288.756,288.957,289.134,289.359,289.724,289.999,290.27,290.666,291.121,291.673,292.22,292.88,293.524,294.025,294.542,294.983,295.253,295.863,296.158,296.792,297.144,297.673,298.113,298.664,299.076,299.534,300.096,300.442,301.292,302.023,302.749,303.508,304.349,305.231,306.242,307.26,308.368,309.427,310.513,311.511,312.66,313.64,314.653,315.851,316.354,193.119,117.431,48.831,316.911,60.893,0.982,0.331,0,2.08,9.755,22.796,41.559,59.818,73.17,104.411,129.488,164.786,195.398,210.282,221.319,228.313,260.101,289.863,309.291,321.11,320.66,317.886,316.239,319.959,330.817,338.361,352.164,354.109,355.334,355.907,356.305,356.633,356.921,357.173,357.281,357.387,357.439,357.299,357.167,357.08,357.004,356.05,356.04,328.271,338.928,347.456,349.118,348.351,340.576,332.479,328.59,322.241,315.625,305.857,305.637,306.526,297.292,299.423,299.805,300.955,296.099,268.936,216.426,192.146,120.819,32.391,22.497,112.927,267.08,280.193,285.608,290.777,296.474,303.606,306.123,310.332,287.834,243,22.548,99.87,156.055,208.295,275.118,274.499,277.803,277.962,279.156,280.657,284.577,290.302,297.449,300.64,328.714,336.031,340.188,342.222,333.06,337.56,338.472,337.671,335.875,335.547,336.072,337.793,337.67,339.571,343.976,344.461,10.255,3.897,25.528,351.111,350.449,348.81,347.929,343.54,336.677,328.373,307.19,270.02,227.893,194.138,170.32,166.752,160.012,147.137,128.869,112.39,97.358,97.662,91.912,89.293,68.659,63.61,60.68,66.895,59.43,56.557,53.354,45.935,30.833,3.859,0.701,0.702,2.802,1.055,0,0,0,0,0,0.704,1.056,2.466,4.934,2.469,1.413,0,0,1.766,50.905,65.054,89.116,93.017,109.231,122.847,165.724,103.319,84.569,110.2,126.642,143.827,168.033,188.711,205.481,142.987,129.604,128.153,252.174,252.988,246.018,232.727,220.878,134.764,67.653,83.211,127.24,97.453,66.794,48.11,0,0.357,60.271,89.107,130.238,132.325,138.716,140.467,115.65,0,0,0,158.909,194.239,200.607,201.649,197.098,190.706,180.761,146.38,162.867,221.748,238.104,239.689,227.178,215.35,207.073,201.886,183.293,161.899,146.638,142.711,143.716,143.697,137.654,150.157,157.443,174.826,185.893,194.222,201.217,224.682,246.848,271.227,280.85,288.814,293.639,290.464,293.099,302.065,311.736,322.288,166.769,137.259,154.265,286.639,339.207,322.653,319.839,321.225,298.905,289.975,268.698,249.229,266.351,290.196,301.634,308.6,317.379,314.269,311.836,302.647,302.274,305.793,310.378,298.882,304.659,274.787,251.873,128.332,129.086,88.226,48.28,70.566,83.665,99.015,138.29,179.726,165.748,161.623,140.625,154.96,138.338,127.613,107.946,111.023,118.713,105.184,88.243,85.564,56.577,47.063,39.329,23.124,10.921,6.515,17.693,21.459,16.792,28.084,15.944,38.42,196.315,380.984,550.029,724.962,769.627,371.671,706.656,932.566,940.33,926.186,932.584,935.444,934.299,929.545,928.456,927.567,925.575,923.949,920.969,919.929,917.582,915.288,913.095,911.171,909.405,908.014,907.192,906.868,906.908,907.235,907.787,908.4,908.816,909.106,909.202,909.435,909.57,909.402,908.865,908.137,907.348,906.782,906.159,905.671,904.907,904.286,903.951,903.85,903.851,903.887,903.905,904.086,904.499,904.901,905.343,905.481,906.005,906.608,906.973,907.355,907.465,907.141,906.697,906.058,905.534,904.878,904.376,903.469,902.486,901.547,900.748,899.834,898.801,897.682,896.422,895.376,894.596,893.85,893.202,892.606,892.537,892.436,891.922,891.213,890.442,889.666,889.075,888.743,888.313,887.429,887.136,887.66,888.264,888.473,888.405,888.161,887.893,887.823,888.031,888.298,889.257,892.206,897.258,904.227,912.476,918.533,928.302,936.61,945.159,953.206,958.64,962.387,964.973,967.216,969.848,972.4,974.804,976.683,977.973,979.139,980.145,981.001,981.709,982.152,982.329,982.53,982.423,979.566,982.637,982.901,983.035,983.104,982.99,982.452,981.558,980.68,979.415,977.892,976.372,974.985,973.297,971.567,970.008,968.191,966.355,964.695,963.147,961.818,960.611,959.875,959.291,958.994,959.06,959.351,959.738,959.928,959.901,959.807
288.554,288.325,288.11,287.914,287.718,287.516,287.321,287.119,286.982,286.892,286.776,286.688,286.637,286.638,286.65,286.753,286.848,286.91,286.97,287.072,287.213,287.397,287.571,287.783,287.928,288.077,288.239,288.343,288.457,288.592,288.766,288.953,289.152,289.397,289.76,290.035,290.305,290.738,291.192,291.747,292.291,292.924,293.553,294.037,294.514,294.984,295.25,295.841,296.174,296.726,297.095,297.617,298.091,298.663,299.078,299.561,300.102,300.721,301.256,302.035,302.748,303.544,304.362,305.241,287.296,225.856,119.682,255.275,310.548,311.521,312.629,313.537,314.494,315.66,315.886,148.155,29.792,95.432,320.186,36.629,33.657,10.868,1.689,8.288,28.519,44.429,59.991,78.224,100.307,134.526,176.359,230.375,241.76,245.52,260.111,262.251,291.946,307.453,330.732,331.004,329.529,328.848,325.801,279.576,312.467,352.062,353.879,354.364,354.914,355.431,355.828,356.115,356.388,356.565,356.67,356.799,356.794,356.579,356.412,356.242,356.109,354.744,355.467,355.037,354.238,354.234,353.134,350.334,342.297,332.869,326.521,327.334,326.778,316.291,297.922,299.719,304.936,313.275,308.611,316.457,322.096,322.038,320.864,283.25,109.06,101.959,146.262,232.276,303.453,309.186,310.113,313.904,322.389,325.695,327.108,327.851,323.838,300.382,294.273,310.379,320.268,323.706,321.826,321.164,317.186,310.458,308.564,303.091,302.123,301.517,300.853,311.404,322.66,305.467,313.814,338.906,331.554,332.246,333.611,331.876,331.531,330.516,330.29,332.29,333.452,336.683,336.815,346.324,319.775,327.525,332.865,352.123,352.28,352.522,351.06,350.34,238.018,93.736,179.706,306.051,271.077,224.631,201.963,200.537,185.341,174.944,155.255,138.511,132.693,133.29,126.787,123.407,112.974,87.098,82.725,91.277,91.173,86.562,88.613,83.657,48.283,22.731,12.233,5.94,6.982,2.794,0.7,0,0,0,0.353,7.024,12.309,15.824,21.805,17.272,12.346,6.011,54.353,54.74,103.028,120.645,141.471,160.474,90.014,142.04,258.439,271.913,290.923,296.295,310.763,317.273,324.209,321.752,323.078,327.205,321.869,331.93,343.775,336.632,328.365,320.747,309.671,280.834,251.656,242.787,211.759,203.501,204.169,202.494,123.049,92.951,105.129,171.496,242.756,264.541,275.516,286.686,280.941,108.9,0,1.055,153.806,216.214,228.556,227.898,229.358,216.352,217.042,204.236,234.687,246.969,266.901,279.798,276.155,267.928,264.587,258.359,252.398,236.87,226.084,227.716,236.034,240.395,225.874,223.998,237.096,256.856,266.909,271.423,276.31,285.133,296.41,295.308,295.876,294.023,292.54,305.812,314.755,319.478,326.33,320.733,13.748,6.696,2.119,351.323,350.335,349.644,349.651,349.967,220.231,232.431,214.708,343.88,348.575,348.071,348.283,348.533,348.84,349.534,349.521,349.154,349.843,349.833,349.527,349.975,350.106,349.427,348.305,337.031,293.582,286.557,232.235,253.777,46.111,79.053,91.404,267.972,298.86,304.176,317.182,328.397,329.608,329.976,326.816,338.808,339.904,331.496,333.938,346.466,351.797,351.561,351.006,350.482,350.696,348.136,342.814,338.188,323.907,257.934,292.621,270.884,245.23,184.807,99.886,66.56,49.278,55.621,77.677,27.759,28.804,13.326,23.257,46.157,37.298,32.715,36.643,50.128,26.248,22.416,17.405,21.203,31.107,161.686,298.904,371.928,242.473,224.086,221.305,356.383,375.557,501.896,538.557,567.916,649.927,586.457,749.228,856.725,811.471,852.15,842.416,897.058,905.253,903.821,903.307,900.897,892.906,878.757,873.91,881.964,884.624,881.001,885.563,888.386,887.038,894.626,899.399,895.856,794.909,4.527,1.809,36.223,309.004,602.571,808.757,799.128,775.975,779.861,776.696,771.299,729.792,525.577,513.315,678.083,783.275,772.574,812.752,872.612,888.029,889.231,892.157,864.81,856.685,867.253,800.657,669.005,591.021,714.837,870.8,881.959,725.113,384.73,87.338,68.041,155.965,649.369,608.163,694.335,655.252,538.141,553.464,453.363,573.743,544.496,583.499,545.477,609.812,730.985,725.159,841.907,932.667,921.646,726.929,602.931,552.159,434.553,417.237,467.757,507.721,536.887,543.49,544.118,485.123,415.995,22.454,0.971,4.867,78.306,235.988,272.084,176.999,132.94,632.424,771.862,771.76,385.903,462.764,520.982,544.682,539.859,584.715,548.864,508.225,439.518,276.438,130.259,71.184,50.908,29.693,26.766,22.92,44.975,170.436,257.627,269.248,325.796,446.808,419.923,353.67,300.928
288.347,288.122,287.95,287.792,287.595,287.398,287.223,287.066,286.954,286.857,286.721,286.623,286.577,286.588,286.624,286.715,286.812,286.885,286.965,287.073,287.213,287.375,287.554,287.761,287.892,288.041,288.207,288.342,288.461,288.619,288.813,289.031,289.246,289.558,289.925,290.149,290.47,290.961,291.388,291.931,292.457,293.002,293.623,294.059,294.54,294.98,295.291,295.861,296.163,296.772,297.097,297.63,298.089,298.697,299.1,299.597,300.12,300.738,301.271,302.077,302.81,303.632,304.397,300.368,195.425,79.62,38.912,100.908,310.245,311.509,312.576,313.443,314.33,315.46,316.312,312.817,306.645,321.244,247.453,65.03,82.913,164.532,29.378,26.976,38.007,65.215,84.934,93.835,81.698,118.353,209.415,267.27,283.96,259.166,281.839,284.713,310.261,322.967,336.139,341.281,340.133,343.988,349.008,338.954,349.386,352.62,353.314,353.837,354.365,354.879,355.244,355.5,355.714,355.829,355.963,356.074,355.987,355.693,355.448,355.247,355.066,354.81,354.509,354.056,353.564,353.275,353.278,352.988,352.085,349.728,349.091,345.244,346.069,341.928,322.826,323.482,327.891,335.495,338.958,340.448,340.813,313.394,271.678,255.882,258.718,291.892,303.002,310.258,304.08,308.432,315.239,322.477,316.395,320.02,319.022,323.621,322.018,314.863,320.556,321.356,319.048,315.211,314.054,304.763,292.788,280.438,269.456,262.224,221.873,180.368,219.15,275.986,233.461,22.474,32.973,281.038,320.532,320.185,314.978,312.589,314.33,317.122,318.625,322.669,325.497,327.263,336.787,343.79,349.413,349.88,351.067,351.731,351.918,350.455,351.502,334.669,30.512,67.072,130.232,308.837,282.797,212.512,151.64,196.974,166.954,160.148,153.26,142.142,122.586,117.171,110.289,105.528,16.587,3.524,3.168,160.017,168.903,175.763,184.046,182.189,162.178,141.869,130.959,106.173,82.477,51.839,20.881,0.349,0,0,0.702,30.453,41.68,45.93,55.45,65.715,82.634,95.738,101.44,114.881,128.611,132.115,120.88,85.363,33.202,22.95,183.333,273.101,291.08,300.676,307.123,307.665,303.42,289.421,273.988,247.698,268.55,299.54,337.868,328.619,314.055,307.877,301.717,298.114,293.805,281.917,272.425,265.063,261.874,259.804,264.532,241.409,252.58,276.592,304.083,309.636,317.31,326.585,324.943,247.308,254.388,274.401,315.275,309.399,300.668,293.773,286.961,277.236,279.052,286.923,305.416,309.638,304.422,307.507,305.335,301.697,302.183,301.604,299.84,293.093,288.56,290.504,292.423,294.135,289.575,285.157,299.598,302.642,304.352,305.029,306.071,310.982,316.702,317.321,315.165,314.767,316.483,330.786,333.089,335.732,339.117,339.15,98.82,73.655,187.127,350.112,350.162,349.126,349.085,348.37,0.351,0,1.413,129.654,196.234,337.973,339.258,338.452,340.801,341.47,343.907,246.483,122.611,125.431,348.559,349.316,349.409,349.456,349.011,347.144,344.257,342.435,341.285,332.978,323.76,213.028,217.61,305.888,330.979,336.321,334.651,340.31,345.596,346.23,349.305,351.09,351.461,351.807,351.685,351.128,350.78,350.914,350.754,349.206,348.729,349.344,275.234,254.411,274.244,317.916,328.465,318.763,305.898,293.343,267.875,249.274,218.848,216.202,186.09,61.808,109.646,125.181,100.637,71.847,37.628,63.055,61.97,83.097,157.376,143.425,109.713,47.206,13.19,0,0.911,3.619,0,0.914,7.287,19.985,38.123,113.556,157.245,243.633,288.263,207.373,402.942,503.941,313.953,0,0,21.828,166.958,381.79,388.943,407.713,361.346,286.14,234.457,218.132,201.742,177.386,202.686,252.426,316.719,455.139,426.131,209.976,9.06,0,0,0,0.904,24.41,241.526,346.236,356.853,428.797,473.61,463.114,375.149,431.385,345.632,498.737,502.617,624.781,716.875,835.755,842.293,884.616,859.892,869.209,856.527,812.668,754.192,775.08,726.402,631.475,727.704,842.78,758.809,111.623,17.622,7.975,10.676,124.494,191.826,243.332,224.812,139.859,68.152,44.298,19.525,27.57,6.253,3.604,1.816,3.684,0,0,0,7.641,2.869,0,0,0,0,9.703,47.561,55.439,49.65,36.019,15.616,0,0,0,0.35,0.7,0,0,0,0,0,0.962,1.972,0,0,0,0.955,0.955,0.953,0,0,0,0,0,0,1.047,0,0.347,1.397,2.791,2.788,2.091,1.046,1.292,23.001,24.891,10.531,13.409
288.06,287.918,287.789,287.592,287.383,287.2,287.076,286.981,286.914,286.806,286.657,286.554,286.516,286.529,286.564,286.663,286.767,286.836,286.944,287.066,287.203,287.367,287.536,287.73,287.873,288.04,288.227,288.381,288.531,288.717,287.79,238.611,281.927,288.086,290.075,290.355,290.811,291.207,291.693,292.123,292.727,293.109,293.74,294.105,294.613,295.002,295.334,295.893,296.195,296.807,297.108,297.654,298.073,298.728,299.101,299.601,300.124,300.739,301.273,302.078,302.83,303.685,304.448,305.246,174.892,75.921,45.397,269.819,310.214,311.459,312.472,313.236,313.715,315.112,309.599,312.716,316.782,294.582,293.216,199.054,48.502,42.269,15.101,4.081,1.037,3.459,7.626,0.7,0,0,139.655,223.932,258.454,279.383,275.572,334.905,336.77,348.081,347.98,348.568,349.504,349.823,350.205,350.593,351.143,351.768,352.394,352.878,353.381,353.875,354.199,354.389,354.527,354.53,354.587,354.598,354.41,354.113,353.878,353.693,353.147,353.281,353.067,352.662,352.276,352.011,350.937,347.816,345.057,336.307,305.358,293.335,277.493,246.192,232.813,234.802,253.228,279.686,297.017,310.178,326.348,195.716,162.654,211.742,286.695,300.256,297.777,301.877,296.402,302.484,312.053,323.115,327.073,329.306,332.85,332.889,325.718,324.775,328.701,326.377,324.672,318.736,317.267,317.299,311.914,305.061,298.323,295.97,280.844,279.503,296.861,314.267,328.628,286.669,298.457,330.739,328.324,328.388,323.284,321.588,322.657,324.005,326.507,326.686,323.501,328.09,337.176,343.06,343.383,344.856,343.949,350.222,349.312,347.062,342.118,324.943,253.843,193.813,288.867,332.581,309.706,237.056,200.631,222.422,176.04,159.133,157.226,156.764,139.358,124.466,108.12,44.324,108.406,139.408,180.086,210.85,216.2,222.026,228.183,230.487,228.229,222.823,210.483,197.83,145.743,85.401,50.689,29.541,0.349,0,14.303,46.765,55.19,58.054,65.48,77.128,87.374,103.613,106.142,124.122,135.681,145.848,139.53,130.722,132.055,149.75,271.327,290.988,306.89,317.853,328.419,330.687,331.669,321.892,327.707,337.327,343.109,347.882,345.783,338.975,330.03,323.535,313.202,299.835,287.143,289.916,274.796,276.482,268.103,261.527,257.548,276.388,291.886,305.301,311.939,322.305,329.13,333.066,333.824,310.303,311.735,326.82,306.605,293.931,292.35,282.668,288.86,292.826,307.917,303.915,317.102,322.683,321.287,313.866,309.841,305.412,300.571,274.114,247.166,234.25,254.198,248.144,242.094,242.246,202.477,173.187,184.888,206.018,257.714,264.378,261.631,268.302,270.922,276.408,276.336,283.308,327.917,337.03,337.552,340.569,345.358,345.739,345.419,349.583,350.561,350.747,350.837,351.195,350.819,351.123,313.714,176.33,138.296,239.857,279.23,341.942,344.603,343.836,341.587,337.713,337.004,219.537,73.813,157.356,341.315,347.648,346.32,344.245,344.13,343.283,276.415,258.869,317.741,327.894,331.799,331.888,334.704,337.247,339.162,339.502,338.462,343.329,347.173,347.087,347.332,347.363,348.416,346.77,348.192,348.136,348.205,348.354,346.451,347.647,347.483,348.12,275.582,43.384,104.73,301.495,314.442,291.225,266.95,275.134,267.946,124.389,75.675,166.628,235.858,247.803,253.158,250.611,227.185,206.099,206.919,142.506,217.283,245.791,257.637,244.067,227.646,197.771,157.285,114.105,58.807,20.763,1.043,0.689,0,0,0,0,0,0,0.915,1.828,13.677,12.772,0,0,0,0,0,31.79,217.867,304.86,247.702,165.149,139.914,109.973,90.94,75.548,71.908,67.299,89.057,126.984,69.94,0,0,0,0,0,0.689,0,2.713,9.057,18.97,61.409,71.248,74.801,108.822,139.314,139.967,195.495,140.27,8.883,0,0,1.794,452.559,828.618,815.764,765.81,595.593,547.202,619.846,614.057,420.859,220.325,212.237,109.217,24.602,0.872,0,1.771,25.724,53.161,108.085,129.247,4.383,0,0.9,39.138,21.466,22.441,28.337,33.702,23.918,0,0.345,0.347,0,0,1.926,0,0,0,2.915,6.801,9.726,5.839,3.905,0,0,2.095,7.34,18.163,37.056,43.047,7.695,0.35,0,4.551,36.229,26.411,0,0,2.861,0.947,0.947,0,0,0,0,0.696,2.094,1.396,0.697,1.041,0,9.035,21.569,29.528,23.609,15.278,14.154,3.034,2.954,1.042,1.984
287.896,287.724,287.525,287.295,287.111,287.025,286.967,286.908,286.843,286.718,286.579,286.5,286.473,286.486,286.533,286.635,286.704,286.79,286.884,287.029,287.185,287.352,287.528,287.711,287.876,288.044,288.258,288.439,288.614,288.827,287.926,252.387,275.834,283.038,290.272,290.736,291.072,291.542,291.976,291.762,292.638,292.946,293.868,294.134,294.675,295.021,295.398,295.928,296.251,296.865,297.15,297.753,298.109,296.104,299.117,299.651,300.138,300.789,301.27,302.089,302.884,303.722,304.485,305.257,306.279,307.254,308.396,309.469,310.554,311.49,312.116,313.145,313.709,315.17,310.641,295.318,237.848,283.822,316.002,245.059,180.847,185.887,32.283,48.188,31.797,27.168,34.554,21.139,14.907,45.857,225.536,320.817,330.389,337.113,342.125,347.824,348.303,348.49,348.739,348.942,349.146,349.433,349.778,350.125,350.506,350.965,351.518,351.945,352.25,352.594,352.773,352.803,352.767,352.653,352.696,352.564,352.211,350.555,351.04,351.6,351.117,350.992,349.461,345.982,348.104,348.239,348.219,344.038,340.554,322,262.079,60.913,33.603,56.343,71.429,83.65,113.357,145.803,179.299,228.456,287.867,336.297,341.435,341.275,336.615,330.592,326.327,327.65,313.907,321.042,329.573,337.222,341.603,341.868,341.663,342.804,343.024,341.473,340.934,342.107,339.046,334.052,326.255,320.659,321.69,316.777,314.671,308.414,309.859,310.575,312.323,327.721,338.918,342.454,341.505,336.366,332.975,334.744,330.326,329.349,327.884,325.69,325.727,323.85,321.16,327.082,326.187,317.774,322.911,327.469,329.289,332.762,331.425,333.218,323.963,322.158,293.325,302.713,303.304,310.455,284.593,267.158,253.904,247.106,205.877,183.606,173.921,180.007,174.06,158.602,142.731,80.969,131.852,142.137,189.633,210.594,210.438,188.489,187.711,176.875,174.273,98.576,87.378,223.915,187.169,140.808,135.195,135.231,131.901,113.358,83.699,79.983,71.05,67.641,73.321,74.127,78.471,101.306,115.73,130.131,148.324,174.844,200.682,231.017,254.613,278.099,293.938,302.766,317.89,328.086,336.155,339.407,339.722,339.342,344.819,345.101,347.054,347.347,346.308,343.335,335.473,328.633,316.283,218.76,169.393,187.011,281.343,271.829,260.996,246.032,245.456,266.506,286.839,290.73,300.116,304.043,318.115,325.527,333.949,333.761,333.409,334.462,326.861,317.133,306.988,281.777,298.316,310.912,309.912,301.105,299.286,293.265,287.972,276.064,263.024,239.836,224.638,202.206,191.526,182.65,182.501,182.748,176.098,172.546,21.817,12.079,37.286,119.973,199.969,188.628,174.464,169.028,168.454,168.649,146.563,162.407,296.404,317.749,326.272,334.474,340.266,343.792,347.625,349.36,349.993,350.199,350.269,350.3,350.633,350.587,350.367,350.128,348.796,345.357,345.016,347.923,347.803,344.609,341.989,340.185,340.851,329.337,53.439,182.925,345.444,347.228,344.511,344.189,341.308,322.696,70.445,75.63,268.555,315.49,313.447,315.541,314.818,320.081,324.057,322.609,318.674,325.978,327.688,325.844,327.557,330.09,334.249,333.252,336.766,314.717,331.873,337.323,340.636,340.754,343.001,343.247,331.116,319.777,302.302,290.194,332.192,326.748,318.204,319.039,312.275,304.054,300.454,302.272,254.696,276.667,280.935,290.2,294.923,293.286,287.908,291.819,285.091,297.609,288.772,277.958,261.204,231.354,178.966,103.519,1.384,0.691,0.346,0,0,0,0,0,0,0,0.344,0,1.826,5.159,25.75,25.71,16.108,8.559,0,0,0,0,20.988,153.821,124.773,102.085,80.251,61.102,59.272,48.36,44.708,36.504,0,0,0,2.063,3.436,5.159,5.496,2.75,0.346,0,0.9,8.119,10.8,26.114,45.865,52.115,59.219,105.65,58.164,0.878,0,0,0,0,0,147.562,357.373,303.926,309.931,314.239,162.177,103.608,41.643,4.396,0.878,0,0,0,0.342,0,0.683,2.671,0,0,0,0,0.344,1.586,3.317,2.624,1.591,0.694,11.76,27.163,25.408,9.629,0,0,0,0,0,0,0,0,0,0,0.35,7.313,51.072,83.847,112.448,147.38,169.884,98.864,86.974,76.766,145.153,171.63,190.457,31.609,2.086,0.345,2.43,3.462,4.854,13.191,9.73,6.261,7.998,25.711,33.326,47.913,37.507,68.038,106.469,116.169,101.903,86.985,57.175,50.223,29.781,14.537,9.696,11.422
287.618,287.354,287.144,287.04,286.971,286.92,286.858,286.783,286.724,286.612,286.493,286.44,286.431,286.468,286.497,286.591,286.665,286.728,286.829,286.983,287.116,287.274,287.483,287.672,287.856,288.011,288.287,288.478,288.686,288.927,289.226,289.62,289.906,290.085,290.602,290.974,291.326,291.868,292.096,292.677,293.007,293.419,293.956,294.168,294.726,295.025,295.462,295.967,296.343,296.93,297.247,295.767,293.994,295.879,299.148,299.717,300.144,300.815,301.249,302.07,302.861,303.687,304.441,305.237,306.26,307.24,308.406,309.477,310.578,311.531,312.151,313.289,313.933,315.181,304.979,240.55,104.233,204.938,309.328,260.082,234.218,293.182,123.544,103.455,141.39,101.963,84.574,280.659,334.024,337.071,342.055,346.48,346.599,346.666,346.72,346.758,346.84,346.95,347.154,347.292,347.5,347.932,348.321,348.661,349.031,349.363,349.828,350.144,350.346,350.517,350.554,350.537,350.485,350.432,350.444,350.246,336.347,316.219,68.137,48.508,262.795,341.068,327.035,310.335,318.201,328.169,335.162,327.163,316.374,269.174,2.435,2.433,1.738,56.042,105.979,146.023,201.708,264.981,309.381,334.605,340.596,344.81,345.094,344.951,344.867,344.018,343.252,343.232,342.626,341.08,341.318,343.035,344.22,344.391,344.585,344.735,344.569,345.104,344.195,341.56,341.221,335.873,333.24,332.002,322.945,318.647,317.13,312.876,305.66,306.638,302.814,326.7,338.6,340.41,340.932,337.974,333.002,328.615,328.449,328.574,327.409,324.852,322.458,322.322,324.934,331.267,322.285,333.248,334.818,332.805,323.134,319.253,316.431,312.534,317.387,302.718,163.499,214.891,257.286,257.338,236.307,207.02,198.766,178.018,151.191,133.154,126.39,112.157,116.291,132.003,139.971,93.977,108.105,160.999,184.804,211.32,206.051,193.976,184.536,178.995,187.553,100.977,90.21,119.48,192.583,180.459,175.9,152.531,126.739,119.616,68.271,68.381,68.141,64.08,66.277,20.292,10.504,18.926,92.055,108.513,110.507,125.421,167.932,195.691,208.61,228.924,261.862,292.33,305.739,318.665,334.002,339.992,343.07,344.417,345.416,345.234,345.073,345.598,345.312,343.064,340.463,333.639,314.734,8.309,2.767,1.736,187.489,183.438,168.043,165.27,175.393,198.738,216.083,230.027,224.022,227.415,270.717,292.997,306.51,311.058,309,319.778,312.175,267.223,145.532,161.554,232.456,293.066,279.866,261.042,247.421,243.856,238.161,216.486,174.415,158.368,136.473,119.802,114.889,120.293,127.1,131.178,139.743,145.926,19.249,38.862,71.168,248.413,258.457,249.693,239.494,229.701,230.24,169.254,125.852,118.361,233.855,290.516,308.812,323.313,336.428,344.148,338.222,336.772,340.204,346.425,347.872,348.278,348.961,349.29,346.28,347.42,345.71,344.653,345.644,341.616,341.406,342.287,339.913,338.325,337.181,336.411,288.912,298.945,329.539,335.197,336.379,338.996,338.341,341.421,316.663,304.99,311.978,324.631,312.429,300.318,302.624,310.93,303.71,301.473,308.299,292.991,128.44,140.249,117.32,235.951,299.296,299.764,290.768,294.576,299.609,297.129,323.071,329.083,336.521,343.669,338.809,335.106,328.737,304.993,330.228,325.423,322.807,308.094,291.252,275.824,268.804,286.998,246.285,239.905,273.242,297.342,296.143,295.163,310.063,310.229,308.416,298.627,291.945,286.341,271.755,243.001,214.784,120.364,2.763,0.695,0.693,0.692,0.69,1.372,0.686,0.343,0,0.342,6.501,2.058,10.622,35.906,53.01,86.979,76.38,39.24,0.689,0,0,0,0.916,25.679,20.15,11.021,8.25,6.416,7.35,1.838,0,1.023,0.683,0.685,0.683,6.515,8.573,10.283,7.557,14.389,4.795,1.371,1.712,0,0,1.803,4.498,8.982,9.976,9.885,2.7,0,0,3.754,1.021,1.698,11.562,0,4.441,18.716,24.054,18.646,5.114,2.381,0.682,1.021,2.723,13.276,7.492,3.407,4.091,7.496,6.477,2.386,5.118,12.258,5.801,5.13,5.484,10.259,17.119,15.814,5.861,30.577,75.315,83.497,83.797,69.072,37.629,9.59,0.34,0,0,0,0,0,0.343,2.067,11.717,25.893,115.99,120.632,156.471,230.543,251.597,257.659,272.116,312.785,304.416,297.557,292.238,283.69,126.068,53.835,22.09,43.444,80.345,73.226,58.129,36.038,42.641,81.726,119.349,130.124,132.892,130.834,145.308,150.806,121.038,80.235,59.814,44.2,20.363,15.523,18.632,32.398
287.214,287.059,287,286.934,286.822,286.739,286.677,286.614,286.582,286.507,286.457,286.454,286.475,286.518,286.547,286.604,286.683,286.752,286.825,286.96,287.082,287.22,287.428,287.636,287.842,288.03,288.295,288.523,288.763,289.023,289.368,289.778,289.976,290.321,290.865,291.191,291.689,292.001,292.37,292.916,293.068,293.742,293.995,294.227,294.799,295.031,295.521,295.984,296.421,296.96,297.354,296.435,293.837,295.061,299.238,299.859,300.194,300.906,301.325,302.117,302.906,303.794,304.539,305.326,306.347,307.276,308.44,309.448,310.557,311.533,312.51,313.453,314.552,315.844,297.415,193.554,175.027,224.198,200.26,166.824,311.287,329.028,287.247,284.972,267.65,260.584,282.661,341.9,342.9,343.909,344.605,344.746,344.76,344.824,344.771,344.737,344.861,344.948,344.98,345.133,345.401,345.878,346.246,346.582,346.983,347.243,347.59,347.876,348.008,348.131,348.142,348.114,348.107,347.045,347.76,347.248,344.273,346.009,133.715,147.517,333.539,342.233,329.051,328.621,333.393,336.093,339.215,337.112,321.084,303.38,139.117,57.529,59.968,167.527,190.467,227.535,268.382,295.988,311.141,319.301,326.748,332.747,328.226,336.107,337.8,339.441,339.105,341.554,342.374,336.697,336.201,342.345,342.778,343.214,343.288,343.378,343.528,343.654,343.75,343.821,341.077,337.8,335.478,331.436,325.44,319.089,319.603,313.614,285.236,275.583,278.907,302.617,329.14,330.662,331.188,329.667,323.75,319.497,317.397,316.903,316.746,316.226,313.486,321.578,325.803,325.768,316.749,327.12,337.563,342.413,340.062,325.073,319.363,316.014,305.506,275.528,211.517,224.393,238.098,245.722,218.935,193.245,184.615,186.424,159.419,148.023,137.915,129.353,124.971,144.029,153.433,158.897,197.239,219.538,237.124,256.901,257.39,262.256,231.747,220.121,219.778,166.221,154.761,171.594,240.239,239.415,228.382,199.019,166.726,154.117,127.049,101.742,74.923,51.429,43.525,2.088,0.698,10.483,49.883,56.496,73.172,108.185,138.273,178.991,188.353,217.828,237.255,273.133,285.246,296.287,323.316,334.819,340.98,344.028,343.685,344.228,344.333,343.81,342.907,342.748,341.2,334.427,323.227,154.929,17.599,28.681,206.375,189.892,190.262,193.714,196.095,200.401,219.306,212.961,222.498,219.2,217.287,282.369,321.062,315.433,312.814,312.879,298.805,268.819,87.675,90.806,179.355,279.011,266.222,230.992,217.138,212.884,217.524,149.146,164.16,154.099,158.429,150.768,145.476,148.792,171.917,173.167,183.36,206.214,104.716,79.087,170.436,328.129,322.135,311.475,301.871,283.652,268.844,247.162,251.734,262.49,266.707,277.044,293.238,314.624,332.904,334.625,330.729,334.791,337.132,344.32,347.201,347.227,347.533,347.49,343.476,342.648,340.6,343.711,343.297,342.673,342.706,342.061,340.931,340.557,342.05,342.596,343.145,340.019,340.083,340.608,336.3,334.119,336.763,340.919,337.811,336.877,334.441,329.375,323.67,312.919,311.399,323.289,310.13,299.804,311.632,318.106,310.256,179.888,141.629,232.446,340.17,340.466,336.148,340.089,341.29,341.218,341.047,342.866,344.614,343.454,343.023,341.696,340.804,338.454,333.326,315.92,270.805,246.279,207.619,189.787,204.921,218.66,165.204,161.655,166.707,245.506,257.394,223.876,191.428,234.857,289.988,299.889,267.214,264.433,277.925,287.934,294.521,278.24,245.323,238.927,219.99,197.592,174.24,155.396,154.259,154.537,93.856,63.252,51.356,133.517,136.958,124.529,143.182,131.583,119.262,72.078,26.878,3.411,0.342,0.68,0.68,3.449,4.355,4.968,5.569,4.992,4.051,0.341,2.715,2.38,2.054,0.342,0.687,7.537,12.311,14.029,15.057,13.004,12.313,2.395,11.574,15.964,14.247,4.416,0,0.683,6.464,0.341,0.34,1.02,23.1,102.927,158.62,167.39,173.829,130.196,15.205,2.365,2.375,2.372,10.158,17.941,20.001,9.501,10.527,37.97,60.601,69.72,62.295,39.004,49.473,27.82,46.758,53.165,49.78,36.609,27.172,27.181,48.929,51.047,85.784,104.216,101.652,138.238,141.27,128.325,131.52,121.866,43.793,29.192,4.744,0,0,0,0.341,0,0,0,6.513,13.059,58.913,71.355,158.875,199.546,299.63,320.519,311.448,274.35,223.782,240.38,278.351,171.128,175.185,209.668,162.511,132.433,96.799,80.844,81.605,142.846,171.089,170.659,155.278,159.126,150.909,171.595,147.388,111.096,102.743,92.662,44.057,17.182,34.007,39.154
287.056,286.988,286.869,286.691,286.522,286.496,286.479,286.47,286.462,286.457,286.413,286.434,286.482,286.52,286.556,286.603,286.673,286.711,286.789,286.898,287.021,287.155,287.343,287.58,287.805,287.989,288.264,288.536,288.816,289.068,289.47,289.856,290.032,290.517,290.996,291.415,291.874,292.154,292.685,292.995,293.291,293.941,294.012,294.341,294.855,295.038,295.565,295.985,296.464,296.973,297.417,297.955,298.422,298.991,299.333,299.972,300.302,301.004,301.474,302.174,303.02,303.871,304.73,305.527,306.492,307.371,308.464,309.422,310.192,311.504,312.59,313.631,314.82,315.871,292.289,243.922,215.712,128.83,28.86,331.484,333.505,334.965,333.985,338.026,338.067,337.421,336.43,341.309,341.798,342.213,342.419,342.567,342.521,342.572,342.509,342.449,342.556,342.645,342.705,342.871,343.145,343.59,343.941,344.26,344.59,344.864,345.152,345.443,345.546,344.933,339.064,343.209,342.554,341.55,343.268,345.183,345.388,345.446,345.451,345.412,345.441,343.774,342.236,333.28,335.084,333.344,336.047,338.747,337.269,337.244,336.54,336.982,329.226,319.572,307.455,306.037,302.315,298.509,306.05,315.875,319.827,315.78,314.116,322.023,334.766,336.817,339.64,338.346,338.902,337.382,331.797,342.051,342.094,342.12,342.171,342.216,342.277,342.33,342.428,342.499,341.172,338.816,337.431,335.79,330.758,326.807,316.708,309.624,251.678,245.054,245.145,275.949,317.084,313.474,310.54,310.374,305.161,304.383,299.885,296.962,297.156,296.3,292.532,297.718,315.224,325.407,331.823,336.932,335.631,341.811,338.721,327.945,321.913,314.808,302.427,259.061,225.912,246.059,270.714,263.457,250.4,242.101,245.426,266.933,247.77,227.692,216.347,197.361,194.271,186.849,198.356,213.863,261.952,271.672,273.974,284.385,295.068,306.495,311.696,314.256,305.947,299.219,298.183,298.382,290.85,282.677,271.359,243.061,187.613,189.719,165.848,168.705,131.144,89.404,77.457,86.253,80.122,85.8,97.373,114.122,157.51,183.279,220.437,245.217,258.749,275.499,288.479,304.696,313.644,319.675,324.841,330.171,329.145,336.715,336.793,340.098,339.219,340.462,342.032,341.507,340.315,340.046,338.875,330.848,312.174,292.206,264.936,240.94,246.48,245.44,242.817,248.37,247.725,250.685,251.793,237.093,276.288,331.414,327.426,322.335,302.33,290.421,294.6,269.926,189.701,154.125,173.844,302.177,296.018,276.063,264.043,272.847,275.036,278.846,239.596,233.89,305.923,315.556,317.009,318.178,321.936,318.652,321.81,326.606,330.823,331.511,329.323,326.082,325.563,322.905,317.548,309.822,302.139,293.039,302.869,296.438,278.497,272.594,286.919,312.301,318.996,311.831,303.652,309.334,305.418,320.54,336.591,342.499,339.421,335.361,319.763,318.304,322.87,330.856,336.269,332.011,337.055,331.818,334.391,338.701,335.326,337.173,336.276,324.538,336.297,337.874,337.002,332.734,331.34,333.525,315.508,332.145,334.517,326.011,316.57,302.484,303.672,322.56,314.113,318.409,335.802,341.774,341.791,341.782,341.519,341.736,342.226,341.938,339.788,337.01,334.531,264.209,213.68,263.895,342.055,338.503,338.114,330.021,329.118,319.223,314.362,266.606,243.566,219.915,195.45,219.072,230.904,239.743,145.107,138.985,163.935,225.681,243.391,225.241,172.412,98.996,127.349,160.141,242.772,259.779,286.335,302.795,305.63,284.589,261.964,268.66,239.73,218.898,193.523,193.001,202.936,212.923,188.252,180.815,189.238,209.439,203.103,197.853,177.603,173.845,165.279,129.696,89.719,68.256,40.171,19.923,11.795,9.081,3.705,2.026,1.692,1.69,2.027,2.369,3.382,5.082,5.438,6.815,6.841,12.293,15.368,19.463,24.57,25.247,21.827,37.729,25.788,42.946,39.505,28.017,9.518,3.739,13.546,2.72,8.492,52.769,87.568,167.338,251.593,267.053,281.26,267.884,211.905,51.888,28.311,2.358,2.695,16.197,18.245,46.984,89.125,121.144,144.338,123.823,122.145,122.238,109.371,113.373,109.603,136.381,138.976,112.095,81.912,71.15,78.342,148.244,158.702,121.894,89.388,198.542,196.567,139.38,156.569,187.992,180.876,130.405,91.783,37.116,36.064,20.592,26.029,8.799,3.385,1.355,14.936,20.137,59.813,60.595,106.466,268.4,294.105,314.379,295.511,301.171,292.756,253.541,195.072,245.003,294.668,296.177,222.193,169.249,142.241,115.63,134.315,194.611,216.82,206.613,185.62,184.363,169.595,178.94,200.516,179.743,157.851,163.449,185.735,218.93,199.256,184.088
287.022,286.927,286.76,286.523,286.4,286.415,286.443,286.469,286.487,286.481,286.466,286.474,286.518,286.57,286.596,286.612,286.657,286.704,286.749,286.815,286.932,287.073,287.261,287.487,287.737,287.967,288.244,288.545,288.851,289.101,289.506,289.902,290.062,290.591,290.994,291.435,291.902,292.216,292.78,293.033,293.527,293.977,294.026,294.433,294.846,295.076,295.575,295.992,296.466,296.966,297.446,297.943,298.44,298.991,299.43,300.023,300.472,301.08,301.666,302.302,303.195,304.031,304.901,305.689,306.641,307.462,307.895,301.381,279.513,306.626,312.788,313.327,315.206,316.306,274.028,269.722,284.53,305.639,276.85,328.58,333.539,334.874,332.696,337.196,338.332,338.193,334.26,339.612,339.563,340.505,340.564,340.613,340.555,340.505,340.387,297.445,333.582,329.227,302.092,339.346,340.628,323.96,321.869,314.281,338.837,336.67,326.972,254.493,268.69,205.819,58.247,71.635,302.762,337.789,338.41,340.63,341.528,341.685,337.982,335.283,332.641,330.782,325.424,331.842,331.365,329.055,330.706,333.342,338.298,338.871,330.55,320.111,322.685,304.763,300.964,305.32,307.045,307.469,306.33,314.398,309.413,316.397,316.179,318.346,328.779,335.769,340.384,340.919,341.164,341.071,340.658,340.998,340.977,340.978,340.992,341.007,341.022,340.93,340.997,340.759,341.134,339.678,337.186,335.787,331.392,324.982,316.277,304.468,290.745,304.751,310.986,321.666,325.633,322.775,322.6,323.806,321.318,318.159,315.738,309.06,299.018,300.572,309.359,314.872,332.68,338.763,339.334,339.687,339.357,339.975,339.906,333.881,325.143,322.771,320.163,312.204,266.337,280.503,281.907,321.911,322.231,315.826,310.958,309.848,302.581,249.762,208.211,137.834,95.586,70.974,127.382,133.77,206.804,213.043,226.496,278.282,300.235,310.531,318.41,316.276,317.025,306.157,304.71,305.979,298.879,290.441,281.353,251.944,212.069,193.019,184.424,172.693,172.284,123.747,92.227,92,79.493,73.8,98.707,127.473,151.357,179.067,194.296,211.243,212.342,225.651,221.025,263.621,292.609,295.28,306.34,279.11,314.343,331.238,338.308,338.331,335.533,337.548,337.481,338.31,337.426,336.492,334.95,318.035,316.484,298.261,263.266,248.83,252.337,255.337,261.896,257.702,274.897,280.44,275.698,300.883,335.122,339.161,339.809,339.257,322.086,323.171,330.055,328.54,332.536,329.145,336.519,326.426,324.753,304.647,306.75,315.137,314.885,314.163,301.939,323.667,325.965,326.829,328.011,326.574,326.001,320.787,323.962,322.318,319.401,320.853,324.108,318.165,315.909,316.598,308.242,283.853,239.249,215.708,208.73,191.419,205.027,262.689,296.853,296.089,285.602,278.606,274.242,271.746,269.641,281.895,303.663,312.644,309.704,290.529,280.911,276.66,287.35,303.048,308.863,313.723,315.324,301.95,316.442,324.174,295.944,296.758,314.911,305.609,315.903,308.936,285.745,288.998,267.097,254.289,233.709,254.673,294.675,305.718,299.104,302.816,306.031,266.286,278.175,310.123,338.208,338.999,339.02,339.003,339.074,339.255,339.127,339.445,340.044,339.644,338.342,319.675,267.56,308.312,339.429,339.266,338.646,336.472,334.267,329.148,304.567,289.571,278.358,285.575,279.145,289.011,291.935,286.452,233.384,206.215,230.241,274.875,291.761,295.135,306.58,157.969,128.124,114.93,258.054,290.988,287.521,293.399,286.745,255.7,226.819,249.204,188.689,158.286,148.466,172.03,204.622,208.363,201.683,256.326,270.743,251.805,242.855,243.377,220.818,213.04,181.199,148.85,115.426,106.795,73.015,43.346,27.498,14.426,3.7,0.673,0,2.019,4.042,4.044,3.712,5.405,8.12,9.835,14.262,20.047,25.491,26.199,32.301,38.045,48.131,64.902,80.897,86.43,96.357,108.73,103.672,39.715,38.294,29.914,116.117,171.016,139.104,175.296,275.34,306.795,304.67,319.208,308.207,258.588,237.078,11.754,6.718,40.668,46.809,81.168,157.901,214.62,215.331,216.297,212.208,214.878,206.383,161.297,195.694,206.872,203.067,177.566,146.79,143.053,229.011,249.197,185.482,110.947,97.347,199.738,198.877,158.883,153.093,192.066,238.963,234.709,222.962,238.348,243.165,233.708,187.686,150.629,136.752,199.115,211.458,140.509,192.858,199.193,294.433,271.942,301.371,290.946,233.73,257.774,264.39,305.049,237.421,231.997,294.682,307.742,273.943,220.726,183.63,173.78,181.206,226.514,238.242,229.689,204.271,203.856,195.702,208.034,210.765,229.327,229.336,270.478,286.512,301.967,304.051,294.413
287.02,286.879,286.634,286.424,286.337,286.379,286.424,286.485,286.515,286.546,286.521,286.534,286.582,286.62,286.643,286.655,286.674,286.703,286.728,286.786,286.915,287.058,287.247,287.456,287.729,287.971,288.247,288.536,288.867,289.092,289.441,289.878,290.054,290.516,290.999,291.396,291.901,292.229,292.824,293.058,293.618,293.979,294.063,294.457,294.839,295.126,295.573,296.033,296.506,296.989,297.448,297.961,298.433,298.967,299.473,300.06,300.651,301.202,301.909,302.515,303.413,304.226,305.046,305.865,306.789,307.637,308.655,299.712,298.319,289.672,313.061,314.292,315.557,315.501,279.594,307.841,323.282,326.658,329.01,328.801,333.185,334.454,335.494,337.116,337.424,337.889,337.602,337.118,336.601,337.963,325.614,311.309,304.375,164.442,152.896,234.647,325.699,334.883,336.617,337.11,188.229,264.401,280.934,334.187,330.446,315.65,316.523,309.501,306.117,206.451,127.047,177.052,325.685,339.855,336.105,339.772,339.739,339.291,331.281,332.127,330.261,328.336,318.842,319.567,331.724,327.286,321.647,329.54,332.04,328.213,313.182,293.635,286.392,285.02,256.32,275.827,283.207,275.16,268.171,265.624,252.245,273.571,295.506,312.046,321.862,333.388,337.838,338.89,339.579,339.937,339.914,339.903,339.886,339.855,338.823,339.493,338.355,337.737,336.577,336.813,336.342,336.141,334.919,332.491,326.022,315.988,313.83,326.735,325.191,329.105,325.949,307.034,293.825,286.288,279.723,283.912,282.067,280.464,258.628,200.822,107.397,48.96,57.349,108.023,334.07,335.072,335.017,334.342,325.954,330.844,322.881,296.218,306.726,310.419,295.292,287.976,248.034,228.094,88.438,54.123,65.02,263.652,292.366,295.597,267.723,266.246,198.869,84.458,18.002,35.702,48.072,98.105,107.352,125.532,161.98,248.178,247.486,258.461,271.297,243.498,220.508,187.33,216.083,226.711,229.712,249.545,248.099,191.283,120.335,104.184,14.263,6.099,41.908,43.592,8.475,1.358,1.347,3.049,8.174,19.053,30.893,38.971,49.798,56.928,57.806,108.651,154.804,193.6,201.993,195.469,36.364,12.468,13.812,303.186,335.013,335.467,327.357,330.47,331.737,332.569,330.985,325.015,312.588,276.972,215.056,181.095,155.36,114.496,149.057,134.462,101.958,114.089,177.896,210.472,242.289,294.685,329.695,335.827,336.96,300.181,329.118,332.404,334.154,334.444,333.429,335.504,337.478,336.358,335.821,328.239,331.424,332.792,332.854,334.53,334.23,331.533,331.138,330.289,329.548,328.934,327.499,324.012,316.389,305.268,306.626,308.323,309.866,304.622,302.382,312.496,307.464,294.054,236.055,212.524,198.397,193.689,203.605,273.935,289.298,285.561,274.163,270.234,252.173,254.015,256.903,241.005,239.382,231.46,207.595,186.644,179.041,193.886,207.854,223.334,237.58,242.981,254.485,228.245,182.341,153.102,272.771,299.464,295.272,290.416,287.096,278.352,283.445,263.556,246.206,234.908,243.917,257.528,276.918,283.552,287.167,287.07,278.359,283.203,261.386,292.807,334.491,329.147,332.863,333.869,336.05,335.915,337.096,337.285,337.422,337.295,337.728,334.115,337.863,337.315,337.387,337.238,337.137,335.378,335.88,311.886,299.921,276.201,212.647,190.463,271.586,295.342,287.14,277.458,221.902,213.544,219.502,254.479,278.165,295.885,315.597,316.766,317.274,306.051,301.546,284.228,282.911,283.462,257.815,233.124,200.45,210.74,140.567,126.762,103.926,132.867,175.162,186.054,181.962,219.318,229.985,228.92,234.657,232.805,189.494,172.668,168.03,133.066,109.637,112.829,88.854,13.112,7.043,4.013,7.377,7.706,6.367,7.373,4.696,4.372,4.378,8.097,9.451,15.548,16.883,25.741,37.557,33.473,19.636,47.274,77.395,89.633,45.366,111.738,48.219,10.413,35.531,66.946,99.429,113.746,168.371,186.827,153.128,175.571,281.634,321.34,307.661,316.206,330.287,329.25,328.931,323.782,291.45,275.098,256.065,231.64,254.737,252.104,237.034,241.001,233.92,247.958,254.15,249.849,248.188,245.646,220.112,203.337,195.269,262.932,306.687,284.632,196.03,44.9,32.894,92.022,97.083,92.487,134.223,169.021,184.921,225.536,262.044,283.117,296.477,300.6,292.581,269.941,265.999,303.711,319.653,277.791,261.905,277.909,264.175,313.053,305.116,290.198,212.029,213.217,134.441,173.07,321.833,288.608,208.242,282.488,284.694,279.908,245.798,197.973,163.311,199.9,215.658,195.485,163.742,176.791,173.123,199.94,187.003,163.396,269.528,299.252,290.458,310.738,321.428,309.957
287.01,286.862,286.627,286.38,286.327,286.367,286.428,286.5,286.576,286.597,286.603,286.635,286.676,286.711,286.737,286.734,286.742,286.753,286.775,286.829,286.95,287.118,287.295,287.49,287.755,287.991,288.272,288.578,288.875,289.078,289.379,289.847,290.044,290.448,290.963,291.296,291.864,292.173,292.792,293.043,293.559,293.97,294.079,294.414,294.816,295.134,295.544,295.999,296.501,296.968,297.408,297.881,298.406,298.944,299.499,300.104,300.866,301.43,302.149,302.891,303.622,304.415,305.218,306.116,306.999,307.881,308.864,309.833,310.627,312.065,313.379,314.69,315.992,317.518,307.98,321.489,323.958,326.422,328.572,330.245,332.286,333.512,334.392,335.809,336.244,335.817,329.014,300.839,334.967,280.982,310.842,332.615,241.527,125.061,335.755,335.97,335.337,331.288,334.367,327.482,261.381,211.08,331.684,334.326,333.342,322.996,331.212,334.689,335.854,336.681,336.495,338.022,334.59,336.544,337.412,336.224,335.385,332.592,327.337,332.749,335.405,330.835,328.555,326.077,333.505,326.076,314.343,324.352,311.9,309.857,301.571,282.348,264.747,255.94,236.338,235.47,263.345,257.847,229.071,200.249,197.721,206.378,276.597,310.709,320.964,322.162,332.08,334.323,328.751,329.192,332.286,338.382,338.341,337.585,336.119,333.322,332.696,331.219,330.925,325.584,328.311,318.012,307.058,234.512,231.227,313.43,321.724,327.296,330.546,324.816,319.357,302.362,292.001,274.146,262.659,264.222,263.662,253.58,224.338,149.23,32.198,11.724,12.733,30.837,329.969,331.044,325.66,318.281,312.511,328.572,308.572,293.796,316.622,310.146,299.049,294.572,303.576,319.235,106.204,79.123,93.666,291.84,313.508,320.148,322.15,321.497,279.033,99.788,89.746,102.444,119.823,170.652,164.139,167.225,217.815,212.002,230.466,189.589,112.226,21.364,18.719,107.419,178.288,197.34,180.962,208.972,217.9,175.878,144.645,139.968,21.507,19.76,24.771,29.512,17.459,3.34,0.677,1.679,7.09,14.47,15.13,16.086,4.68,10.377,14.015,124.517,188.483,217.641,210.993,193.911,48.508,0,22.746,248.426,333.594,333.717,329.038,329.621,326.918,326.51,322.945,314.323,295.932,250.788,171.094,145.043,116.387,79.513,47.957,20.115,20.454,71.234,179.893,238.732,282.365,312.004,329.124,329.235,316.69,274.062,326.424,333.724,333.789,330.201,323.188,330.971,333.629,332.569,330.424,329.355,321.058,320.718,325.21,330.352,316.679,314.01,327.492,326.663,325.236,320.566,310.741,318.305,272.684,295.144,275.96,286.312,291.499,282.506,264.217,241.8,216.722,213.266,155.493,129.318,136.783,146.93,172.616,197.101,212.346,228.118,225.152,220.323,226.435,245.611,219.12,200.877,231.288,179.786,181.278,139.009,141.722,158.403,167.386,175.047,177.716,181.852,200.721,160.818,134.119,163.891,308.914,286.703,268.213,283.808,282.863,281.195,280.437,266.062,201.487,219.088,224.697,194.593,172.308,227.889,249.554,317.854,329.896,332.693,332.134,332.367,334.452,333.229,331.009,333.728,334.001,334.971,335.267,334.882,335.132,334.784,334.193,251.287,331.806,333.43,334.367,334.409,333.662,332.274,331.143,326.612,323.369,328.15,313.777,313.064,291.891,294.332,290.269,279.626,218.529,231.404,240.206,265.986,296.694,306.952,313.678,326.125,322.203,315.326,292.383,293.54,288.578,282.624,278.261,245.097,145.426,150.222,101.346,132.43,116.343,92.884,154.157,131.487,161.648,166.648,229.877,273.982,275.264,237.268,203.882,143.314,93.782,122.918,136.926,144.222,117.702,65.887,54.793,33.039,16.015,22.002,18.981,15.314,11.337,7.032,7.705,12.406,13.414,12.743,9.704,33.065,45.11,56.042,57.845,80.205,115.441,87.668,28.042,27.96,71.871,14.339,26.314,133.461,254.814,269.252,217.546,216.587,188.771,192.966,307.094,327.139,309.84,310.119,330.16,330.799,330.513,329.787,321.197,314.176,305.53,296.56,276.962,248.347,214.229,257.882,242.69,251.964,266.749,284.813,296.069,293.676,270.254,259.82,311.02,313.405,319.116,325.049,323.244,116.34,63.944,125.632,125.763,121.446,195.486,244.545,255.302,247.747,241.195,306.614,319.919,323.327,316.555,313.73,300.594,285.875,299.108,281.834,258.608,301.218,290.749,321.804,324.875,299.097,246.326,264.656,258.048,316.956,329.588,331.931,324.562,289.853,311.399,302.139,307.126,314.037,304.135,252.266,213.102,167.588,125.083,154.753,168.924,187.13,156.619,196.853,200.196,259.476,262.322,308.08,320.523,316.859
287.012,286.887,286.636,286.395,286.291,286.32,286.391,286.494,286.59,286.668,286.7,286.745,286.788,286.8,286.811,286.809,286.808,286.814,286.82,286.889,287,287.162,287.325,287.507,287.769,288.012,288.298,288.602,288.883,289.063,289.312,289.8,290.007,290.304,290.894,291.162,291.749,292.071,289.15,290.673,293.398,293.943,294.086,294.366,294.76,295.118,295.503,295.938,296.46,296.949,297.402,297.864,298.418,298.965,299.605,300.184,300.979,301.707,302.33,303.179,303.865,304.627,305.412,306.358,307.199,308.139,309.027,310.092,311.109,312.498,313.83,315.035,316.035,314.637,319.25,319.463,322.832,325.513,327.456,328.953,330.485,331.678,330.809,331.676,325.674,331.871,334.329,334.11,334.527,334.451,334.276,334.179,334.038,333.948,333.786,333.662,333.656,333.648,333.397,333.947,334.232,334.531,334.781,334.079,333.395,334.234,333.665,335.125,335.331,335.207,335.429,331.31,331.356,327.31,328.676,329.378,321.161,319.623,309.709,320.25,314.551,295.283,279.342,252.888,213.774,275.224,282.495,247.767,252.5,248.12,249.456,249.03,230.535,184.357,145.907,147.986,133.024,84.184,70.518,50.734,60.178,56.487,135.795,248.646,305.935,311.215,311.184,320.627,305.091,305.335,311.839,326.672,329.239,329.073,324.505,322.532,324.41,323.791,319,238.647,220.871,130.498,13.296,6.963,11.276,327.601,323.287,325.269,321.557,321.531,316.167,307.262,302.665,288.668,268.33,258.987,245.986,223.217,207.854,202.64,170.351,36.683,20.006,179.851,286.118,292.521,300.219,283.154,296.171,305.082,313.25,304.939,295.535,306.154,299.429,297.607,314.521,326.576,309.511,295.839,284.695,318.416,326.116,329.898,328.442,329.575,327.061,316.567,288.131,270.887,280.875,261.411,301.576,296.365,256.179,267.298,193.16,153.809,24.552,8.619,0.329,156.241,217.802,227.708,190.802,205.052,209.984,185.056,202.511,203.886,194.101,174.798,105.603,68.556,56.274,48.274,22.637,14.323,23.692,30.002,26.632,7.962,6.625,8.949,67.738,161.136,240.05,236.898,241.899,191.426,160.22,64.309,93.682,330.593,331.843,329.92,325.317,319.63,316.001,307.211,303.89,295.966,273.074,243.349,154.203,119.964,83.084,41.597,2,0.332,0,87.844,166.522,222.874,266.732,292.574,319.567,319.627,312.069,314.129,323.578,328.92,330.685,324.86,305.35,319.017,318.358,325.427,324.745,313.057,319.287,320.141,321.566,319.77,306.88,311.535,316.227,307.263,282.57,263.318,223.848,122.513,103.798,66.165,149.006,165.074,215.47,229.218,187.865,44.632,10.651,7.323,11.643,13.322,20.651,25.99,22.305,22.315,23.967,74.691,107.965,133.307,164.4,199.066,211.018,225.977,240.085,144.855,68.169,139.575,140.175,152.824,146.364,127.025,128.997,163.574,183.892,156.756,191.22,269.907,301.205,253.153,191.083,282.807,268.959,254.697,246.327,243.708,223.881,180.741,155.644,40.609,15.966,35.253,256.894,308.016,320.75,331.362,329.604,330.93,331.458,330.287,325.836,329.939,330.51,331.49,332.74,331.9,331.294,320.481,312.513,291.055,318.62,328.564,331.413,329.447,327.121,319.781,323.62,302.213,324.776,320.712,324.768,324.115,317.057,303.667,278.216,263.453,223.388,227.568,226.756,282.616,295.784,304.914,309.267,317.25,310.644,252.646,250.975,297.287,301.297,303.975,289.865,207.183,143.362,159.088,141.413,188.087,217.186,74.4,25.917,99.826,182.037,183.463,288.258,313.208,293.599,226.535,120.689,44.693,37.715,103.551,156.95,159.157,128.441,95.054,67.654,47.963,30.923,28.225,19.259,18.251,14.623,12.633,10.325,10.651,13.286,8.309,2.998,19.722,49.643,68.778,110.513,135.88,132.654,84.138,40.913,55.472,102.608,170.041,159.144,215.91,222.412,279.546,283.121,287.694,275.925,249.671,299.209,310.296,212.998,231.4,263.913,300.467,320.502,304.11,312.5,305.763,304.398,295.081,247.544,137.401,111.966,187.125,164.077,152.938,124.67,158.498,230.404,218.911,203.423,295.075,304.81,313.713,322.505,326.553,326.478,284.052,134.103,111.981,75.781,95.051,147.372,185.893,235.661,191.903,119.699,221.566,254.21,275.943,286.163,295.602,276.278,247.319,265.12,304.676,304.413,303.172,314.324,314.601,318.559,278.712,189.704,250.29,292.605,305.6,315.975,329.38,330.832,327.551,298.46,299.549,296.201,226.922,130.791,167.578,179.796,97.202,45.641,50.37,40.725,36.068,75.85,129.855,143.657,129.338,143.936,303.936,314.467,315.219
287.03,286.942,286.73,286.482,286.351,286.377,286.467,286.599,286.7,286.767,286.809,286.844,286.869,286.877,286.872,286.88,286.876,286.892,286.919,286.982,287.087,287.245,287.411,287.584,287.849,288.103,288.382,288.673,288.932,289.061,289.3,289.766,289.984,290.172,290.756,291.062,291.556,291.126,287.131,285.074,288.527,292.977,294.066,294.318,294.675,295.075,295.426,295.85,296.371,296.876,297.368,297.855,298.43,299.011,271.885,233.676,222.199,296.476,302.57,303.41,304.154,304.872,305.717,306.66,307.563,308.579,309.466,310.712,311.776,312.976,314.29,315.53,316.866,318.148,319.579,321.254,322.997,324.693,326.154,326.986,327.69,324.694,103.001,232.631,251.674,195.109,330.472,331.646,331.733,331.694,331.584,331.628,331.594,331.547,331.471,331.419,331.369,331.044,331.527,331.812,332.11,332.412,332.395,332.066,330.783,331.706,332.279,332.452,331.445,324.39,323.297,317.208,301.487,310.931,303.841,291.305,293.243,270.615,253.739,277.483,258.465,194.089,145.389,77.451,71.04,133.11,232.079,206.817,172.328,176.577,188.704,200.582,225.701,163.665,131.23,115.85,98.945,89.102,114.108,223.452,217.117,220.369,203.138,205.018,296.121,312.269,304.739,302.518,291.751,297.488,293.708,304.676,314.551,318.474,317.527,319.33,318.948,311.751,284.371,232.779,214.615,228.477,4.942,0,1.318,330.026,329.799,327.269,324.627,326.978,326.565,325.297,321.13,317.555,315.645,303.942,286.352,286.215,294.682,305.686,310.649,303.821,290.583,282.98,295.266,296.724,305.264,312.459,312.554,312.092,313.092,305.813,304.736,301.384,301.332,317.447,327.166,325.693,328.816,328.771,328.582,328.347,328.859,329.111,329.357,329.28,329.471,329.611,329.309,327.574,326.95,325.976,327.673,325.774,317.606,316.96,284.387,231.888,86.898,72.671,21.394,298.55,292.183,290.847,249.307,231.995,231.941,227.814,248.802,226.783,241.529,222.741,159.09,135.145,131.536,136.224,131.44,91.595,64.905,60.572,64.434,66.719,39.116,23.664,20.036,159.996,318.893,318.152,306.598,304.671,295.121,289.494,327.499,329.706,330.902,330.355,322.885,315.264,300.037,294.515,287.397,277.007,255.546,235.809,171.765,114.577,74.103,30.041,0,0,0,146.245,227.741,267.75,289.261,301.736,301.794,303.698,312.327,320.903,319.299,318.302,307.199,304.876,287.98,275.285,287.305,303.746,300.858,278.967,286.23,297.913,283.368,285.287,250.837,256.849,287.78,272.117,223.693,200.293,201.704,18.481,7.255,6.593,48.093,97.535,173.99,224.73,157.973,16.519,4.623,1.322,5.278,6.603,18.17,10.567,3.292,26.069,35.294,82.429,103.889,161.162,201.888,228.588,227.9,217.29,134.07,19.81,48.181,196.736,214.526,218.021,197.474,160.977,170.142,200.673,204.651,213.923,240.648,278.14,318.868,247.411,260.742,276.376,299.128,284.033,279.631,272.736,246.166,244.206,174.691,52.21,0.993,3.303,107.521,312.898,320.774,327.221,315.674,324.625,325.778,327.541,327.105,323.964,323.255,327.835,324.063,322.906,323.368,302.613,242.158,319.836,325.981,327.221,325.137,324.846,304.397,319.055,286.987,311.085,289.548,310.874,320.535,326.591,322.618,311.356,292.299,260.786,198.596,211.914,227.876,276.975,294.861,292.657,296.271,296.992,261.42,281.684,249.214,234.693,292.419,303.971,278.513,235.715,197.947,239.903,234.911,282.49,260.714,120.65,133.872,128.782,214.881,283.14,316.203,319.299,317.787,300.496,219.474,137.714,54.529,125.292,138.647,158.141,134.205,86.329,62.413,49.445,37.773,29.786,23.164,19.194,18.183,15.875,14.884,11.903,7.602,3.309,4.633,7.276,17.826,50.644,132.037,165.643,190.11,187.94,159.766,120.292,143.669,163.615,260.004,251.756,271.319,265.82,296.601,313.718,326.261,327.982,327.993,310.81,261.355,237.706,273.831,307.537,201.025,261.733,284.38,275.681,257.815,273.922,187.41,163.36,114.541,166.53,142.656,141.937,115.287,78.91,175.663,116.459,236.935,321.943,320.491,316.845,298.045,316.774,322.819,287.987,196.359,177.393,130.307,108.167,144.111,219.534,246.701,262.155,218.43,236.868,259.126,301.446,319.247,302.118,282.169,310.533,321.868,302.746,248.909,267.541,317.672,322.434,321.689,285.613,282.472,312.683,315.014,309.217,326.104,327.688,328.922,328.736,328.204,313.81,319.321,278.061,326.245,310.293,319.139,274.061,142.55,98.805,44.728,82.517,86.788,74.457,163.215,260.966,187.601,308.373,325.937,321.379
287.053,286.993,286.847,286.651,286.483,286.525,286.618,286.711,286.799,286.851,286.884,286.904,286.915,286.926,286.932,286.938,286.947,286.968,286.988,287.055,287.185,287.332,287.489,287.687,287.936,288.173,288.466,288.766,288.972,289.069,289.278,289.735,289.976,290.104,290.6,290.994,291.349,291.927,292.207,292.931,290.497,292.523,294.026,294.276,294.602,294.989,295.373,295.78,296.3,296.82,297.33,297.868,298.502,249.185,194.337,116.613,73.188,168.815,302.845,303.679,304.396,305.174,306.092,307.021,308.006,308.971,309.942,310.985,312.069,313.392,314.776,315.819,316.931,318.024,319.213,320.737,321.998,323.256,324.317,325.158,326.039,326.524,283.631,151.469,6.885,18.692,326.727,328.191,328.584,328.618,328.634,328.763,328.84,328.956,329.085,329.121,329.106,329.221,329.454,329.848,329.254,329.323,329.355,330.045,330.337,329.796,331.202,326.572,322.65,308.967,289.436,284.312,292.186,278.385,282.664,262.89,233.293,212.743,138.904,123.243,72.264,26.088,38.494,32.845,64.278,108.345,139.274,205.017,203.261,204.837,213.42,146.625,99.425,86.334,101.601,146.223,145.945,179.045,188.738,218.938,312.08,304.002,278.607,279.421,285.255,280.292,281.187,283.382,285.098,282.133,280.383,290.387,287.923,292.466,295.66,299.96,289.83,270.229,238.901,243.569,275.553,307.645,289.506,266.057,322.402,327.732,326.925,326.812,325.637,324.752,323.323,321.338,311.837,299.577,299.665,306.607,281.119,281.343,289.441,290.748,293.384,283.361,292.691,291.027,287.045,278.778,303.369,304.107,308.387,310.942,293.741,289.044,298.579,322.451,324.832,325.21,323.393,322.763,320.461,323.155,321.477,325.541,326.45,327.099,327.467,327.786,328.052,328.337,327.491,327.741,326.806,326.482,325.548,325.494,325.052,325.451,324.457,321.147,316.891,318.592,315.606,296.88,299.169,246.151,153.932,154.025,73.955,172.066,138.145,128.892,175.523,209.335,216.319,181.938,180.251,193.303,196.512,190.579,184.647,150.911,183.15,201.478,250.376,249.607,302.998,312.966,318.14,321.59,321.622,320.566,320.515,309.821,317.657,326.659,326.397,325.804,320.99,318.056,298.214,270.318,240.201,178.331,146.372,185.166,173.22,152.728,112.927,116.944,164.041,110.555,215.441,259.805,295.87,278.063,271.067,255.946,210.285,299.268,317.599,323.738,320.819,316.484,303.131,285.287,296.148,308.511,284.949,277.021,268.662,266.158,267.519,249.012,256.663,256.604,221.222,231.263,251.816,237.016,244.294,237.944,268.48,103.689,43.479,50.325,104.915,149.243,233.695,274.499,284.949,223.744,55.924,54.25,43.442,65.968,98.561,70.894,64.707,119.662,101.649,71.957,181.096,214.364,225.906,274.087,276.95,265.145,296.651,208.82,251.472,292.342,296.014,294.11,268.354,257.988,266.388,259.459,265.622,273.633,255.783,270.835,290.351,241.37,232.761,310.17,313.35,314.086,306.144,303.267,278.127,285.461,295.033,257.51,161.373,130.176,318.203,323.562,324.259,321.015,318.184,318.204,320.937,324.609,322.147,322.265,317.554,297.818,280.115,287.241,169.85,122.233,201.663,322.153,326.294,325.652,324.724,319.229,316.281,314.51,317.304,303.598,257.766,321.027,323.039,319.788,317.418,300.323,301.285,290.144,220.651,212.954,246.837,283.745,297.974,293.286,290.664,253.913,286.342,303.243,290.158,247.361,246.32,230.277,257.391,275.393,272.802,303.161,310.373,309.197,275.672,219.975,241.317,184.536,303.038,321.12,323.369,320.272,319.104,285.881,155.661,108.243,61.816,104.035,109.425,128.871,89.531,49.826,32.332,33.034,19.478,22.776,18.797,17.807,15.819,11.525,9.87,9.817,3.276,0.657,0,1.306,3.276,12.093,36.192,66.06,164.188,216.312,198.044,171.566,197.075,213.052,241.535,305.074,302.979,312.811,312.374,319.263,298.422,325.889,325.527,319.534,320.203,269.611,323.489,308.634,253.358,256.921,237.955,227.207,267.759,236.228,206.463,189.609,182.252,202.581,171.102,147.081,159.396,131.201,205.645,46.873,89.471,320.908,326.338,326.336,323.667,324.584,322.032,305.46,253.52,291.485,264.748,235.579,276.938,287.722,307.189,288.211,214.744,170.749,177.328,305.296,302.357,265.457,238.602,295.922,311.776,315.818,308.273,302.981,313.553,315.68,322.053,312.527,292.712,323.156,322.849,324.511,325.644,326.351,326.589,326.161,325.645,326.686,323.899,324.331,324.618,325.156,321.131,323.019,314.59,276.427,247.195,247.118,242.977,230.878,227.429,283.309,328.293,322.744,325.477,325.491
287.092,287.033,286.969,286.836,286.74,286.747,286.772,286.837,286.868,286.895,286.91,286.92,286.945,286.958,286.984,286.995,287.035,287.066,287.089,287.16,287.3,287.437,287.609,287.802,288.056,288.265,288.55,288.86,288.997,289.078,289.346,289.727,289.946,290.065,290.449,290.944,291.225,291.836,292.107,292.791,293.091,293.586,294.016,294.269,294.608,294.967,295.385,295.797,296.289,296.772,297.343,297.95,298.618,241.248,166.207,79.997,61.174,298.382,303.15,304.017,304.765,305.543,306.534,307.427,308.491,309.398,310.437,311.425,312.515,313.726,314.841,315.082,316.651,317.619,318.648,319.764,320.772,321.738,322.391,322.964,323.512,317.593,309.953,264.763,212.904,292.021,315.526,320.003,324.663,325.728,325.565,326.131,323.356,325.389,326.152,326.218,326.533,326.616,326.617,327.071,321.419,325.242,327.135,326.13,327.616,328.025,324.982,312.383,310.874,303.817,300.793,301.585,280.454,282.943,282.449,284.799,268.999,210.511,139.197,107.308,69.626,72.583,90.237,265.189,316.735,308.985,259.87,199.783,177.106,86.716,73.229,32.675,18.748,6.138,43.159,84.305,131.105,154.878,245.851,288.093,304.797,308.486,293.731,281.537,282.363,257.187,232.147,261.869,268.221,260.502,262.979,271.674,257.72,243.82,241.89,232.563,240.924,243.567,244.849,285.838,317.153,320.357,321.699,324.504,324.956,324.17,321.486,323.429,324.308,320.643,313.371,230.166,224.395,138.052,33.61,10.763,12.714,94.561,117.305,132.999,191.646,185.525,215.022,235.22,183.033,183.496,206.771,172.962,241.136,228.992,204.676,211.83,228.633,74.931,4.853,5.177,266.67,303.565,310.102,314.834,320.367,322.793,323.977,324.266,306.383,323.932,323.274,308.08,283.454,298.759,312.304,311.325,294.744,298.507,295.37,312.579,317.605,304.513,315.21,308.711,298.544,290.792,267.962,256.208,14.996,0,0,0,24.437,28.322,90.653,104.907,178.146,192.959,160.6,162.716,152.163,64.01,4.181,5.792,115.612,161.072,205.662,218.627,287.703,302.693,312.991,318.065,318.418,286.903,231.861,231.196,241.039,287.638,301.336,300.667,288.529,275.426,222.835,171.425,171.447,6.158,5.532,7.167,161.119,162.03,145.622,142.215,183.143,244.958,238.698,254.214,253.532,222.952,160.974,4.238,9.112,16.88,249.67,282.356,273.688,269.086,235.603,195.773,242.601,79.525,102.649,167.529,229.354,248.877,240.144,235.939,234.869,230.197,215.854,217.751,226.498,230.38,242.777,279.339,294.969,297.791,316.328,315.616,296.456,300.263,313.447,316.747,321.309,311.312,318.27,318.032,311.962,297.938,276.195,286.44,266.983,185.946,43.189,51.701,173.801,282.463,284.851,300.82,297.898,304.639,306.116,306.5,296.53,292.108,287.578,299.749,300.592,282.5,286.876,287.753,298.811,300.123,285.61,276.824,264.2,251.918,257.402,266.256,291.595,297.566,300.519,300.598,303.713,302.732,294.681,307.713,317.315,313.607,301.54,315.512,306.39,318.481,306.33,292.456,298.57,304.726,308.994,314.538,286.541,264.277,243.675,260.406,12.979,15.896,12.959,315.72,321.199,323.096,316.967,317.253,305.88,293.104,314.852,297.753,306.42,319.748,312.635,283.684,271.601,271.181,257.196,280.464,251.821,252.28,268.126,288.9,294.964,290.956,255.31,239.216,252.595,266.341,258.413,278.14,4.216,0.648,38.604,252.151,264.82,286.58,301.852,305.271,293.053,291.593,313.186,316.138,318.241,322.575,321.863,318.152,294.033,247.934,190.066,225.233,231.626,202.218,169.48,125.463,76.967,42.081,58.948,38.529,23.704,21.089,23.694,25.975,23.672,15.423,10.148,10.769,8.806,4.565,4.864,10.689,27.21,8.748,36.588,149.182,210.647,224.361,234.611,255.336,241.273,207.027,243.419,301.943,318.613,318.715,321.103,314.643,323.806,324.419,325.954,326.154,317.18,307.126,311.607,305.908,272.283,270.602,241.66,258.673,254.211,235.437,225.775,223.851,221.375,263.382,249.182,227.017,247.022,284.354,298.338,291.69,298.545,320.044,322.642,313.062,321.522,313.737,312.836,310.577,283.371,300.726,224.356,294.304,297.044,289.094,297.045,309.761,267.875,179.656,188.447,273.307,308.039,311.308,271.806,281.427,281.279,302.251,321.365,308.95,315.027,317.873,300.051,320.763,296.823,308.313,321.322,323.306,323.729,322.695,324.554,324.725,321.621,322.335,323.402,323.506,313.076,304.58,316.223,322.011,315.546,324.698,320.038,310.177,311.59,317.949,324.022,324.549,326.083,326.749,304.555,325.879
