9588.09,9565.88,9499.21,9449.01,9395.88,9338.46,9240.63,9156.7,8995.88,8812.83,8620.72,8428.96,8237.16,8062.61,7856.72,7639.63,7405.55,7240.52,7098.75,6970.96,6854.75,6745.86,6641.92,6589.31,6569.16,6586.07,6649.21,6787.85,6972.73,7162.22,7387.14,7603.1,7819.26,8058.41,8282.91,8424.75,8544.65,8657.17,8767.49,8880.63,8989.28,9104.79,9226.52,9336.79,9429.81,9524.26,9606.42,9657.21,9686.95,9699.91,9700.65,9673,9661.05,9647.87,9631.75,9611.76,9596.11,9610.86,9620.5,9629.12,9682.89,9755.61,9822.4,9861.09,10000,10000,10000,10000,10000,10000,10000,10000,10000,9874.25,9860.1,9886.31,9879.08,9877.29,9873.7,9872.25,9844.65,9824.68,9688.06,9534.88,9379.27,9198.29,9027.43,8880.62,8787.28,8681.45,8511.09,8385.69,8312.44,8241.62,8201.04,8173.04,8131.45,8041.05,8024.47,8097.16,8227.19,8302.49,8349.04,8380.17,8395.98,8407.26,8418.56,8440.7,8403.8,8350.43,8306.08,8285.27,8268.28,8247.86,8233.86,8247.77,8260.66,8282.17,8296.11,8315.13,8330.36,8340.26,8362.42,8343.17,8293.56,8258.58,8228.53,8212.34,8187.4,8152.49,8142.65,8136.41,8162.85,8152.98,8167.17,8192.28,8189.62,8197.84,8231.25,8243.5,8236.18,8256.82,8259.07,8260.95,8302.24,8325.46,8342.53,8341.3,8343.49,8340.83,8355.16,8357.5,8357.12,8363.51,8359.69,8357.1,8349.55,8350.58,8376.57,8398.92,8428.76,8436.71,8446.37,8465.52,8484.02,8494.11,8494.02,8464.84,8430.33,8404.86,8385.3,8365.75,8340.58,8312.14,8290.02,8271.86,8254.69,8234.15,8213.27,8200.79,8185.21,8142.31,8112.27,8108.99,8107.12,8119.62,8128.49,8142.7,8153.3,8180.21,8227.61,8272.43,8323.81,8385.18,8433.14,8475.02,8511.43,8572.9,8612.53,8602.69,8591.75,8572.01,8525.13,8480.8,8422.78,8365.79,8283,8210.84,8162.61,8100.57,8048.88,7995.83,7961.29,7927.1,7906.86,7883.62,7845.44,7701.75,7501.9,7342.59,7181.86,7033.11,6923.17,6791.29,6662.64,6557.78,6515.49,6516.93,6556.24,6603.44,6668.81,6759.92,6868.79,6984.06,7105.63,7262.1,7405.77,7499.29,7557.82,7611.49,7626.71,7621.86,7626.28,7631.88,7629.44,7610.5,7598.4,7601.45,7604.35,7606.46,7612.02,7613.29,7620.38,7620.7,7629.37,7634.02,7638.33,7646.82,7654.85,7667.32,7679.33,7692.43,7713.33,7732.8,7753.04,7749.64,7773.04,7780.23,7782.01,7795.46,7790.91,7783.52,7769.78,7765.25,7753.82,7743.57,7716.92,7679.69,7635.39,7595.62,7552.92,7481.35,7346.54,7188.11,7042.75,6887.46,6767.13,6635.68,6482.69,6348.88,6261.23,6153.3,6113.67,5900.78,69.004,47.515,50.545,43.618,2826.15,2824.74,2831.23,2808.11,2800.52,2791.26,2780.18,2769.58,2763.65,2752.23,2743.75,2725.5,2726.15,2724.8,2732.95,2739.58,2767.68,2790.15,2804.11,2886.26,1490.49,6866.29,7051.9,7153.32,7314.7,7359.76,7397.77,7408.78,7434.19,7469.31,7468.8,7475.2,7496.07,7513.23,7525.76,7539.94,7555.22,7566.66,7579.6,7596.97,7605.06,7593.01,7583.31,7565.69,7549.49,7533.19,7512.96,7488.4,7467.63,7452.44,7438.89,7424.17,7411.37,7394.81,7374.59,7361.58,7348.07,7337.88,7332.67,7329.3,7335,7345.61,7365.47,7390.57,7406.35,7410.46,7401.7,7381.94,7353.63,7317.61,7278.89,7238.33,7203.56,7167.81,7141.71,7126.73,7113.34,7108.16,7111.81,7118.74,7134.19,7153.2,7172.48,7205.96,7233.35,7248.59,7256.96,7254.98,7245.19,7220.9,7190.23,7161.58,7128.96,7095.63,7066.97,7039.83,7020.35
9374.8,9365.21,9321.15,9265.41,9210.35,9153.94,9048.01,8957.42,8802.8,8628.03,8448.26,8271.03,8092.84,7925.65,7740.7,7550.97,7341.53,7185.65,7056.87,6943.28,6837.98,6733.08,6624.94,6579.02,6535.7,6526.71,6607.92,6751.32,6919.68,7114.7,7327.72,7534.65,7742.1,7967.57,8190.52,8332.15,8413.8,8533.5,8627.87,8727.68,8831.25,8936.28,9048.94,9151.56,9233.85,9316.04,9387.17,9441.49,9464.6,9474.85,9451.6,9434.81,9414.29,9389.09,9379.94,9364.91,9350.76,9372.47,9386.67,9401.82,9487.93,9540.29,9616.09,9698.42,9755.69,9823.85,9829.06,9858.62,9878.22,9848.7,9812.79,9751.65,9675.35,9618.45,9589.64,9605.92,9597.52,9609.62,9624.51,9639.76,9610.16,9594.75,9458.63,9328.39,9197.91,9025.42,8856.92,8712.62,8620.41,8515.76,8360.71,8254.17,8174.4,8106.16,8072.1,8056.48,8026,7920.56,7890.27,7940.48,8051.73,8116.99,8167.01,8184.48,8161.69,8176.98,8206.53,8127.16,7964.72,7806.23,7802.28,7993.95,8004.95,8048.69,8067.85,8084.29,8115.38,8135.26,8146.33,8163.45,8161.26,8158.59,8167.77,8132.23,8064.45,8026.57,7989.15,7970.12,7948.42,7925.6,7911.47,7907.65,7905.54,7970.03,7966.26,7996.3,8029.63,8046.38,8089.4,8122.72,8139.6,8122.22,8146.4,8146.85,8175.5,8195.31,8219.39,8221.7,8216.43,8212.8,8226.18,8235.47,8243.35,8245.62,8246.25,8251.48,8262.48,8270.42,8299.24,8323.69,8354.49,8368.86,8380.24,8409.57,8436.1,8452.89,8460.71,8434.98,8402.46,8379.93,8357.01,8335.17,8303.71,8266.98,8231.8,8195.52,8163.79,8134.63,8106.52,8079.35,8056.13,8032.45,8010.2,7995.68,8013.47,8017.7,7997.98,8011.96,8031.96,8053.8,8107.82,8143.13,8197.35,8256.18,8312.86,8365.26,8407.29,8487.16,8545,8543.24,8549.84,8539.21,8501.2,8447.49,8399.65,8348.58,8252.46,8173.75,8126.3,8065.78,8003.35,7951.28,7918.04,7883.29,7862.25,7836.3,7799.48,7671.73,7485.74,7330.47,7176.95,7028.68,6919.48,6790.91,6664.15,6558.5,6509.45,6500.28,6536.13,6582.09,6633.55,6733.71,6839.3,6943.08,7079.07,7233.76,7381.86,7480.59,7551.24,7609.38,7624.27,7614.8,7619.17,7616.71,7601.72,7581.77,7564.96,7562.16,7558.46,7565.52,7570.43,7571.84,7581.29,7585.78,7593.91,7600.58,7615.65,7617.08,7621.2,7631.96,7642.55,7655.84,7680.71,7685.16,7702.07,7719.1,7742.08,7748.87,7754.48,7766.28,7746.04,7748.31,7742.85,7731.07,7720.21,7723.77,7707.65,7667.51,7632.38,7609.6,7562.76,7475.15,7340.65,7176.58,7005.9,6838.65,6702.82,6557.47,6416.32,6274.97,6166.2,6068.54,5901.3,5540.83,98.063,54.674,67.151,52.337,2831.95,2828.81,2833.17,2811.57,2796.93,2791.13,2779.79,2769.55,2763.89,2755.75,2744.31,2725.4,2732.09,2724.52,2731.63,2738.13,2760.11,2783.38,2795.88,2874.35,1063.7,6931.84,7105.57,7197.2,7336.37,7382.98,7413.67,7433.08,7464.18,7474.25,7481.75,7487.67,7506.53,7519.85,7526.85,7535.67,7543.95,7549.02,7560.77,7577.19,7585.17,7571.79,7557.76,7541.77,7527.02,7509.63,7493.55,7468.87,7448.32,7435.34,7424.17,7411.27,7403.58,7388.75,7377.59,7366.59,7360.17,7352.96,7348.55,7349.96,7356.85,7370.13,7391.85,7416.39,7434.87,7439.02,7430.51,7414.86,7387.68,7350.34,7313.33,7273.66,7238.34,7203.04,7176.83,7160.69,7147.09,7140.54,7145.27,7149.85,7165.77,7185.48,7207.62,7238.09,7267.74,7276.85,7283.14,7279.04,7263.31,7234.37,7201.28,7168.96,7134.5,7101.04,7071.81,7044.69,7030.86
9209.24,9181.42,9123.08,9067.88,9019.85,8968.08,8877.22,8786.89,8658.64,8517.39,8366.21,8213.33,8056.08,7908.21,7742.53,7572.95,7377.65,7217.36,7079.65,6962.77,6850.2,6737.71,6624.15,6580.95,6502.44,6495.24,6578.44,6703.13,6844.98,7056.33,7259.91,7460.78,7662.87,7900.66,8106.81,8223.21,8306.12,8407.96,8512.95,8598.83,8683.5,8780.35,8879.49,8971.6,9045.15,9120.57,9182.5,9217.88,9235.6,9247.42,9231.62,9197.09,9169.25,9138.14,9116.67,9101.25,9098.97,9110.49,9135.31,9155.46,9235.74,9352.93,9428.76,9483.1,9559.56,9623.34,9649.38,9680.55,9681.81,9630.72,9567.99,9493.95,9423.27,9363.91,9328.08,9330.53,9318.14,9332.19,9356.37,9365.02,9320.7,9326.8,9220.13,9104.87,9005.21,8858.73,8695.87,8550.51,8466.34,8359.93,8221.16,8133.42,8059.18,7991.43,7965.81,7956.36,7927.23,7846.14,7810.78,7812.5,7423.85,5503.72,5991.36,5012.72,3304.42,1931.83,2176.28,2227.66,1225.86,989.022,791.896,1228.6,1768.7,2088.35,1902.58,3401.25,6176.91,7688.19,7831.3,7846.12,7818.83,7372.03,5762.03,4384.74,6006.35,6450.58,6871.56,6826.63,6755.71,6146.84,6425.87,6834.06,7082.15,7595.02,7770.7,7791.23,7844.13,7872.19,7911.45,7953.85,8006.43,8012.73,8008.77,8039.76,8078.49,8102.34,8109.6,8105.08,8100.03,8100.94,8125.52,8135.78,8133.44,8134.77,8140.31,8150.25,8174.94,8191.46,8225.61,8251.16,8285.9,8308.47,8327.4,8362.47,8396.86,8420.9,8437.42,8413.47,8379.73,8356.55,8338.55,8315.5,8282.81,8240.04,8196.3,8155.04,8119.15,8085.48,8050.63,8019.37,7985.74,7959.95,7948.84,7939.9,7938.83,7951.39,7949.46,7946.47,7982.56,8004.56,8048.31,8086.49,8120.59,8179.55,8224.99,8275.94,8327.2,8411.9,8477.35,8486.52,8501.92,8508.04,8477.09,8416.44,8370.41,8316.65,8226.26,8143.92,8086.26,8023.54,7963.21,7910.72,7864.47,7832.64,7812.96,7784.74,7758.22,7637.56,7466.99,7317.96,7172.22,7028.88,6915.82,6789.59,6663.6,6557.84,6504.09,6486.95,6507.49,6552.67,6603.85,6690.62,6807.97,6909.17,7038.17,7208.04,7363.06,7470,7550.63,7626.4,7643.71,7620.72,7626.93,7609.63,7585.33,7561.03,7535.39,7528.39,7519.13,7525.75,7535.88,7541.02,7552.45,7562.26,7573.28,7578.72,7591.23,7596.51,7599.84,7613.41,7621.76,7632.1,7643.38,7654.84,7662.46,7684.09,7705.68,7709.52,7712.04,7714,7709.78,7701.48,7708.45,7701.29,7691.39,7685.14,7674.61,7649.32,7621.83,7601.2,7542.64,7429.1,7307.04,7136.12,6968.75,6794.26,6641.42,6487.9,6324.25,6149.24,6017.17,5895.15,5697.37,5199.62,173.981,61.563,102.984,93.657,2841.77,2830.84,2834.12,2812.42,2796.76,2788.71,2780.14,2770.22,2764.49,2756.89,2745.75,2726.19,2729.12,2723.98,2730.89,2736.53,2757.27,2777.01,2786.75,2841.12,692.044,6947.58,7119,7229.36,7355.53,7400.4,7440.73,7462.94,7467.61,7490.85,7496.68,7495.14,7509.47,7519.27,7523.86,7523.96,7523.52,7526.11,7533.76,7545.21,7548.56,7531.57,7521.02,7504.79,7486.22,7469.5,7455.54,7437.98,7416.85,7406.63,7401.39,7384.48,7380.02,7371.87,7362.59,7358.64,7354.45,7354.87,7354.95,7360.79,7372.71,7391.85,7423.32,7448.21,7464.78,7473.71,7467.99,7443.37,7418.61,7377.82,7344.46,7304.64,7268.89,7233.95,7205.31,7189.89,7177.66,7171.28,7174.28,7177.83,7193.27,7215.48,7244.93,7270.84,7291.3,7302.25,7306.6,7298.54,7283.05,7249.84,7214.25,7179.31,7143.6,7108.77,7081.23,7058.87,7044.32
9012.47,8982.56,8928.52,8876.2,8834.91,8802.39,8730.45,8646.64,8532.36,8418.49,8292.16,8167.22,8047.83,7908.81,7748.59,7595.08,7418.97,7257.45,7119.47,6995.3,6875.06,6752.53,6657.51,6537.85,6488.13,6479.31,6568.34,6694.78,6846.19,7035.26,7235.85,7431.36,7634.58,7880.04,8077.84,8198.58,8291.08,8375.75,8456.04,8534.87,8615.57,8705.39,8793.86,8873.96,8943.71,9007.27,9057.92,9076.56,9087.3,9073,9038.83,9001.64,8958.34,8911.68,8878.31,8845.78,8838.84,8868.21,8881.83,8914.51,9018.7,9127.73,9219.03,9282.09,9331.99,9393.19,9417.85,9434.62,9407.67,9366.12,9325.18,9270.41,9208.62,9148.9,9114.05,9117.24,9104.13,9120.94,9135.64,9142.05,9111.41,9076.47,8976.01,8880.6,8791.34,8671.05,8531.14,8398.65,8334.01,8228.88,8113.16,8036.57,7971.55,7917.38,7902.58,7909.97,7897.47,7810.47,7792.18,7619.05,7309.93,7288.05,6449.77,6290.46,5148.02,3829.91,3427.56,3047.05,3975.63,3064.94,2948.72,2986.34,2514.51,4100.56,4911.21,6060.2,7024.2,7439.99,7512.88,7556.86,7549.74,7516.89,7179.06,6410.81,6491.26,6434.05,6840.23,7180.19,7172.89,7208.84,6988.47,7216.48,7434.08,7570.83,7590.5,7634.1,7647.63,7678.09,7719.37,7761.52,7813.04,7836.95,7852.74,7871.25,7960.89,7987.1,7998.85,7989.81,7992.21,8007.5,8035.75,8037.22,8037.42,8034.52,8040.79,8057.33,8088.13,8106.36,8145.55,8176.06,8215.03,8235.5,8261.67,8301.12,8342.32,8372.64,8395.27,8377.95,8352,8332.53,8314.58,8294.88,8260.25,8214.23,8162.65,8116.23,8073.05,8038.86,8003.36,7959.29,7917.62,7889.38,7874.04,7865.17,7862.87,7870.24,7861.09,7875.83,7893.68,7916.05,7956.2,7996.63,8035.92,8064.99,8126.9,8182.67,8233.99,8329.26,8406.43,8419.33,8450.09,8461.09,8438.39,8384.3,8329.13,8263.97,8170.41,8078.9,8018.38,7946.49,7884.4,7834.27,7796.13,7753.17,7736.28,7706.81,7686.84,7583.65,7428.67,7294.75,7156.7,7014.31,6904.95,6782.17,6661.25,6557.9,6497.63,6474.92,6480.57,6514.44,6563.2,6651.62,6767.29,6871.73,7007.54,7171.04,7338.35,7455.12,7559.4,7648.26,7672.98,7635.54,7638.12,7614.83,7579.95,7547.67,7508.51,7490.94,7486.66,7483.62,7491.54,7497.19,7515.37,7532.11,7548.16,7554.97,7577.91,7588.17,7586.31,7588.4,7597.43,7586.52,7612.63,7613.81,7617.58,7635.35,7669.07,7677.87,7667.59,7671.46,7660.69,7652.47,7650.72,7650.99,7657.96,7630.19,7629.83,7618.31,7611.24,7562.96,7500.34,7388.59,7251.28,7106.28,6936.94,6763.78,6603.31,6456.2,6263.37,6090.83,5937.24,5793.78,5527.73,4643.28,402.376,92.771,131.259,306.935,2852.95,2837.68,2837.76,2815.26,2800.79,2792.31,2780.55,2771.05,2764.99,2757.93,2747.12,2727.09,2729.6,2723.75,2730.62,2735.73,2751.58,2775.76,2791.81,2842.78,602.93,6869.36,7103.24,7220.65,7343.94,7393.72,7432.52,7442.75,7461.88,7476.26,7483.97,7482.72,7497.35,7503.36,7502.47,7497.77,7496.64,7490.04,7492.01,7495.74,7499.07,7483.66,7465.84,7451.9,7437.22,7421.36,7404.76,7386.94,7374.79,7363.1,7357.65,7351.4,7348.73,7347.46,7339.93,7338.91,7343.29,7348.76,7356.77,7370.25,7385.29,7404.31,7436.61,7463.4,7482.67,7489.15,7481.02,7461.25,7431.1,7396.52,7360.01,7320.23,7284.74,7247.22,7221.54,7204.34,7191.69,7185.96,7189.32,7193.94,7212.21,7229.55,7262.04,7288.18,7312.07,7318.76,7322.41,7315.17,7297.06,7262.64,7225.01,7189.65,7153.23,7116.14,7088.01,7065.76,7053.93
8793.74,8762.14,8715.37,8680.79,8646.38,8626.4,8572.87,8498.37,8407.83,8310.67,8207.62,8102.75,8010.28,7891.36,7751.18,7595.93,7430.96,7281.37,7143.52,7027.95,6911.57,6783.12,6642.05,6546.54,6483.5,6480.91,6573.28,6706.48,6845.03,7023.79,7218.47,7406.86,7608.9,7858.62,8049.76,8163.71,8246.58,8317.04,8386.79,8457.56,8532.04,8608.31,8683.37,8752.17,8807.74,8860.73,8888.2,8910.86,8918.95,8905.77,8870.83,8829.28,8792.46,8747.56,8715.5,8683.07,8678.75,8693.48,8705.14,8751.81,8844.05,8935.41,9012.36,9074.99,9107.87,9165.29,9196.21,9170.37,9154.37,9128.07,9079.35,9036.49,8972.3,8916.33,8868.51,8877.14,8865.28,8871.5,8875.07,8869.58,8844.41,8815.23,8734.91,8658.48,8587.89,8490.41,8374.45,8271.82,8212.77,8123.07,8029.99,7964.01,7913.12,7868.05,7860.36,7877.59,7868.16,7823.77,7797.73,7801.4,7827.87,7791.52,7759.86,7682.51,7046.88,6387.27,6269.81,4815.74,5569.49,6145.43,4637.38,4569.69,3663.08,5317.66,6767.06,7084.67,7154.69,7358.1,7413.42,7436.04,7451.83,7496.6,7499.15,7390.17,7330.9,7279.15,7411.61,7471.57,7515.39,7485.64,7451.18,7441.46,7455.44,7498.36,7501.98,7509.87,7528.35,7544.68,7592.14,7621.51,7667.33,7682.24,7716.25,7740.32,7816.32,7853.04,7871.43,7870.25,7900.5,7933.03,7971.85,7967.96,7960.39,7954.14,7961.87,7961.94,7816.72,7900.22,7940.8,7988.25,8035.79,8058.2,8080.39,8111.49,8049.64,8007.56,7997.9,8048.17,7981.3,8119.87,8182.5,8184.9,8189.02,8150.59,8077.07,8049.21,8002.5,7972.5,7938.58,7890.85,7844.6,7814.45,7792.82,7783.67,7781.12,7788.32,7783.01,7784.09,7800.05,7811.93,7839.18,7869.77,7892.31,7944.85,8006.37,8064.94,8116.66,8229.7,8317.35,8341.2,8379.18,8408.43,8396.24,8349.61,8285.23,8208.6,8102.37,8009.43,7935.04,7861.76,7788.19,7736.84,7692.2,7663.1,7640.59,7591.03,7575.73,7495.62,7369.57,7250.2,7127.6,6989.55,6889.14,6784.74,6669.91,6557,6495.55,6463.22,6463.77,6490.63,6530.21,6617.83,6732.42,6843.18,6978.88,7144.74,7317.84,7453.63,7574.21,7686.3,7717.93,7686,7671.33,7634.48,7588.45,7535.66,7488.6,7459.63,7438.32,7432.61,7449.17,7472.98,7494.55,7514.69,7538.12,7553.32,7561.97,7562.41,7566.92,7560.8,7539.38,7528.74,7547.65,7559.92,7573.67,7587.79,7618.65,7630.36,7631.49,7627.92,7631.82,7637.15,7631.75,7628.03,7636.57,7619.35,7612.17,7625.52,7599.99,7551.57,7469.56,7360.35,7216.15,7083.62,6913.84,6755.17,6594.36,6433.75,6261.8,6088.83,5911.29,5702.78,5236.18,2894.31,631.343,108.654,499.377,1464.63,2877.58,2848.25,2841.35,2817.71,2803.16,2793.67,2780.93,2771.62,2765.67,2759.02,2748.27,2727.7,2729.6,2725.28,2734.79,2739.79,2750,2772.01,2793.03,2837.27,679.23,6728.16,7031.44,7184.72,7327.15,7390.7,7416.97,7430.02,7448.35,7464.46,7467.83,7462.56,7466.3,7470.99,7461.43,7455.03,7447.62,7438.55,7428.11,7429.23,7428.34,7412.45,7398.97,7384.21,7370.69,7353.86,7343.21,7334.71,7320.34,7310.58,7304.56,7301.92,7305.05,7314.23,7311.6,7314.39,7323.95,7336.45,7348.75,7364.75,7383.47,7412.14,7435.02,7455.85,7479.23,7487.26,7482.59,7453.95,7426.74,7388.48,7354.52,7322.12,7280.32,7244.96,7224.29,7204.17,7194.77,7191.08,7195.64,7200.9,7221.38,7242.04,7271.25,7301.24,7323.77,7333.23,7337.76,7332.65,7312.15,7281.36,7244.04,7204.5,7168.32,7130.32,7100.84,7078.46,7066.04
8643.02,8621.12,8588.4,8557.64,8549.53,8539.7,8499.19,8424.61,8348.73,8261.39,8168.09,8081.29,7994.3,7890.4,7772.31,7626.58,7458.71,7296.75,7165.42,7058.56,6938.67,6806.98,6659.88,6562.84,6497.03,6477.87,6581.44,6720.89,6843.31,7002.4,7214.18,7392.52,7591,7843.65,8026.84,8128.69,8193.01,8241.78,8307.55,8373.48,8439,8504.15,8564.78,8623.05,8668.32,8716.96,8736.54,8755.03,8763.83,8751.37,8727.78,8697.03,8664.69,8639.63,8603.34,8585.88,8569.63,8578.51,8592.05,8633.57,8695.22,8762.19,8816.21,8861,8879.93,8917.81,8921.74,8899.21,8871.75,8834.38,8797,8764.22,8699.66,8651.05,8612.1,8614.35,8619.1,8626.73,8635.11,8630.72,8615.25,8591.79,8537.56,8480.39,8417.02,8351.36,8275.63,8204.68,8145.26,8079.71,8008.25,7966.35,7932.24,7901.37,7899.03,7915.01,7892.81,7862.44,7856.94,7857.5,7862.47,7841.96,7813.49,7746.74,7337.56,7214.48,7330.16,6936.86,6654,5728.08,6061.06,4606.12,5195.57,6941.27,7188.79,7216.84,7161.78,7267.28,7269.08,7308.62,7392,7430.04,7438.11,7484.54,7523.75,7534.61,7549,7574.98,7581.61,7557.02,7530.43,7479.83,7489.32,7505.56,7528.06,7496.48,7477.89,7446.17,7212.39,7238.81,7482.88,7550.92,7530.67,7647.64,7744.17,7759.82,7778.54,7801.09,7827.17,7870.99,7911.95,7899.06,7630.99,7028.18,7368.41,7627.87,7467.24,6858.96,6504.63,6296.21,5983.58,6172.18,5194.56,5144.75,5329.49,4643,3998.31,4048.9,4432.15,4514.39,5208.17,5818.56,6015.18,5953.08,6299.76,6694.37,7267.38,7760.73,7830.12,7771.52,7731.27,7698.15,7640.73,7642.89,7659.02,7668.95,7670.87,7669.9,7684.11,7689.97,7709.74,7733.63,7741.51,7801.73,7864.02,7926.65,7980.3,8102.56,8211.15,8244.54,8300.5,8342.76,8338.85,8295.03,8226.07,8145.25,8030.23,7922.31,7846.13,7762.7,7685.64,7625.79,7577.16,7542.86,7518.88,7481.89,7460.97,7398.76,7300.46,7200.56,7092.75,6972.67,6880.74,6770.74,6666.65,6567.97,6495.53,6450.98,6438.2,6458.82,6497.85,6584.92,6703.37,6810.04,6946.69,7118.68,7303.98,7453.92,7590.67,7717.22,7745.73,7693.92,7664.37,7627.19,7564.19,7490.86,7450.86,7410.86,7380.8,7383.72,7413.35,7444.93,7468.36,7496.93,7525.93,7534.29,7538.81,7537.26,7523.52,7510.95,7491.48,7482.33,7483.88,7498.04,7526.65,7550.7,7569.7,7581.08,7592.6,7585.16,7602.41,7605.53,7608.55,7603.98,7604.93,7589.87,7602.31,7597.35,7563.12,7515.04,7443.03,7322.39,7175.18,7059.35,6902.1,6750.99,6558.1,6450.63,6279.79,6112.35,5929.78,5401,4571.55,2313.26,538.334,340.311,2096.03,3005.04,2892.95,2857.4,2845.94,2820.71,2805.29,2794.9,2781.95,2772.44,2766.45,2760.13,2752.46,2729.26,2730.83,2726.98,2735.46,2740.66,2748.02,2773.11,2811.16,2867.17,758.835,6528.07,6963.83,7150.19,7317.14,7386.72,7419.82,7438.83,7444.52,7455.59,7454.81,7439.35,7437,7428.49,7416.84,7398.62,7385.37,7367.68,7351.28,7347.79,7342.95,7330.68,7317.92,7309.46,7295.46,7282.99,7278.74,7269.55,7257.46,7257.78,7255.13,7248.97,7256.58,7269.69,7276.07,7281.91,7297.38,7316.72,7335.39,7356.96,7377.67,7400.19,7424.08,7447.51,7476.23,7476.95,7468.42,7444.16,7410.29,7371.72,7344.05,7301.31,7265.56,7238.81,7209.91,7198.1,7191.36,7188.1,7195.05,7205.88,7226.08,7256.99,7282.6,7313.41,7336.5,7347.94,7352.34,7349.6,7333.48,7303.3,7262.41,7225.71,7187.2,7152.09,7122.37,7097.6,7085.38
8518.37,8517.32,8501.51,8483.08,8474.37,8474.85,8450.27,8390.47,8327.82,8254.52,8168.87,8081.18,8000.92,7905.67,7791.44,7659.93,7502.1,7339.12,7206.58,7079.55,6954.35,6823.87,6712.09,6587.78,6510.87,6498.36,6589.3,6732.18,6869.47,7014.79,7195.74,7359.57,7564.73,7814.68,7996.35,8082.14,8128.82,8175.47,8234.2,8295.09,8350.71,8404.41,8458.14,8506.08,8547.71,8585.71,8606.07,8617.71,8618.85,8612.65,8594.61,8573.58,8551.87,8533.6,8515.25,8507.2,8499.76,8507.75,8526.61,8547.24,8599.27,8635.58,8668.73,8697.05,8715,8715.26,8716.65,8668.86,8627.84,8582.94,8543.02,8521.69,8464.07,8438.64,8407.61,8444.19,8449.38,8466.95,8487.34,8505.8,8509.66,8509.78,8451.35,8402.53,8359.99,8292.05,8212.33,8161.73,8115.87,8050.35,8008.83,7991.97,7971.51,7960.05,7965.46,7981.61,7964.46,7934.13,7925.31,7913.83,7908.23,7893.52,7867.84,7827.23,7787.41,7748.49,7681.02,7654.46,7631.24,7458.04,7473.42,7458.67,7461.8,7418.36,7386.02,7397.54,7389.67,7393.17,7409.93,7434.03,7471,7507.69,7561.89,7595.34,7614.11,7650.76,7672.86,7683.14,7676.3,7647.14,7611.63,7554.43,7549.1,7566.55,7583.04,7561.57,7554.43,6906.82,6016.5,7189.27,7407.43,7496.36,7581.75,7562.75,7695.36,7712.16,7731.38,7756.44,7792.19,7818.2,7833.2,7837.76,7634.42,6263.77,4347.54,5767.21,5556.36,4951.2,2362,1520.08,1258.26,1407.13,971.005,894.139,912.166,993.522,766.569,886.012,814.187,873.382,938.872,1270.43,1214.07,1131.53,1188.17,1150.31,1452.89,3103.02,3842.73,4118.31,3946.31,4010.97,4618.07,6148.07,6533.15,5761,5176.94,5756.6,6125.92,6550.2,6587.66,6379.5,6389.42,6326.64,6444.85,6825.25,7573.95,8012.79,8144.51,8203.01,8280.52,8332.7,8328.09,8275.23,8195.12,8099.41,7852.22,7856.29,7775.92,7692.1,7606.38,7542.72,7486.38,7454.46,7439.79,7416.54,7406.54,7369.71,7292.59,7212.88,7115.51,7016.12,6915.62,6800.61,6695.65,6591.76,6508.66,6451.39,6425.56,6427.53,6458.68,6543.8,6658.32,6765.63,6903.02,7079.25,7285.31,7453.05,7606.15,7750.64,7780.57,7724,7690.31,7644.4,7571.8,7471.89,7421.11,7379.98,7352.44,7355.92,7395.96,7440.83,7467.52,7493.88,7505.89,7510.05,7506.43,7498.75,7479.5,7463.63,7452.61,7424.24,7428.2,7433.04,7466.21,7497.15,7517.09,7531.57,7540.71,7542.88,7565.31,7572.75,7575.18,7576.63,7584.75,7572.76,7577.65,7564.89,7521.41,7467.32,7399.88,7285.48,7152.7,7038.92,6896,6758.75,6602.49,6478.1,6325.68,6152.02,4394.12,3548.58,2671.52,3776.38,2377.86,897.244,807.266,2995,2895.47,2859.15,2847.81,2822.2,2806.95,2794.9,2781.78,2772.5,2766.73,2763.36,2753.82,2730.98,2726.53,2734.69,2736.29,2740.24,2753.97,2790.22,2854.34,2911.58,968.332,6220.68,6767.81,7077.77,7259.93,7371.81,7411.98,7441.24,7451,7456.2,7451.99,7435.23,7425.24,7426.75,7413.71,7379.35,7353.61,7328.03,7306.51,7303.25,7282.81,7259.53,7247.52,7244.77,7234.65,7223.22,7212.62,7211.57,7204.42,7201.68,7203.49,7201.16,7209.93,7227.74,7237.27,7248.21,7271.71,7291.52,7313.92,7340.09,7362.39,7385.63,7415.5,7429.26,7457.1,7453.25,7443.45,7424.32,7394.08,7358.76,7313.74,7276.72,7255.77,7224.43,7199.56,7192.05,7188.62,7182.38,7192.81,7204.68,7241.98,7270.04,7297.84,7327.06,7350.52,7363.54,7372.72,7370.83,7356.21,7329.45,7293.02,7257.78,7221.66,7183.29,7152.73,7128.66,7116.38
8452.05,8459.95,8454.63,8440.62,8435.89,8438.89,8419.63,8371.41,8308.32,8234.88,8147.52,8057.87,7976.86,7880.29,7769.63,7641.27,7493.97,7341.28,7204,7076.76,6958.16,6827.54,6721.98,6584.02,6516,6489.16,6598.61,6714.66,6856.45,6985.77,7158.01,7330.6,7529.83,7783.01,7958.59,8035.8,8076.38,8116.56,8172,8219.31,8263.23,8310.21,8353.92,8391.76,8423.92,8455.76,8460.71,8480.9,8481.49,8480.29,8471.79,8460.22,8444.76,8433.2,8423.17,8426.87,8433.26,8435.41,8453.74,8484.61,8506.81,8537.75,8559.22,8579.02,8585.33,8584.36,8570.12,8543.76,8490.35,8446.93,8408.8,8395.11,8356,8331.25,8305.13,8340.25,8350.74,8376.57,8410.69,8442.24,8457.55,8468.19,8422.71,8391.05,8362.78,8316.32,8254.42,8203.81,8153.04,8095.02,8055.93,8044.24,8048.2,8059.36,8058.9,8070.82,8061.49,8038.04,8024.25,8008.17,7992.17,7966.35,7924.6,7873.48,7827.61,7782.77,7714.95,7685.37,7661.91,7618.35,7569.52,7524.6,7493.52,7449.71,7411.33,7409.29,7395.61,7397.59,7414.54,7440.94,7476.43,7514.9,7569.93,7612.34,7649.98,7698.96,7722.58,7721.74,7725.69,7714.1,7684.87,7622.59,7628.17,7644.25,7670.38,7645.68,7660.58,7666.72,7605.25,7612.14,7617.63,7652.72,7580.43,7405.4,7690.45,7707.76,7729.23,7749,7775,7788.58,7807.15,7784.34,6781.93,6487.48,4281.03,1928.61,1357.69,1091.98,899.306,250.919,139.252,194.867,155.004,151.701,154.393,138.325,109.166,101.947,116.643,94.053,125.19,116.863,109.516,109.016,131.231,160.459,228.376,392.142,585.766,642.922,588.246,636.509,826.531,3294.28,4781,2486.71,1447.68,1730.86,2132.09,2718.05,3075.7,2582.2,2197.1,2054.4,1785.14,1740.69,1398.12,2657.79,2212.16,3150.67,2506.44,2858.86,1550.54,2770.57,2157.61,1781.27,1325.36,7772.92,7711.72,7623.88,7542.29,7488.28,7430.33,7403.58,7397.29,7385.23,7384.5,7358.45,7299.77,7234.11,7143.74,7043.17,6949.74,6829.09,6719.86,6608.19,6518.97,6449.72,6405.76,6396.97,6425.12,6509.26,6620.32,6727.58,6865.27,7045.5,7261.23,7444.6,7605.46,7746.98,7777.27,7722.79,7689.96,7646.6,7572.75,7485.13,7424.95,7371.79,7345.58,7352.59,7399.68,7449.43,7482.69,7499.5,7501.32,7503.78,7490.54,7465.35,7444.98,7412.86,7404.82,7377.25,7375.84,7374.5,7400.21,7422.87,7455.65,7485.29,7499.1,7504.42,7528.21,7535.41,7543.02,7540.62,7548.71,7544.49,7527.13,7518.2,7472.58,7417.47,7348.81,7248.07,7110.17,7016.9,6893.07,6771.73,6625.17,6495.01,6313.27,3894.21,824.039,128.389,2253.86,2997.05,2785.94,2090.19,2248.18,2950.72,2889.61,2859.46,2847.56,2822.69,2807.16,2794.65,2781.52,2772.63,2767.08,2764.11,2755.37,2733.65,2735.23,2737.43,2738.09,2742.42,2755.61,2823.29,2914.25,2965.86,1589.39,5858.16,6495.58,6956.48,7234.15,7340.81,7387.46,7435.39,7448.74,7449.99,7439.38,7432.11,7415.79,7423.09,7406.66,7382.98,7334.75,7298.36,7282.71,7250.74,7235.65,7208.52,7195.42,7181.61,7170.63,7157.81,7157.22,7150.31,7147.52,7148.62,7158.13,7167.69,7180.09,7194.36,7213.36,7236.17,7257.57,7279.04,7304.43,7328.79,7345.36,7372.48,7385.71,7411.01,7430.35,7428.83,7414.57,7397.39,7368.53,7321.59,7303.98,7268.76,7239.33,7209.8,7194.23,7189.57,7187.51,7191.78,7197.83,7220.99,7245.31,7277.26,7306.46,7334.36,7361.19,7379.18,7390.98,7392.66,7383.1,7357.17,7323.06,7292.8,7255.27,7218.82,7186.44,7161.92,7147.25
8406.95,8418.12,8415.81,8402.91,8401.51,8399.84,8379.47,8335.61,8271.51,8191.26,8101.22,8010.19,7926.01,7825.61,7714.09,7585.08,7442.62,7298.18,7167.68,7045.72,6941.07,6809.9,6710.24,6591.38,6503.49,6499.9,6584.62,6705.5,6842.63,6977.89,7134.68,7304.67,7507,7748.38,7918.48,7989.7,8037.31,8069.84,8116.84,8154.65,8189.11,8219.76,8254.27,8277.41,8305.25,8331.41,8344.46,8344.47,8354.23,8355.95,8359.26,8357.3,8353.48,8348.61,8341.66,8349.26,8361.03,8373.46,8390.59,8381.91,8404.49,8423.64,8441.18,8469.83,8466.13,8467.88,8429.75,8409.88,8378.34,8345.12,8306.57,8272.32,8240.95,8218.35,8206.68,8236.58,8264.07,8285.67,8312.65,8348.09,8363.88,8381.09,8372.47,8354.57,8321.23,8309.29,8266.66,8229.5,8184.71,8133.22,8108.81,8114.61,8118.84,8115.58,8113.17,8113.12,8106.01,8131.11,8112.47,8089.05,8057.9,8018.86,7978,7924.83,7875.33,7828.95,7754.41,7716.63,7688.42,7645.19,7596.05,7557.28,7524.4,7485.73,7454.17,7453.66,7437.35,7447.38,7468.61,7497.59,7534.87,7579.74,7638.22,7685.35,7728.81,7778.26,7799.48,7807.54,7827.1,7810.67,7781.73,7756.34,7759.93,7787.36,7811.16,7809.15,7812.28,7823.94,7806.9,7805.48,7824.12,7782.01,7683.22,7416.64,7683.14,7748.93,7775.32,7633.94,7463.39,6119.03,5176.02,3709.42,698.546,181.822,257.283,451.7,119.932,68.373,97.513,118.019,66.85,77.804,87.947,92.841,79.495,69.16,58.673,58.34,58.013,57.754,57.429,57.176,57.111,57.032,57.275,57.629,57.792,57.547,57.818,57.984,58.072,65.477,73.097,1134.19,3615.8,1808.06,650.344,483.27,379.454,538.219,770.452,911.493,909.521,782.268,525.757,415.141,969.673,393.611,377.2,766.138,587.371,202.44,2155.98,217.68,95.92,142.585,140.995,900.887,6143.12,6995.72,6610.2,6887.01,7349.34,7304.56,6582.89,7331.62,7349.81,7350.31,7306.4,7258.17,7175.69,7077.75,6982.39,6859.37,6747.5,6628.04,6526.53,6446.04,6382.97,6368.71,6402.66,6483.72,6596.22,6701.64,6843.81,7025.44,7250.82,7444.32,7611.05,7738.21,7767.4,7720.45,7685.86,7640.67,7558.51,7472.18,7406.1,7363.34,7351.76,7359.1,7424.76,7468.44,7493.06,7509.27,7506.7,7509.66,7488.46,7454.13,7406.87,7382.03,7369.92,7335.98,7331.33,7340.39,7354.11,7364.22,7405.29,7440.75,7465.09,7465.4,7480.86,7490.47,7497.05,7490.88,7502.59,7495.91,7482.64,7473.86,7420.48,7365.29,7299.27,7197.29,7085.01,7004.93,6897.65,6791.58,6670.92,6546.21,6346.15,4531.97,2516.13,4506.18,827.333,3975.93,3942.59,3182.26,736.194,460.922,2887.58,2858.55,2846.33,2822.27,2806.72,2793.58,2780.59,2772.25,2766.81,2764.61,2756.66,2735.78,2737.07,2739.26,2743,2743.8,2766.35,2859.74,2949.46,3087.5,1287.67,263.518,5658.96,6923.65,7230.51,7317.35,7360.44,7414.7,7441.06,7440.7,7422.44,7414.02,7406.48,7414.73,7398.78,7377.79,7341.51,7303.49,7269.6,7255.3,7228.25,7192.27,7167.8,7157.19,7141.74,7128.02,7115.35,7102.96,7101.51,7101.7,7115.55,7129.55,7147.79,7163.17,7185.21,7210.28,7246.3,7268.71,7287.9,7309.09,7331.87,7349.65,7375.07,7385.17,7404.51,7398.13,7387.12,7369.12,7341.46,7307.93,7278.59,7248.13,7219.54,7191.72,7181.81,7178.5,7180.83,7188.81,7206.98,7223.44,7251.51,7284.08,7316.53,7347.34,7375,7397.01,7413,7420.67,7415.2,7394.06,7363.46,7333.75,7298.99,7261.33,7228.77,7202.59,7184.22
8359.33,8370.85,8368.38,8358.51,8362.48,8352.13,8323.31,8243.69,8176.61,8120.12,7999.84,7923.12,7827.91,7744.31,7633.92,7518.55,7380.06,7245.44,7119.5,7008.95,6916.55,6785.93,6696.75,6574.44,6502.98,6502.63,6580.4,6688.8,6816.16,6945.79,7104.31,7282.47,7484.53,7703.95,7881.51,7951.47,8003.08,8028.33,8066.58,8094.44,8112.32,8128.55,8144.13,8148.25,8168.19,8196.97,8212.96,8218.23,8215.4,8224.21,8239.66,8258.98,8264.46,8269.66,8260.35,8279.75,8295.67,8309.17,8298.27,8300.39,8306.67,8317.65,8327.44,8350.13,8343.62,8338.56,8317.79,8302.13,8281.22,8239.85,8207.14,8180.48,8151.72,8136.31,8134.15,8150.28,8184.63,8204.54,8212.85,8260.62,8294.7,8309.49,8299.62,8273.2,8283.74,8269.6,8272.43,8255.5,8217.43,8178.26,8144.3,8148.68,8167.64,8165.96,8168.28,8162.08,8155.92,8159.94,8155.36,8134.14,8112.97,8076.75,8031.91,7977.65,7926.09,7873.41,7798.5,7753.08,7721.7,7674.14,7625.23,7580.83,7546.84,7508.69,7478.71,7480.05,7472,7481.8,7503.76,7529.23,7572.91,7587.43,7635.32,7703.69,7759.79,7838.58,7875.43,7890.06,7912.87,7921.17,7910.49,7871.14,7889.64,7899.65,7911.38,7882.72,7875.44,7864.4,7844.84,7824.32,7830.68,7814.98,7770.59,7755.33,7788.66,7781,7786.25,7788.69,7806.07,7822.52,7829.61,7793.63,7731.41,7282.82,6663.3,5699.62,3676.49,1639.9,778.524,1024.12,1125.31,344.926,93.611,78.812,69.455,69.665,58.006,72.781,72.367,71.928,56.779,63.86,63.781,63.779,56.944,64.344,71.421,98.506,105.9,113.466,183.092,687.027,964.003,2621.12,3674.42,2669.43,2361.93,1785.69,1036.15,828.828,1297.03,1534.21,1766.36,1554.21,830.754,1755.89,759.299,394.329,561.339,1128.36,1075.44,1599.44,600.594,992.026,642.969,814.989,1367.04,1816.21,3987.85,4840.47,3559.16,6294.91,6532.82,6256.11,6679.47,7345.37,7360.53,7366.61,7336.81,7296.09,7213.54,7120.2,7021.06,6888.82,6776.83,6653.07,6543.53,6450.45,6372.5,6356.84,6394.66,6476,6587.43,6696.52,6839.76,7023.81,7252.66,7451.57,7613.21,7722.66,7739.89,7701.81,7662.14,7621.63,7540.84,7459.27,7387.81,7351.58,7347.81,7374.95,7449.25,7483.6,7499.16,7511.29,7504.88,7507.23,7473.13,7427.64,7381.74,7341.94,7331.68,7303.21,7292.54,7292.88,7295.92,7316.22,7359.55,7388.24,7401.85,7401.95,7418.24,7427.05,7429.5,7421.56,7435.15,7430.12,7424.34,7406.47,7363.84,7300.37,7237.68,7149.84,7053.13,6992.6,6911.2,6833.45,6737.2,6635.76,6519.04,6354.34,6191.2,6027.58,5736.7,1919.55,2249.09,2002.19,1162.12,812.203,2881.76,2854.42,2842.21,2819.3,2804.87,2792.08,2779.86,2771.79,2766.83,2765.17,2758.36,2738.48,2739.78,2740.8,2745.38,2746.47,2769.38,2895.75,3050.7,1015.73,127.937,1496.78,4028.35,7034.83,6980.87,7291.51,7327.65,7387.16,7423.45,7420.14,7400.34,7392.47,7394.53,7396.95,7386.97,7369.36,7337.17,7311.21,7287.59,7262.81,7236.46,7199.9,7170.75,7153.59,7134.78,7116.81,7099.32,7075.04,7071.22,7065.44,7077.57,7098.18,7115.89,7135.19,7155.46,7183.6,7223.81,7251.09,7273.6,7295.24,7312.08,7329.73,7340.98,7360.55,7368.05,7362.04,7352.08,7334.69,7309.87,7276.76,7252.24,7224.44,7197.23,7175.83,7169.44,7170.24,7178.03,7188.93,7208.27,7230.08,7259.91,7294.37,7326.73,7359.86,7390.78,7416.71,7435.86,7448.38,7447.02,7431.75,7406.45,7380.92,7347.4,7310.88,7279.78,7250.44,7235.66
8312.03,8312.66,8308.1,8303.52,8299.93,8279.3,8230.95,8201.14,8091.56,8016.1,7952.79,7857.46,7755.64,7662.75,7555.1,7441,7311.78,7183.35,7069.01,6977.56,6895.41,6787.98,6700.56,6586.33,6502.1,6501.94,6572.98,6675.52,6789.73,6918.69,7069.99,7238.66,7441.26,7653.86,7823.34,7888.53,7949.27,7974.85,8010.94,8028.94,8038.04,8044.16,8055.46,8061.51,8077.06,8085.2,8090.25,8114.58,8116.17,8139.93,8160.87,8175.89,8188.14,8195.63,8204.5,8216.65,8233.44,8245.43,8245.23,8233.35,8229.37,8232.34,8216.87,8221.48,8241.23,8218.12,8192.99,8184.65,8151.9,8125.47,8107.77,8077.33,8053.76,8046.83,8051.79,8082.3,8108.56,8131.73,8127.83,8175.64,8212.42,8227.13,8230.14,8207.49,8194.83,8202.4,8224.17,8219.05,8185.54,8147.55,8139.67,8135.16,8158.28,8173.58,8185.11,8184.29,8176.75,8182.12,8191.83,8173.29,8138.81,8096.64,8054.83,8014.72,7968.09,7928.04,7855.31,7801.81,7762.92,7719.37,7675.06,7631.73,7594.27,7556.22,7526.69,7521.62,7511.37,7505.43,7534.94,7565.81,7572.82,7627.34,7692.11,7756.13,7827.9,7902.84,7955.34,7980.55,7996.01,7999.09,7989.76,7944.94,7941.89,7951.43,7937.43,7913.44,7896.01,7891.09,7856.91,7818.28,7822.91,7791.3,7787.65,7751.77,7777.29,7777.12,7782.31,7788.01,7809.82,7825.38,7831.63,7815.61,7754.64,7247.66,5934.35,5249.91,3794.11,1796.85,1045.09,533.568,265.575,196.109,51.697,51.442,51.014,43.762,43.178,42.765,42.439,42.043,41.873,41.715,41.489,41.721,41.95,42.109,42.272,49.605,42.536,113.947,358.206,839.438,541.306,632.555,765.967,711.203,633.12,715.347,361.393,251.353,266.744,370.317,575.852,598.869,943.753,406.263,247.157,216.325,301.025,579.99,963.685,247.788,116.699,132.329,424.897,455.702,863.479,948.724,1147.48,1712.27,3516.46,4881.65,3768.29,4421.63,6939.48,7295.31,7368.24,7377.54,7355.19,7320.52,7243.09,7145.74,7048.4,6911.26,6798.49,6674.25,6561.29,6455.17,6373.41,6357.12,6397.62,6476.22,6584.26,6692.75,6829.5,7009.8,7237.53,7431.27,7580.66,7678.59,7698.84,7652.21,7614.18,7581.78,7510.94,7434.49,7377.68,7345.21,7351.04,7394.96,7455.14,7490.77,7496.11,7499.4,7493.04,7485.23,7456.18,7404.67,7353.82,7300.39,7279.89,7249.01,7238.42,7233.67,7230.02,7243.27,7278.1,7302.43,7312.19,7311.03,7328.64,7342.33,7349.86,7338.99,7346.74,7336.65,7323.19,7286.26,7235.52,7185.18,7126.83,7062.2,6987.85,6947.83,6888.71,6838.75,6774.6,6694.45,6591.74,6409.72,5553.15,4540.46,4309.38,1117.96,107.062,42.708,35.7,100.978,2743.99,2847.48,2834.96,2815.66,2803.02,2790.62,2779.33,2771.9,2767.63,2766.45,2760.6,2744.72,2741.95,2743.78,2747.63,2748.88,2787.9,2908.82,3004.9,125.716,191.305,5405.79,6467.69,7233.28,7289.39,7296.28,7322.99,7378.61,7407.95,7403.4,7383.21,7373.27,7372.06,7376.83,7372.01,7356.86,7320.41,7289.98,7262.71,7237.46,7210.46,7176.3,7148.84,7131.75,7115.76,7108.17,7092.83,7071.19,7062.15,7055.72,7066.52,7084.77,7103.21,7119.13,7137.96,7164.9,7208.96,7235.9,7263.11,7283.65,7301.75,7312.75,7327.52,7337.92,7347.07,7337.27,7326.9,7313.46,7290.21,7258.73,7232.19,7206.35,7185.67,7170.09,7167.47,7173.27,7184.63,7199.19,7222.46,7246.46,7276.7,7312.95,7347.15,7379.38,7412.62,7438.09,7460.32,7476.74,7479.98,7466.86,7444.15,7424.07,7392.9,7361.98,7330.14,7302.91,7287.31
8256.75,8261.57,8259.4,8246.58,8231.46,8209.59,8155.18,8092.29,8055.88,7942.46,7877.68,7780.51,7676.86,7582.17,7477.24,7360.89,7232.54,7118.05,7016.85,6934.48,6859.26,6780.47,6696.16,6599.51,6525.39,6502.53,6566.42,6670.66,6776.13,6890.29,7033.27,7212.66,7398.38,7600.36,7767.39,7856.71,7901.75,7930.89,7963.39,7979.25,7981.12,7979.4,7984.23,7991.65,8000.15,8005.21,8012.13,8018.82,8049.96,8069.85,8092.77,8110.66,8127.1,8139.77,8149.1,8159.42,8173.27,8184.2,8191.74,8189.42,8177.75,8158.93,8139.77,8128.68,8146.88,8127.58,8105.39,8074.82,8067.84,8020.44,8019.92,7986.87,7962.77,7960.6,7981.64,8019.99,8041.62,8063.28,8075.84,8117.72,8134.44,8151.01,8160.25,8133.75,8146.54,8153.44,8173.31,8170.46,8144.01,8120.07,8105.92,8127.94,8132.23,8153.06,8169.55,8174.42,8182.06,8187.78,8194.97,8190.19,8163.22,8124.19,8090.56,8050.57,8017.1,8001.67,7934.8,7877.38,7830.05,7780.68,7746.77,7707.6,7677.11,7642.82,7612.56,7615.56,7616.98,7627.03,7656.02,7684.19,7712.07,7734.58,7790.16,7845.43,7902.38,7961.72,8007.28,8024.53,8040.2,8026.55,8014.12,7974.81,7957.9,7948.43,7949.75,7912.6,7917.24,7906.44,7872.57,7833.89,7820.93,7796.46,7772.13,7753.13,7758.28,7745.79,7744.77,7755.68,7776.09,7790.28,7790.75,7779.26,7757.42,7657.65,7194.61,7167.85,6770.95,6183.73,5746.3,4852.85,4212.84,2642.56,1558.16,427.197,208.075,132.183,79.534,79.106,86.321,122.311,149.979,315.068,427.472,568.046,500.485,377.011,238.251,392.44,443.65,2059.73,3701.99,2678.34,1529.33,991.369,1319.11,986.142,527.47,743.831,830.975,524.88,302.463,236.208,492.707,1894.92,1531.49,1502.78,962.679,1218.1,860.154,2632.75,1559.31,427.75,376.562,263.43,324.931,3584.78,3084.53,2058.1,3172.96,4433.3,4754.88,5354.83,6758.94,7283.64,7362.66,7247.98,7392.94,7404.66,7385.1,7352.84,7276.04,7178.47,7077.05,6936.31,6820.57,6699.42,6577.63,6462.1,6381.34,6364.6,6407.83,6485.37,6589.66,6692.28,6820.61,6992.98,7208.63,7394.28,7525.2,7606.92,7623.76,7578.51,7544.77,7518.53,7457.58,7394.74,7351.04,7310.22,7324.88,7350.72,7407.35,7430.33,7436.9,7441.56,7428.2,7429.48,7403.48,7354.86,7303.31,7256.58,7235.61,7191.51,7153.77,7139.53,7114.69,7112.18,7129.72,7129.67,7127.02,7116.01,7129.49,7148.76,7171.22,7174.44,7188.85,7184.59,7177.85,7151.61,7103.67,7063.81,7006.95,6946.89,6902.41,6880.94,6844.97,6820.51,6782.64,6733.19,6655.62,6575.56,6455.81,6297.33,6006.53,950.904,39.927,35.246,35.358,96.469,2860.2,2841.01,2829.08,2812.7,2800.87,2788.94,2778.89,2772.05,2768.17,2766.72,2761.9,2747.6,2743.53,2748.63,2752.75,2751.35,2786.99,2686.72,2804.01,60.692,1711.1,5646.84,6509.12,7209.52,7303.81,7300.8,7316.43,7363.95,7386.26,7371.1,7346.62,7337.65,7330.58,7338.89,7335.97,7324.52,7283.62,7249.67,7226.92,7204.96,7183.9,7158.99,7130.31,7108.16,7089.58,7087.11,7074.13,7055.74,7049.31,7041.01,7047.05,7068.96,7093.54,7112.4,7131.65,7159.78,7198.63,7220.98,7249.17,7266.85,7281.49,7290.43,7303.29,7310.13,7314.65,7305.61,7297.78,7285.75,7266.89,7238.58,7211.73,7192.23,7176.18,7164.67,7166.73,7180.61,7194.48,7212.83,7236.68,7264.05,7295.56,7329.67,7363.48,7396.31,7428.96,7456.27,7479.84,7496.9,7501.13,7490.18,7471.47,7453.99,7427.77,7399.35,7372.01,7347.25,7332.45
8202.55,8207.13,8196.92,8173.62,8155.7,8131.72,8095.16,8032.53,7966.32,7883.58,7795.6,7698.74,7601.15,7501.42,7401.46,7290.71,7168.51,7066.1,6974.59,6894.5,6824.7,6752.81,6681.22,6595.35,6531.73,6523.7,6557.04,6663.86,6769.62,6854.19,7008.84,7169.1,7369.28,7555.07,7715.76,7791.76,7847.16,7876.73,7903.7,7914.48,7913.51,7908.61,7909.94,7916.48,7922.8,7938.38,7946.57,7962.58,7970.83,8002.4,8029.49,8050.25,8068.96,8083.98,8094.01,8104.76,8121.76,8130.24,8130.91,8123.86,8116.08,8097.52,8062.41,8043.73,8055.37,8029.93,8006.93,7989.26,7955.01,7940.65,7907.6,7922.28,7895.88,7876.11,7900.07,7949.71,7963.88,7986.21,8012.62,8058.68,8061.89,8069.04,8063.08,8047.11,8048.4,8068.21,8099.35,8097.95,8081.73,8067.19,8061.4,8076.28,8110.77,8115.3,8132.7,8149.85,8163.29,8171.36,8182.21,8178.92,8153.56,8120.77,8084.69,8047.32,8011.6,7961.65,7906.93,7856.31,7812.57,7778.51,7754.01,7730.5,7712.68,7693.04,7691.41,7698.73,7704.52,7719.4,7746.94,7788.2,7818,7832.94,7868.22,7914.42,7951.12,8005.13,8030.06,8045.75,8048.7,8025.04,7996.43,7956.11,7955.64,7944.19,7947.7,7933.63,7932.9,7933.01,7905.77,7877.37,7865.01,7834.14,7786.33,7743.12,7740.92,7724.24,7704.97,7722.19,7730.35,7760.42,7762.83,7753.8,7730.81,7695.79,7677.79,7649.97,7640.47,7613.52,7577.48,7549.19,7528.64,7480.15,7432.73,7443.07,6611.13,5442.74,4262.17,2805.17,1979.29,2558.33,4388.66,5467.15,5692.02,6056.65,6209.53,6079.09,5944.01,6621.31,7120.26,7222.33,7281.86,7304.53,7328.1,7365.58,7418.44,7456.27,7485.03,7499.63,7414.71,7550.05,7173.4,6573.11,7413.32,7569.62,7709.01,7712.87,7723.8,7718.21,7731.7,7741.14,7747.61,7760.9,7788.65,7812.98,7812.02,7825.07,7829.74,7804.13,7763.22,7689.4,7635.89,7544.6,7488.86,7461.84,7453.62,7464.78,7453.78,7463.53,7446.5,7388.62,7308.26,7229.04,7103.27,6958.79,6844.23,6723.06,6595.53,6467.61,6392.25,6378.46,6425.63,6503.81,6604.11,6698.29,6819.52,6984.09,7190.58,7362.74,7470.06,7531.15,7540.51,7501.13,7466.36,7443.6,7392.19,7331.36,7277.65,7252.88,7251.18,7259.68,7303.4,7315.29,7307.47,7293.37,7286.33,7285.29,7264.31,7218.22,7172.9,7139.79,7118.99,7072.77,7032.12,6986.43,6947.87,6932.28,6937.92,6925.96,6903.96,6878.6,6887.08,6908.6,6936.81,6947.45,6963.73,6968.12,6969.2,6958.69,6940.64,6917.19,6892.29,6861.99,6820.22,6790.17,6770.88,6760.96,6740.79,6698.72,6638.01,6577.54,6494.38,6391.92,4866.35,720.639,284.752,35.025,54.889,75.81,2839.58,2829.6,2820.56,2808.28,2797.9,2786.61,2778.42,2772.18,2768.75,2767.75,2763.54,2751.03,2748.69,2751.45,2756.19,2755.93,2795.5,516.592,995.208,37.322,2451.77,6581.03,7054.6,7298.75,7325,7317.58,7321.99,7360.98,7373.59,7347.86,7315.14,7303.21,7296.92,7297.65,7293.06,7282.31,7240.14,7206.25,7189.18,7173.17,7153.44,7131.86,7107.34,7081.3,7066.11,7065.99,7058.61,7037.67,7032.66,7025.83,7032.63,7060.54,7087.51,7107.77,7130.38,7157.9,7192.02,7208.24,7229.44,7244.24,7257.44,7264.33,7275.76,7278.36,7283.34,7276.83,7273.3,7264.86,7251.11,7224.43,7202.81,7187.92,7176.04,7169.48,7175.2,7190.54,7208.9,7228.31,7255.56,7281.19,7311.56,7347.78,7379.45,7410.15,7443.89,7466.8,7490.27,7507.46,7512.29,7503.99,7486.81,7472.94,7452.91,7426.08,7403.85,7381.64,7367.94
8136.15,8135.43,8125.08,8105.33,8080.09,8042.87,7946.63,7928.95,7855.98,7740.15,7705.25,7594.22,7518.38,7424.08,7333.36,7229.37,7110.25,7014.5,6930,6850.96,6784.59,6720.3,6649.2,6579.67,6521.28,6472.33,6526.64,6629.77,6720.1,6823.52,6957.19,7132.79,7329.62,7505.42,7663.19,7743.75,7781.17,7818.77,7839.54,7844.32,7839.18,7833.53,7833.95,7836.92,7840.45,7855.48,7866.78,7873.54,7894.05,7925.73,7955.32,7992,8013.59,8032.82,8045.04,8056.11,8070.7,8078.44,8077.73,8065.89,8053.54,8029.37,7988.93,7969.71,7960.04,7926.89,7885.85,7872.85,7856.4,7825.08,7816.47,7814.76,7822.85,7814.35,7820.59,7875.59,7887.32,7906.19,7928.56,7944.17,7960.2,7966.16,7956.58,7949.65,7950.58,7962.18,8008.86,8009.71,7974.87,7954.36,7967.07,7998.85,8028.97,8072.36,8087.86,8103.43,8122.92,8141.96,8157.22,8156.12,8136.15,8105.24,8069.37,8036.89,8002.27,7956.99,7907.04,7861.08,7820.31,7791.4,7771.78,7753.54,7746.36,7729.95,7732.24,7743.98,7758.48,7768.49,7794.62,7828.76,7827.99,7858.85,7895.5,7930.58,7952.23,7982.14,8001.54,8005.61,8017.88,7991.03,7964.1,7919.72,7911.31,7903.99,7900.33,7888.92,7883.23,7879.94,7866.76,7850.82,7844.02,7819.07,7776.64,7736.06,7723.33,7712.3,7699.88,7702.71,7708.9,7728.02,7730.97,7720.77,7698.88,7663.76,7636.56,7605.97,7595.87,7567.17,7534.91,7506.83,7477.66,7471.17,7493.5,7525.7,7545.83,7470.07,6864.99,6695.5,6542.37,6585.94,7277.86,7365.6,7294.27,7226.6,7142.44,7031.15,7004.9,7197.29,7230.91,7258.91,7289.72,7315.75,7347.14,7393.33,7422.3,7467.55,7515.62,7557.06,7576.51,7603.42,7648.23,7686.33,7698.27,7699.48,7707.82,7719.16,7736,7739.92,7758.29,7779.51,7788.84,7808.12,7845.45,7866.67,7895.64,7902.85,7916.11,7900.9,7876.31,7823.88,7745.06,7675.73,7591.72,7554.84,7546.32,7537.62,7509.75,7520.01,7488.31,7439.61,7356.52,7270.59,7135.59,6982.78,6864.62,6743.53,6597.61,6474.51,6392.23,6382.24,6448.87,6526.5,6624.62,6710.59,6824.99,6978.98,7170.87,7321.8,7403.6,7446.59,7444.56,7407.54,7380.07,7357.17,7314.11,7263.1,7212.37,7190.46,7186.64,7195.72,7203.32,7191.97,7173.2,7148.88,7142.2,7142.06,7124.91,7088.94,7058.08,7038.03,7036.59,6982.85,6924.5,6853.57,6799.32,6775.3,6772.26,6749.85,6720.2,6689.7,6704.57,6732.54,6776.71,6809.42,6830.35,6839.43,6842.53,6832.44,6823.18,6810.59,6792.87,6759.61,6726.15,6697.56,6679.62,6672.25,6655.29,6615.87,6545.33,6509.56,6457.11,6394.52,5919.49,1537.26,250.966,329.987,35.081,49.676,1973.18,2813.9,2813.91,2804.67,2794.7,2784.76,2778.18,2772.91,2769.84,2768.88,2765.38,2755.04,2751.84,2754.76,2760.04,2760.38,2676.76,85.254,84.407,37.26,336.825,3766.18,7241.84,7347.19,7334.1,7321.76,7318.35,7350.27,7356.51,7317.6,7284.23,7270.31,7266.09,7264.34,7258.37,7250.96,7205.17,7170.06,7159.74,7148.07,7133.6,7112.06,7089.2,7061.6,7043,7045.26,7041.25,7021.27,7015.45,7009.36,7016.75,7044.06,7080.16,7105.13,7133.81,7160.99,7197.56,7203.67,7220.25,7235.33,7246.55,7249.56,7257.29,7256.74,7261.98,7260.23,7267.19,7265.96,7256.04,7232,7212.13,7198.12,7191.86,7187.51,7194.73,7206.51,7223.59,7245.95,7269.7,7293.71,7322.95,7356.82,7386.3,7414.68,7444.58,7466.42,7490.19,7508.34,7510.38,7503.46,7488.37,7475.48,7458.17,7436.88,7421.41,7401.65,7392.32
8047.85,8050.31,8040.85,8018.49,7984.67,7945.09,7892.72,7839.57,7775.06,7686.98,7612.54,7533.15,7444.78,7363.16,7282.94,7182.38,7063.34,6971.8,6885.71,6807.4,6747.61,6689.33,6630.1,6566.13,6507.1,6506.43,6559.06,6633.14,6738.1,6843.13,6951.76,7110.28,7297.27,7461.81,7614.1,7690.43,7732.38,7748.47,7773.43,7771.14,7760.2,7751.64,7752.52,7751.31,7754.04,7773.99,7788.73,7805.66,7820.96,7863.92,7899.21,7929.67,7952.62,7975.19,7991.46,8005,8015.87,8023.33,8019.69,8006.81,7991.82,7972.79,7950.1,7926.09,7902.01,7861.65,7813.27,7800.18,7789.85,7760.16,7763.76,7770.05,7760.44,7776.45,7782.83,7806.82,7815.04,7827.43,7844.52,7881.25,7882.65,7895.63,7868.65,7842.51,7838.71,7863.53,7888.79,7897.34,7865.75,7865.63,7884.23,7918.47,7951.32,7998.95,8020.25,8041.08,8059.73,8084.87,8103.99,8108.44,8087.57,8061.85,8032.68,8004.42,7972.26,7934.13,7893.79,7852.67,7816.08,7793.13,7776.14,7761.11,7753.85,7743.13,7749.89,7766.54,7784.14,7810.12,7824.65,7841.49,7872.68,7891.99,7905.24,7915.09,7898.82,7912.24,7918.45,7919.17,7921.14,7898.83,7871.67,7833.09,7828.77,7802.85,7819.55,7809.41,7820.94,7831.16,7831.52,7836.9,7827.47,7814.1,7770.33,7751.39,7724.3,7747.43,7732.71,7706.39,7702.59,7714.57,7703.5,7690.77,7667.02,7621.5,7592.43,7560.45,7550.63,7526,7494.71,7472.39,7459.11,7440.96,7451.92,7489.39,7518.28,7526.63,7290.4,7067.66,7174.81,6953.37,7340.09,7349.69,7269.87,7268.36,7108.5,6967.82,7188.66,7247.63,7248.66,7282.03,7301.07,7333.27,7369.55,7397.51,7432.08,7479.25,7523.43,7562.27,7573.49,7601.31,7648.15,7673.3,7690.99,7693.01,7691.93,7694.36,7704.55,7705.18,7729.27,7746.11,7759.01,7786.76,7830.88,7874.63,7900.73,7919.63,7945.85,7954.78,7931.57,7878.29,7819.69,7752.23,7666.31,7619.69,7588.86,7574.5,7538.79,7551.24,7507.3,7459.84,7375.76,7278.34,7143.64,6993.94,6873.66,6757.5,6610.69,6488.77,6410.8,6403.6,6473.32,6550.67,6643,6723.18,6832.52,6971.94,7144.03,7279.1,7344.85,7370.74,7373.27,7355.6,7337.95,7308.96,7278.86,7238.86,7191.81,7166.72,7146.19,7132.36,7123.7,7080.4,7049.66,7019.06,7016.01,7026.33,7017.52,6972,6962.36,6953.6,6970.48,6905.85,6854.04,6784.6,6727.12,6702.27,6695.84,6673.59,6641.33,6609.39,6616.99,6644.77,6692.35,6721.76,6738.84,6743.67,6745.81,6736.45,6726.28,6712.78,6691.3,6659.23,6624.72,6593.37,6573.08,6558.02,6539.54,6499.05,6439.2,6402.89,6342.12,6290.98,6151.91,1549.51,726.508,91.363,35.025,193.212,2489.12,2802.15,2805.75,2800.53,2791.41,2782.74,2777.28,2773.02,2770.15,2770.12,2766.95,2758.56,2754.75,2758.32,2763.26,2764.38,2145.15,46.812,45.508,43.892,3986.01,7251.07,7358.87,7354.49,7337.46,7316.67,7301.91,7319.25,7316.75,7273.09,7239.83,7230.02,7227.49,7229.25,7226.51,7221.06,7179.62,7142.79,7137.29,7126.53,7113.24,7087.44,7063.39,7032.39,7012.57,7015.1,7013.88,6989.37,6982.29,6973.65,6981.18,7011.04,7049.05,7079.61,7112.78,7144.31,7183.05,7193.5,7210.19,7224.23,7237.93,7243.35,7249.97,7244.95,7247.69,7246.27,7257.93,7260.29,7257.17,7235.73,7219.09,7209.61,7205.26,7206.2,7213.48,7223.96,7241.6,7261.37,7281.73,7303.33,7332.2,7359.38,7390.19,7415.62,7439.59,7458.54,7481.8,7495.68,7498.08,7489.77,7474.9,7464.77,7451.34,7437.66,7425.1,7407.04,7398.89
7959.4,7960.25,7945.56,7922.48,7886.1,7842.89,7803.86,7752.72,7691.58,7616.99,7539.69,7456.32,7380.57,7304.74,7224.57,7126.14,7009.08,6917.82,6837,6765.85,6712.85,6659.54,6605.2,6542.33,6490.89,6500.33,6546.08,6633.54,6728.44,6832.98,6939.06,7094.57,7267.51,7426.79,7565.42,7615.39,7663.35,7685.71,7694.95,7690.42,7676.11,7668.34,7666.3,7665.69,7670.63,7690.36,7712.79,7731.09,7740.85,7791.15,7826.57,7860.64,7891.03,7911.98,7931.74,7945.86,7956.18,7960.52,7956.31,7943.15,7927.36,7906.18,7881.94,7855.31,7826.4,7791.49,7746.61,7725.1,7716.86,7716.9,7709.85,7707.98,7710.44,7719.67,7724.42,7745.9,7754.86,7763.83,7775.05,7799.4,7798.23,7791.03,7792.13,7746.63,7738.65,7751.41,7766.41,7781.02,7755.17,7735.86,7778.67,7804.12,7847.08,7893.1,7919.99,7948.03,7969.98,8000.39,8025.04,8032.66,8021.63,8000.25,7976.97,7956.73,7930.6,7901.59,7869.54,7836.55,7808.07,7795.27,7785,7774.03,7764.68,7758.56,7765.35,7780.02,7791.02,7800.75,7802.6,7816.5,7826.57,7836.96,7839.09,7839.28,7835.68,7809.91,7812.4,7792.5,7780.24,7745.8,7723.46,7699.73,7688.28,7682.47,7688.66,7704.41,7717.36,7725.11,7750.27,7751.17,7752.57,7720.6,7716.57,7702.41,7718.31,7705.64,7701.16,7678.12,7660.16,7661.94,7651.48,7634.68,7611.65,7572.63,7541.21,7512.76,7506.97,7486.65,7456.24,7439.91,7427.55,7421.02,7436.1,7456.8,7480.44,7489.33,7489.27,7494.6,7500.78,7500.28,7480.23,7444.59,7399.6,7343.48,7315.03,7294.24,7299.9,7280.72,7281.14,7303.43,7326.5,7349.07,7385.16,7406.32,7443.26,7468.87,7506.49,7548.84,7565.97,7581.15,7615.5,7654.95,7663.21,7664.54,7659.88,7661.73,7663.76,7668.56,7690.49,7708.02,7721.59,7750.69,7790.69,7829.15,7859.34,7885.63,7913.42,7922.41,7904.81,7859.17,7806.26,7743.8,7668.71,7624.45,7587.92,7564.35,7519.47,7497.39,7453,7401.02,7320.64,7212.6,7086.83,6944.41,6836.67,6733.45,6602.22,6493.56,6424.08,6422.15,6498.01,6574.87,6664.66,6740.8,6841.48,6965.63,7115.93,7232.34,7278.29,7292.62,7293.48,7278.16,7257.09,7230.03,7208.16,7177.47,7139.19,7110.3,7079.06,7055.23,7034.09,6987.54,6961.37,6929.41,6931.99,6943.06,6946.62,6935.29,6915.23,6878.75,6917.39,6870.73,6807.91,6739.97,6681.96,6657.94,6650.89,6639.38,6614.57,6590.92,6600.81,6634.36,6679.74,6706.08,6719.44,6728.31,6727.55,6717.89,6709.37,6687.21,6656.78,6617.05,6576.42,6537.01,6504.24,6479.49,6442.82,6408.07,6345.7,6246.21,5782.83,3716.08,3975.02,1191.49,687.615,301.941,42.125,1446.09,2683.84,2805.54,2800.85,2797.29,2788.74,2781.25,2777.06,2773.54,2771.28,2770.8,2768,2761.35,2757.43,2761.28,2766.11,2767.93,1988.43,86.881,39.679,42.996,5546.54,7305.13,7337.9,7336.37,7315.98,7292.91,7262.07,7256.93,7247.64,7205.92,7176.43,7164.55,7156.49,7155.29,7153.66,7154.08,7117.28,7085.12,7080.62,7070.85,7060.22,7037.91,7018.79,6990.45,6966.69,6968.03,6968.86,6942.7,6938.5,6932.65,6939.91,6966.78,7001.96,7031.14,7070.25,7101.5,7146.88,7157.42,7176.5,7194.68,7214.7,7223.82,7231.78,7229.9,7232.92,7231.72,7243.9,7251.28,7253.54,7237.35,7226.62,7222.34,7221.23,7225.53,7235.38,7244.95,7260.22,7277.79,7296.77,7314.42,7335.45,7360.02,7385.37,7409.18,7427.56,7441.82,7462.17,7475.72,7472.85,7466.5,7453.12,7444.5,7430.97,7417.87,7410.34,7396.91,7390.37
7861.72,7861.11,7843.87,7822.78,7792.23,7750.69,7713.78,7665.79,7607.07,7537.22,7463.23,7386.44,7319.4,7245.85,7162.48,7065.66,6954.52,6866.29,6791.11,6727.83,6678.51,6627.13,6577.5,6517.29,6475.21,6495.85,6550.36,6628.41,6714.92,6817.26,6935.1,7072.03,7239.47,7385.3,7505.84,7560.72,7589.37,7610.17,7615.06,7606.93,7597.71,7590.22,7591.34,7591.85,7599.96,7620,7642,7663.2,7692.33,7723.03,7761.98,7793.92,7822.22,7849.37,7868,7881.7,7889.77,7894.48,7890.19,7875.92,7861.5,7839.25,7814.67,7788.99,7764.15,7734.06,7713.03,7697,7683.65,7673.13,7671.92,7670.25,7670.58,7677.27,7679.96,7691.37,7695.95,7697.92,7697.64,7710.35,7717.25,7715.02,7700.6,7674.11,7663.49,7664.19,7665.6,7665.94,7664.9,7661.22,7674.45,7701.24,7744.27,7790.15,7822.73,7852.61,7881.64,7906.92,7932.41,7943.53,7936.63,7923.04,7905.03,7889.31,7875.37,7856.67,7835.77,7814.69,7799.71,7792.31,7787.44,7787.07,7786.54,7780.09,7787.69,7798.22,7801.15,7809.56,7818.34,7817.81,7814.85,7811.25,7804.65,7790.19,7769.83,7750.77,7716.51,7681.56,7644.6,7614.17,7605.94,7584.88,7578.97,7578.87,7582.69,7599.8,7619.25,7648.6,7668.79,7667.62,7666,7660.99,7656.56,7660.77,7674.35,7671.54,7664.1,7641.98,7625.85,7615.35,7597.52,7579.15,7554.16,7517.9,7492.78,7466.81,7460.01,7445.32,7422.45,7404.88,7395.29,7390.98,7403.63,7423.08,7452.21,7463.87,7469.11,7476.29,7492.79,7491.37,7478,7448,7414.87,7371.07,7338.9,7330.82,7323.23,7306.94,7306.62,7325.14,7347.49,7367.99,7391.49,7416.36,7450.34,7479.69,7501.65,7539.12,7547.63,7560.46,7582.32,7606.14,7623.62,7632.62,7631.94,7646.19,7654.72,7643.53,7663.61,7672.34,7682.93,7705.99,7739.85,7774.33,7791.98,7826.6,7861.77,7879.09,7872.72,7837.17,7801.47,7745.07,7682.96,7639.23,7601.08,7565.35,7515.21,7477.95,7420.28,7360.96,7281.11,7167.56,7044.9,6910.7,6815.35,6719.24,6599.61,6505.91,6450.16,6454.62,6527.08,6600.13,6688.74,6760.26,6851.76,6961.82,7095.75,7196.34,7233.03,7246.47,7250.42,7237.48,7218.72,7193.22,7171.57,7144.8,7110.02,7075.69,7041.43,7006.85,6973.44,6924.69,6881.96,6857.89,6863.24,6877.01,6888.13,6904.94,6900.57,6885.85,6891.48,6843.57,6795.5,6715.3,6662.07,6636.1,6627.39,6617.42,6597.27,6582.95,6598.31,6631.25,6665.44,6694.64,6705.19,6714.76,6717.2,6710.75,6702.46,6675.64,6633.4,6584.57,6532.06,6473.63,6437.21,6400.98,6363.19,6312.29,6223.18,5462.77,4166.81,5086.61,641.429,808.624,931.264,188.26,41.316,77.942,2636.84,2803.64,2798.51,2795.75,2788.22,2780.98,2777.56,2774,2771.66,2770.6,2768.29,2762.3,2758.43,2761.81,2766.85,2769.15,2223.6,44.857,67.196,39.581,6347.23,7215.85,7260.82,7289.68,7265.24,7236.74,7191.58,7164.54,7150.34,7116.89,7100.24,7090.38,7080.6,7076.75,7071.45,7073.98,7046.34,7014.05,7012.51,7004.58,6999.1,6984.83,6967.33,6938.62,6917.02,6912.81,6919.16,6889.92,6881.38,6872.44,6872.66,6900.6,6936.22,6965.86,7008.26,7037.3,7081.71,7097.19,7117.26,7141.13,7163.94,7181.07,7194.67,7197.45,7202.27,7205.05,7221.51,7234.29,7239.66,7231.71,7228.41,7230.4,7235.43,7245.65,7258.25,7272.05,7289.57,7303.72,7311.35,7321.64,7337.19,7353.94,7371.09,7386.56,7402.79,7410.98,7425.06,7436.11,7437.44,7431.09,7419.34,7408.02,7396.02,7387.91,7381.68,7369.6,7365.76
7758.57,7754.67,7742.47,7723.52,7698.18,7660.03,7625.59,7580.74,7525.91,7456.54,7384.53,7312.7,7251.03,7177.89,7093.38,6998.48,6888.17,6808.73,6740.58,6686.6,6642.48,6594.76,6548.84,6484.64,6459.12,6492.12,6549.83,6626.48,6701.63,6797.44,6903.67,7049.84,7218.18,7340.87,7442.23,7474.48,7513.93,7532.07,7533.85,7523.31,7514.03,7510.17,7514.53,7517.37,7524.8,7546.02,7568.58,7590.58,7622.5,7651.54,7692.24,7724.11,7754.39,7778.39,7797.68,7812.09,7820.46,7821.39,7818.38,7806.92,7794.8,7777.15,7753.11,7731.6,7711.39,7692.7,7678.77,7667.58,7657.52,7642.54,7648.81,7651.25,7653.7,7656.31,7624.88,7653.2,7649.58,7644.96,7639.1,7640.22,7621.17,7618.85,7604.17,7561.75,7564.74,7556.87,7560.6,7560.01,7539.63,7542.51,7573.33,7596.94,7639.49,7685.38,7715.89,7748.1,7768.35,7806.16,7830.8,7840.07,7836.97,7828.29,7816.46,7807.09,7804.29,7798.88,7782.97,7775.51,7775.95,7779.49,7783.3,7789.3,7790.5,7781.44,7784.1,7784.37,7777.53,7796.85,7791.13,7777.71,7762.48,7749.55,7731.53,7707.96,7678.8,7651.26,7619.62,7575.66,7524.31,7474.57,7465.2,7452.51,7446.35,7448.67,7452.38,7468.08,7486.35,7514.67,7548.45,7552.21,7565.17,7558.68,7573.62,7577.59,7600.54,7604.14,7599.94,7583.42,7568.93,7549.76,7530.85,7513.54,7484.37,7445.95,7417.29,7395.31,7385.3,7371.49,7353.03,7339.5,7332.06,7330.36,7345.89,7370.98,7408.57,7432.45,7443.71,7458.82,7486.05,7495.74,7492.88,7471.32,7444.23,7403.8,7380.05,7373.51,7366.47,7345.49,7341.23,7358.04,7375.92,7394.8,7424.39,7450.24,7476.77,7504.4,7539.31,7569.35,7585.28,7587.52,7606.4,7631.09,7634.4,7637.01,7608.19,7631.25,7642.87,7635.7,7630.64,7641.25,7648.02,7675.08,7708.33,7747.52,7762.04,7793.68,7829.08,7846.54,7843.81,7818.09,7789.84,7740.69,7688.86,7648.92,7605.33,7564.68,7505.57,7451.4,7388.47,7318.19,7237.84,7128.18,7009.68,6881.81,6793.28,6708.11,6607.78,6520.96,6477.07,6486.62,6557.42,6627.58,6711.5,6775.72,6859.22,6955.49,7074.9,7159.22,7187.33,7205.34,7216.61,7206.22,7193.95,7176.53,7160.8,7139.59,7112.02,7075.62,7040.81,7002.84,6969.15,6928.89,6896.74,6876.4,6879.75,6886.87,6897.68,6903.73,6895.57,6895.28,6883.68,6835.86,6770.45,6691.06,6639.83,6616.35,6604.26,6594.67,6579.93,6574.06,6590.5,6621.85,6663.46,6688.73,6698.19,6710.48,6713.07,6711.01,6703.85,6672.35,6630.02,6583.17,6528.57,6477.67,6428.86,6389.14,6353.41,6306.19,6250.17,6190.46,5900.61,5496.1,5587.41,354.955,876.915,35.08,34.915,34.861,870.872,2738.08,2796.78,2795.24,2787.58,2781.75,2778.11,2774.36,2771.94,2770.44,2768.12,2763.09,2758.9,2762.28,2763.89,2772.56,2467.36,228.421,367.609,36.888,5868.03,7052.61,7100.44,7148.04,7142.27,7113.33,7078.71,7055.42,7045.67,7017.39,7013.88,7013.17,7002.2,6992.45,6981.93,6984.93,6957.71,6918.17,6913.61,6900.5,6893.96,6886.87,6874.6,6854.42,6836.9,6832.12,6845.5,6823.79,6817.86,6814.87,6815.72,6841.57,6872.6,6894.41,6930.97,6955.91,6990.41,7007.77,7025.92,7047.18,7073.87,7095.08,7118.34,7128.9,7142.91,7155.61,7178.58,7195.59,7206.13,7198.85,7204.33,7213.68,7221.8,7236.85,7252.56,7266.14,7286.27,7296.12,7300.46,7301.94,7308.58,7318.28,7328.24,7339.65,7349.99,7354.07,7368.07,7382.39,7385.06,7381.3,7373.23,7364.49,7351.37,7341.19,7338.96,7330.58,7329.62
7651.94,7650.81,7641.63,7626.61,7604.53,7567.05,7531.62,7490.67,7438.2,7369.18,7300.83,7229.79,7171.36,7097.62,7017.18,6926.42,6821.01,6747.07,6691.79,6648.26,6607.09,6562.56,6523.67,6460.32,6447.52,6492.65,6553.85,6630.99,6696.09,6805.89,6906.05,7040.28,7192.97,7303.65,7386.95,7422.14,7449.89,7465.4,7464.15,7451.46,7440.36,7437.36,7444.79,7451.14,7456.62,7479.52,7500.85,7523.51,7557.38,7589.01,7626.04,7659.43,7691.61,7714,7732.49,7742.72,7748.23,7747.75,7745.26,7735.62,7727.61,7716.6,7695.69,7672.65,7654.08,7633.7,7623.88,7614.15,7607.72,7602.91,7599.49,7603.54,7607.07,7609.33,7570.58,7599.98,7589.67,7581.76,7572.39,7570.03,7551.34,7545.94,7520.14,7482.78,7461.66,7461.06,7471.84,7468.79,7451.62,7455.27,7479.41,7509.47,7548.6,7594.16,7623.15,7655.77,7681.52,7704.83,7735.4,7744.63,7745.52,7743.65,7738.44,7735.9,7739.78,7740.07,7734.76,7740.11,7744.75,7756.49,7765.48,7775.71,7779.01,7768.57,7763.26,7738.06,7753.56,7769.15,7756.3,7731.83,7702.67,7679.45,7655.69,7624.81,7587.05,7552.25,7514.67,7466.56,7404.11,7369.32,7346.44,7341.09,7343.75,7350.93,7360.74,7385.63,7418.13,7442.39,7474.54,7491.16,7505.33,7504.49,7512.44,7532.04,7548,7566.19,7563.09,7550.84,7533.27,7514.4,7493.42,7469.29,7437.77,7392.58,7358.85,7329.25,7315.77,7296.9,7279.54,7269.15,7262.25,7262.47,7288.45,7320.71,7360.71,7389.56,7409.1,7434.35,7468.83,7491,7501.48,7492.38,7474.11,7441.25,7421.88,7420.72,7416.02,7396.73,7390.71,7397.34,7408.65,7422.62,7446.29,7464.43,7482.91,7503.91,7530.1,7550.54,7564.57,7573.1,7575.56,7596.07,7598.2,7600.43,7600.66,7596.93,7606.26,7589.99,7600.3,7606.13,7616.19,7630.5,7649.87,7659.49,7697.65,7725.72,7754.88,7763.17,7773.1,7745.1,7721,7679.63,7642.32,7603.34,7557.39,7508.56,7459,7405.08,7340.74,7268.12,7190.61,7079.51,6974.35,6854.67,6774.03,6695.94,6607.18,6536.65,6500.95,6512.81,6572.74,6641.92,6718.6,6775.86,6847.05,6932.34,7033.5,7106.59,7131.63,7156.74,7172.13,7169.58,7164.56,7151.31,7142.27,7129.77,7105.18,7073.67,7037.08,6994.55,6962.46,6924.01,6903.71,6889.49,6891.31,6899.14,6901.37,6901.42,6892.67,6891.74,6874.15,6822.57,6754.48,6679.57,6628.3,6605.83,6594.39,6587.88,6573.06,6570.12,6588.4,6622.38,6664.87,6694.14,6701.78,6709.54,6714.19,6715.36,6708.76,6676.35,6634.61,6587.94,6535.4,6488.54,6437.43,6395.34,6354.08,6310.21,6256.44,6217.15,6112.8,5445.27,5614.73,2786.44,2987.84,231.531,41.889,34.861,34.482,2689.52,2797.41,2795.85,2787.71,2781.67,2777.67,2774.1,2770.78,2769.12,2766.68,2763.13,2758.75,2763.28,2768.25,2774.52,2799.63,1279.32,923.087,39.443,3411.43,6854.45,6986.51,7051.43,7055.74,7021.74,6983.35,6949.67,6931.27,6916.13,6922.64,6925.43,6917.15,6902.53,6887.98,6888.24,6855.56,6809.22,6787.8,6763.35,6747.21,6734.32,6724.92,6714.11,6699.22,6699.94,6719.95,6710.08,6709.77,6717.33,6725.12,6750.82,6777.88,6798.5,6832.1,6851.06,6875.7,6886.74,6900.42,6918.12,6947.56,6975.99,7004.36,7022.84,7045.59,7071.62,7111.23,7142.15,7159.19,7155.86,7161.29,7177.31,7191.36,7209.71,7225.25,7240.14,7253.07,7261.4,7260.15,7251.14,7251.69,7253.4,7256.02,7259.84,7259.51,7253.77,7256.22,7259.43,7256.68,7248.6,7237.97,7233.83,7225.94,7227.33,7231.87,7235.9,7245.38
7551.79,7550.4,7539.62,7526.08,7502.99,7467.17,7431.68,7389.81,7336.39,7268.95,7202.22,7132.03,7074.23,7007.82,6928.07,6846.19,6746.15,6681.93,6632.27,6604.4,6565.14,6527.55,6494.83,6441.56,6439.41,6500.4,6565.02,6645.64,6709.4,6817.88,6918.27,7044.66,7183.08,7284.73,7349.71,7367.7,7396.7,7411.8,7405.34,7393.56,7383.78,7380.41,7387.77,7393.52,7399.66,7419.15,7442.02,7466.9,7498.61,7530.96,7564.54,7597.98,7624.69,7645.74,7660.58,7668.27,7672.65,7670.42,7667.41,7659.61,7653.79,7646.62,7630.43,7613.89,7598.22,7584.93,7578.75,7575.37,7570.26,7564.86,7561.81,7566.61,7565.85,7564.93,7527.63,7545.1,7528.4,7518.16,7506.25,7494.81,7483.44,7467.41,7441.51,7408.36,7387.65,7392.69,7387.6,7394.98,7377.11,7380.51,7388.1,7418.21,7468.21,7515.47,7543.88,7572.16,7594.51,7622.79,7641.95,7652.42,7656.74,7659.69,7660.99,7667.79,7676.72,7685.45,7688.44,7701.51,7713.33,7731.63,7745.21,7757.27,7762.15,7756.34,7712.83,7735.77,7732.23,7729.34,7712.89,7675.05,7632.24,7606.5,7572.29,7535.37,7496.78,7454.89,7415.9,7370.1,7324.4,7274.15,7257.85,7257.71,7271.38,7286.86,7309.33,7327.99,7367.68,7398.41,7427.84,7445.36,7458.33,7457.88,7461.28,7468.69,7501.43,7519.37,7516.79,7514.36,7492.21,7486.7,7465.19,7447.17,7414.51,7374.8,7337.88,7312.44,7296.7,7274.71,7255.34,7239.67,7227.43,7226.26,7246.69,7275.88,7310.95,7338.18,7358.34,7381.89,7419.74,7453.88,7474.34,7478.07,7470.92,7453.24,7444.25,7451.23,7453.23,7441.48,7432.34,7431.32,7433.26,7441.67,7457.51,7466.66,7473.72,7484.77,7497.81,7512.12,7522.78,7526.99,7535.42,7543.58,7543.45,7549.23,7549.61,7549.51,7550.7,7527.45,7533.97,7536.83,7556.25,7561.17,7578.72,7581.31,7588.24,7597.39,7632.47,7654.81,7662.76,7635.06,7622.52,7587.93,7554.47,7525.79,7493.75,7454.2,7404.46,7354.15,7290.24,7218.04,7145.42,7035.19,6934.42,6825.33,6758.07,6681.62,6610.27,6550.33,6520.33,6530.08,6579.03,6645.69,6719.11,6770.5,6834.16,6912.22,7002.69,7071.63,7098.66,7124.17,7142.1,7143.99,7144.96,7131.88,7123.3,7108.17,7085.16,7056.08,7020.22,6983.09,6949.87,6916.22,6902.87,6887.48,6891.25,6896.64,6895.9,6893.28,6884.2,6877.62,6856.66,6809.07,6746.04,6673.24,6624.33,6603.6,6597.34,6591.47,6584.53,6581.37,6600.52,6634.09,6678.94,6713.46,6725.39,6735.37,6746.42,6754.38,6752.5,6723.57,6683.91,6636.01,6582.12,6538.64,6488.27,6440.06,6395.4,6298.22,6289.52,6253.17,5777.84,5466.19,5384.65,4803.46,5292,1503.45,42.179,34.808,34.482,2791.97,2795.82,2794.16,2785.71,2779.39,2776.74,2772.92,2769.67,2767.65,2765.11,2762.21,2758.4,2763.74,2768.84,2776.26,2818.48,2284.73,1558,36.827,1149.82,4531.33,6488.69,6862.02,6936.11,6952.98,6922.22,6894.35,6876.32,6860.48,6864.71,6866.58,6852.85,6821.65,6796.64,6789.34,6762.23,6715.31,6692.12,6665.7,6647.91,6633.31,6627.79,6614.84,6600.86,6594.65,6613.77,6602.13,6606.03,6617.94,6632.03,6664.01,6698.67,6717.5,6747.82,6766.13,6788.23,6789.88,6795.85,6813.8,6851.18,6885.08,6919.65,6947.88,6970.32,7005.99,7056.73,7095.2,7115.27,7110.69,7118.75,7132.37,7144.66,7165.19,7178.37,7186.58,7197.15,7201.51,7197.84,7185.67,7180.85,7179.75,7179.32,7176.3,7165.27,7148.68,7138.42,7135.85,7125.56,7109.63,7090.07,7076.36,7064.33,7061.75,7070.72,7075.49,7085.73
7456.88,7449.88,7436.71,7425.57,7400.43,7364.99,7320.13,7287.74,7232.35,7166.49,7100.43,7031.41,6974.51,6910.81,6839.55,6764.96,6672.95,6617.55,6576.65,6558.94,6526.52,6495.16,6470.42,6429.59,6432.94,6506.5,6569.71,6657.79,6725.82,6811.41,6917.85,7043.07,7180.08,7271.24,7323.39,7341.88,7340.07,7339.52,7339.87,7335.69,7327.56,7324.23,7331.95,7334.88,7344.15,7365.79,7383.79,7403.93,7433.77,7463.32,7493.56,7522.32,7544.98,7563.1,7574.9,7580.83,7581.2,7576.93,7570.63,7561.71,7557.76,7553.83,7542.49,7529.11,7520.34,7510.61,7508.15,7508.85,7505.01,7501.29,7498.53,7501.58,7485.64,7487.77,7476.59,7472.93,7453.79,7443.53,7422.32,7419.69,7410.78,7397.28,7370.72,7333.16,7322.14,7327.64,7321.63,7320.77,7317.44,7313.42,7321.26,7340.98,7372.45,7427.84,7460.59,7487.87,7500.78,7527.89,7546.76,7556.98,7562.62,7570.59,7579.94,7592.47,7610.17,7628.65,7636.95,7661.38,7680.73,7709.46,7727.28,7742.33,7747.43,7703.73,7732.88,7729.74,7698.56,7688.81,7665.72,7611.24,7574.35,7538.34,7497.88,7459.08,7413.03,7359.45,7321.37,7287.51,7251.32,7211.6,7189.55,7202.05,7214.76,7230.17,7262.71,7286.37,7328.58,7364.21,7392.54,7407.82,7419.87,7416.41,7424.35,7431.11,7457.26,7476.29,7476.84,7477.16,7466.55,7461.6,7446.48,7426.29,7396.16,7349.26,7321.61,7296.66,7276.85,7257.09,7233.72,7215.76,7200.65,7198.7,7214.49,7238.14,7267.17,7291.46,7308.88,7335.4,7368.89,7405.31,7431.79,7447.72,7450.17,7443.02,7444.23,7455.57,7463.43,7460.75,7452.64,7447.32,7441.8,7441.39,7452.34,7453.77,7452.05,7454.94,7456.33,7465.81,7473.1,7475.76,7478.75,7482.26,7482.73,7491.25,7491.2,7482.29,7474.92,7470.68,7470.62,7448.03,7468.54,7468.03,7476.99,7479.51,7477.02,7490.02,7521.3,7543.59,7549.37,7523.41,7515.31,7490.93,7465.18,7439.84,7416.19,7378.13,7333.94,7290.38,7232.41,7164.68,7099,6996.68,6885.6,6794.31,6738.77,6666.74,6607.91,6554.22,6528.7,6537.93,6584.17,6647.44,6714.81,6765.05,6823.25,6893.09,6973.74,7036.98,7067.81,7095.35,7113.52,7119,7121.46,7111.91,7105.84,7094.6,7072.73,7048.54,7019.92,6986.08,6953.92,6926.53,6905.94,6900.8,6907.04,6914.03,6911.79,6904.03,6888.88,6876.31,6857.75,6817.17,6766.53,6703.99,6662.78,6655.88,6666.05,6681.96,6686.18,6695.72,6723.85,6762.6,6805.3,6842.11,6853.96,6853.83,6843.87,6852.57,6858.74,6836.24,6786.44,6738.07,6677.78,6625.5,6566.14,6492.03,6429.35,5396.1,1829.93,70.748,51.154,44.59,143.618,67.876,319.215,44.005,34.973,34.863,766.49,2792.48,2788.49,2788.11,2779.66,2774.7,2772.6,2769.24,2766.7,2765.93,2764.17,2762.15,2758.56,2763.96,2769.02,2776.67,2808.64,2790.1,2610.95,50.405,427.992,1303.07,2758.98,6168.9,6704.95,6892.27,6876,6858.36,6853.44,6843.23,6843.67,6835.03,6815.52,6782.13,6751.07,6739.3,6712.35,6668.44,6642.65,6613.55,6592.41,6575.58,6574.44,6559.11,6540.88,6527.19,6538.47,6527.85,6528.08,6539.38,6549.55,6575.09,6604.78,6623.57,6656.92,6673.11,6690.05,6691.29,6697.19,6721.43,6767.57,6812.22,6853.05,6885.17,6913.11,6952.77,7009.69,7052.41,7071.58,7065.23,7072.34,7083.56,7088.43,7106.34,7120.44,7133.16,7141.56,7143.98,7134.19,7117.57,7109.82,7108.87,7106.88,7093.57,7067.61,7038.28,7017.02,7007.36,6989.74,6963.85,6937.43,6922.21,6909.53,6913.48,6925.72,6937.87,6951.58
7356.05,7352.27,7322.12,7300.12,7299.24,7241.96,7201.89,7172.29,7107.35,7057.08,6978.09,6910.89,6855.15,6810.8,6743.42,6678.79,6590.98,6552.44,6528.55,6510.36,6483.25,6459.81,6443.16,6414.95,6399.39,6489.35,6556.77,6626.63,6698.96,6799.75,6904.48,7042.73,7178.22,7259.95,7290.12,7274.9,7278.25,7291.18,7282.22,7266.28,7263.63,7252.17,7277.25,7287.53,7294.8,7308.33,7313.67,7345.62,7371,7394.12,7420.5,7435.89,7450.65,7447.4,7454.35,7456.03,7468.19,7462.6,7455.23,7449.27,7446.34,7452.63,7435.97,7428.55,7432.24,7427.06,7421.09,7417.68,7424.37,7402.48,7399.05,7394.76,7384.48,7378.58,7371,7395.51,7377.63,7360.97,7350.04,7325.28,7316.56,7297.49,7283.99,7264.11,7256.05,7262.57,7258.48,7257.94,7254.84,7240.27,7244.38,7261.86,7289.89,7320.49,7347.75,7366.11,7395.31,7435.81,7452.35,7465.58,7474.78,7488.77,7503.67,7524.06,7551.17,7579.73,7595.3,7627.52,7657.3,7689.28,7711.1,7719.76,7700.95,7699.03,7694.04,7686.04,7673.87,7638.91,7602.62,7540.14,7488.94,7461.05,7416.35,7365.16,7310.61,7258.77,7223.83,7202.87,7170.13,7143.31,7135.78,7145.17,7163.33,7181.75,7211.04,7245.22,7289.12,7326.55,7351.82,7363.12,7370.53,7368.03,7374.65,7381.85,7400.92,7409.06,7417.78,7420.37,7420.71,7419.16,7406.06,7387.94,7358.78,7320.94,7289.66,7265.88,7246.43,7223.85,7204.27,7184.4,7167.97,7163.64,7176.05,7194.16,7217.32,7238.73,7257.42,7280.07,7310.22,7351.79,7382.56,7400.71,7411.37,7415.76,7423.76,7438.83,7454.08,7457.07,7451.85,7448.33,7442.67,7436.91,7438.58,7433.28,7421.42,7415.33,7409.4,7411.87,7415.06,7403.79,7391.59,7414.61,7414.15,7422.15,7404.1,7405.56,7389.64,7393.94,7363.86,7369.61,7369.04,7367.29,7365.55,7359.01,7376.01,7374.94,7400.18,7419.82,7423.87,7414.1,7405.11,7388.85,7369.54,7353.83,7336.04,7300.75,7266.15,7224.85,7172.2,7114.23,7052.63,6955.92,6851.4,6755.57,6699.43,6638.12,6598.1,6555.64,6533.67,6535.34,6575.49,6633.88,6692.88,6751.45,6805.66,6869.71,6940.86,7000.51,7031.33,7061.63,7081.73,7091.25,7096.5,7091.12,7091.44,7086.06,7069.19,7048.93,7027.5,7006.83,6983.04,6963.58,6960.44,6954.25,6958.73,6965.69,6964.91,6943.49,6938.68,6922.67,6901.58,6869.18,6825.93,6777.39,6746.47,6750.09,6769.98,6785.47,6785.6,6805.18,6844.57,6889.69,6929.62,6970.15,6984.06,6988.7,6994.84,7003.53,7002.51,6957.76,6928.19,6859.36,6788.89,6721.06,6649.83,6580.8,6513.12,6451.74,6403.22,6336.31,6231.07,5756.78,4119.37,1221.49,42.345,58.898,0,8.556,2295,2770.16,2776.85,2773.34,2761.92,2767.97,2762.34,2764.19,2762.78,2762.7,2763.07,2751.28,2737.07,2763.74,2768.87,2767,2795.71,2840.39,2883.85,1271.15,138.791,2401.95,3889.34,5506.18,5818.23,6790.94,6813.4,6813.61,6823.87,6826.63,6828.1,6818.76,6795.63,6758.83,6729.04,6716.18,6691.52,6645.08,6613.21,6580.88,6552.88,6530.96,6527.67,6510.79,6488.75,6471.6,6478.58,6466.29,6464.27,6474.61,6483.92,6501.31,6531.89,6552.61,6585.6,6605.83,6629.81,6639.88,6650.88,6682.18,6730.33,6778.75,6819.37,6847.98,6868.41,6898.09,6939.77,6973.47,6987.3,6978.46,6981.77,6985.16,6985.58,7009.14,7030.55,7047.9,7058.83,7060.04,7048.42,7030.37,7025.32,7027.33,7023.6,7002.77,6967.55,6932.07,6901.27,6885.42,6864,6832.71,6799.46,6778.08,6766.32,6769.67,6782.8,6799.5,6814.65
7227.24,7219.85,7202.88,7203.88,7162.81,7157.68,7082.32,7051.41,6997.61,6924.31,6878.51,6797.02,6741.98,6684.8,6641.41,6592.05,6519.02,6483.25,6461.9,6464.7,6440.04,6424.2,6416.71,6387.51,6401.12,6478.91,6554.63,6630.09,6703.75,6806.91,6911.56,7012.69,7158.58,7216.29,7246.57,7255.59,7255.31,7258.5,7246.84,7228.12,7219.12,7216.36,7221.92,7230.16,7243.69,7235.85,7245.12,7274.57,7290.08,7310.3,7316.29,7327.69,7326.32,7339.65,7334.23,7321.16,7328.74,7321.3,7310.59,7315.2,7322.03,7324.59,7312.89,7317.31,7325.06,7324.24,7302.55,7317.12,7310.65,7309.84,7307.7,7308.91,7297.09,7289.44,7281.66,7269.96,7265.56,7259.78,7244.67,7244.19,7232.65,7225.2,7217.68,7201.12,7197.78,7206.58,7204.46,7205.41,7193.83,7189.13,7193.8,7207.1,7227.08,7248.61,7263.41,7285.23,7297.4,7327.41,7364.1,7373.87,7387.55,7401.08,7428.91,7456.73,7496.26,7533.49,7557.04,7585.92,7623.88,7663.04,7670.57,7677.67,7693.64,7678.02,7665.04,7652,7625.22,7578.61,7520.59,7456.24,7407.35,7362.67,7315.56,7263.86,7209.17,7161.71,7137.97,7118.02,7089.42,7075.93,7081.73,7093.89,7113.32,7137.6,7169.59,7202.35,7251.16,7290.79,7310.01,7319.11,7324,7318.1,7322.76,7331.78,7340.57,7355.22,7350.25,7362.87,7357.37,7352.06,7342.81,7347.64,7308.05,7287.54,7257.48,7235.42,7214.89,7195.29,7173.03,7152.11,7136.54,7132.67,7142.1,7155.29,7175.74,7196.13,7215.34,7239.85,7270.89,7311.39,7342.45,7363.43,7382.29,7392.05,7407.04,7429.91,7446.1,7453.23,7445.51,7441.98,7440.52,7431.7,7429.76,7415.83,7394.08,7379.52,7367.12,7365.51,7359.36,7341.21,7338.71,7340.17,7340.43,7335.85,7333.4,7333.64,7319.33,7302.21,7292.38,7288.71,7275.77,7263.55,7260.88,7258.18,7256.07,7260.07,7282.54,7297.84,7303.87,7295.35,7288.36,7281.13,7269.45,7259.17,7247.97,7221.71,7194.69,7157.02,7104.14,7052.67,6998.2,6907.07,6807.72,6717.44,6662.54,6601.05,6567.18,6534.65,6523.9,6519.18,6545.84,6600.84,6660.55,6723,6781.68,6837.49,6905.42,6959.36,6984.8,7017.39,7044.3,7049.99,7060.04,7060.39,7064.92,7066.31,7057.3,7044.23,7034.31,7022.61,7012.14,7002.96,7003.78,7008.63,7016.16,7024.47,7024.65,7012.96,6994.71,6978.82,6954.65,6930.77,6893.67,6847.12,6833.96,6841.14,6869.17,6884.19,6886.88,6905.96,6934.06,6970.93,7008.97,7036.09,7049.78,7056.77,7062.41,7064.62,7065.66,7028.54,7001.54,6938.55,6872.16,6809.08,6744.36,6675.59,6609.4,6548.92,6493.5,6446.65,6389.16,6302.23,6033.83,789.992,45.726,0,0,8.412,2517.76,2733.94,2730.59,2736.12,2736.06,2739.53,2749.84,2748.8,2747.23,2758.75,2741.75,2730.05,2725.19,2730.63,2733.68,2742.72,2759.62,2800.56,2847.83,1059.11,221.448,110.435,45.548,533.647,2833.54,5442.26,6725.8,6741.47,6759.95,6769.96,6777.45,6767.59,6744.1,6707.99,6679.53,6666.59,6645.05,6595.74,6564.7,6557,6521.87,6496.14,6487.06,6464.1,6440.75,6423,6425.26,6416.63,6416.02,6425.64,6438.98,6457.11,6483.66,6501.98,6523.67,6543.85,6557.52,6580.72,6565.53,6595.39,6664.09,6689.03,6739.8,6769.11,6799.12,6798.49,6829.1,6898.99,6908.32,6895.94,6893.25,6890.12,6886.35,6908.23,6933.4,6956.88,6967.88,6968.84,6956.34,6941.99,6937.94,6938.01,6924.4,6895.2,6853.11,6808.29,6771.7,6748.04,6722.93,6684.25,6650.6,6631.86,6621.32,6622.76,6632.69,6646.77,6665.34
7121.56,7119.48,7099.65,7072.99,7065.72,7037.16,6973.77,6932.88,6901.79,6825.37,6760.9,6704.27,6652.22,6610.8,6548.3,6507.84,6445.6,6426.58,6416.68,6420.23,6428.93,6400.45,6407.93,6381.4,6390.5,6486.42,6552.19,6626.73,6696.97,6800.22,6902.3,7006.37,7131.13,7202.98,7225,7225.69,7229.68,7233.91,7220.23,7198.79,7197.95,7194.12,7197.25,7187.42,7187.91,7188.3,7193.71,7209.41,7218.67,7218.38,7219.88,7221.89,7220.12,7223.42,7221.1,7208.23,7197.03,7191.94,7181.28,7182.01,7193.47,7208.44,7207.95,7208.94,7214.52,7217.15,7218.09,7228.81,7229.54,7224.47,7209.03,7211.34,7204.5,7196.65,7188.68,7178.22,7169.17,7166.42,7153.8,7156.43,7150.9,7146.38,7143.51,7143.06,7145.53,7149.27,7156.45,7150.27,7150.09,7144.95,7146.92,7155.62,7166.89,7185.11,7196.86,7205.01,7213.25,7240.34,7271.71,7284.14,7300.31,7321.09,7341.25,7385.11,7429.94,7472.19,7494.19,7527.13,7568.21,7608.32,7616.95,7647.42,7645.44,7625.25,7610.44,7591.14,7563.62,7513.74,7456.06,7386.96,7331.74,7281.87,7221.06,7182.76,7140.67,7100.28,7071.18,7047.39,7034.92,7034.48,7044.97,7054.25,7080.37,7108.57,7140.17,7171.31,7218.32,7256.68,7268.89,7274.72,7277.66,7270.26,7277.43,7283.23,7291.66,7292.73,7300.1,7300.62,7303.73,7300.77,7300.05,7291.39,7275.5,7235.96,7214.64,7200.09,7180.14,7158.64,7139.4,7122.65,7106.41,7100.29,7109.29,7120.64,7137.55,7157.08,7174.67,7195.59,7230.29,7266.59,7299.01,7324.33,7347.94,7364.06,7384.22,7408.59,7427.52,7436.38,7431.36,7431.51,7426.43,7416.62,7407.2,7387.96,7363.66,7340.21,7316.68,7301.62,7285.56,7280.6,7275.81,7273.38,7260.58,7248.22,7278.88,7263.02,7261.42,7244.76,7238.47,7213.05,7206.19,7185.93,7163.15,7153.04,7147.91,7143.24,7161.31,7175.44,7182.03,7177.7,7176.32,7174.62,7170.08,7175.73,7172.43,7155.59,7137.98,7098.34,7044.88,6996.35,6945.07,6866.42,6769.64,6683.14,6624.56,6573.36,6542.92,6525.31,6518.6,6512.8,6535.41,6595.64,6664.38,6697.88,6765.98,6817.84,6856.57,6902.45,6938.79,6979.56,6999.75,7008.02,7021.11,7026.76,7031.26,7037.38,7036.93,7031.89,7034.07,7033.5,7029.84,7030.62,7037.46,7042.11,7055.99,7062.38,7063.81,7044.44,7024.8,7006.84,6980.16,6954.16,6918.3,6890.08,6876.1,6878.65,6895.1,6920.52,6931.88,6929.66,6958.84,6987.93,7015.03,7038.04,7055.89,7066.79,7072.94,7079.23,7080.29,7057.8,7011.76,7005.23,6945.6,6903.17,6852.42,6797.04,6745.13,6690.95,6645.52,6602.52,6546.53,6454.6,6386.4,3784.6,2157.97,0,0,0,223.005,2705.28,2717.42,2724.93,2723.35,2724.42,2738.88,2746.16,2743.11,2749.97,2753.23,2734.18,2725.08,2731.08,2734.21,2743.65,2758.58,2787.42,2825.25,2884.44,1277.37,0,0,10.275,153.66,2240.56,6640.85,6656.8,6759.15,6778.13,6790.87,6775.64,6748.91,6711.4,6686.06,6677.88,6661.35,6617.55,6582.75,6541.1,6504.75,6475.39,6462.96,6435.57,6409.91,6390.13,6387.51,6380.65,6380.04,6390.92,6406.08,6423.76,6449.5,6467.5,6495.02,6515.7,6532.46,6547.14,6563.41,6592.44,6640,6689.4,6732.52,6758.36,6772.45,6791.95,6819.44,6833.34,6847.39,6830.03,6822.67,6817.69,6816.08,6837.95,6863.42,6889.87,6903.22,6907.07,6899.98,6887.54,6883.65,6876.6,6855.58,6816.18,6766.57,6712.64,6666.14,6629.35,6594.39,6549.43,6513.36,6491.63,6477.62,6481.14,6487.58,6502.35,6523.52
7029.73,7023.8,6986.35,6967.54,6963.46,6945.53,6881.04,6841.04,6787.35,6738.42,6685.52,6637.89,6603.61,6558.34,6511.23,6472.49,6419.19,6410.35,6412.45,6412.07,6403.21,6407.81,6394.87,6380.26,6398.54,6483.72,6554.98,6626.32,6692.04,6794.5,6896.28,6999.14,7121.97,7186.82,7210.61,7222.31,7231.02,7236.83,7223.63,7199.25,7191.97,7176.71,7176.31,7168.43,7149.09,7143.03,7147.92,7137.44,7141.54,7130.56,7112.04,7107.52,7095.02,7098.55,7090.16,7074.32,7065.94,7059.93,7052.25,7055.75,7064.14,7086.26,7083.25,7088.29,7104.12,7108.38,7112.89,7124.17,7112.03,7114.19,7113.16,7114.74,7110.3,7099.58,7091.43,7073.34,7061.12,7067.9,7061.85,7069.48,7077.33,7080.46,7086.34,7091.82,7101.03,7109.59,7109.88,7111.69,7111.73,7110.27,7111.36,7116.33,7123,7133.07,7135.54,7137.97,7140.31,7147.97,7166.73,7187.76,7200.01,7234.27,7266.15,7304.39,7341.94,7379.14,7409.87,7448.68,7483.72,7516.48,7538.67,7546.74,7540.64,7520.39,7503.74,7497.27,7466.62,7414.86,7352.67,7291.12,7227.63,7190.73,7141.31,7103.06,7067.66,7034.53,7024.25,7008.72,7004.65,7010.51,7025.67,7043.18,7067.4,7094.02,7126.15,7153.99,7195.41,7226.8,7235.29,7234.54,7236.37,7231.71,7235.65,7241.82,7247.32,7247.9,7250.35,7252.04,7251.48,7250.06,7240.77,7225.53,7202.36,7180.29,7153.83,7129.32,7119.03,7092.51,7080.92,7078.27,7063.5,7057.77,7061.76,7079.4,7092.49,7113.33,7129.76,7156.62,7186.42,7222.77,7245.14,7274.58,7301.26,7318.83,7327.49,7362.34,7369.86,7391.81,7386.6,7386.23,7370,7364.42,7357.87,7336.64,7302.37,7267.28,7249.26,7230.66,7211.06,7187.69,7183.52,7174.76,7172.7,7179.51,7184.66,7187.17,7180.41,7171.25,7157.06,7142.86,7130.24,7112.06,7090.15,7076.11,7065.64,7058.21,7069.58,7080.08,7087.79,7087.04,7087.26,7091.4,7094.44,7106.34,7107.83,7096.05,7084.06,7052.77,7006.27,6963.16,6914.21,6842.02,6743.34,6662.08,6603.26,6549.67,6515.36,6498.51,6491.39,6495.99,6519.88,6568.9,6628.47,6666.14,6723.18,6762.97,6806.03,6850.23,6891.58,6917.72,6939.42,6955.58,6970.81,6973.29,6982.36,6991.68,6990.17,6995.25,7005.35,7011.44,7019.34,7037.85,7038.69,7053.83,7057.21,7064.83,7064.39,7042.75,7027.9,7015.59,6990.17,6974.11,6930.17,6904.67,6884.75,6877.81,6886.64,6898.53,6898.97,6910.92,6917.63,6946.79,6967.02,6987.57,7004.27,7015.27,7024.99,7034.28,7041.03,7025.48,6996.88,6967.18,6931.48,6913.19,6904.59,6845.15,6811.27,6770.85,6734.47,6704.69,6701.5,6645.18,6577.43,4463.65,1623.65,0,0,2.713,587.944,2697.1,2706.78,2716,2715.61,2722.09,2725.25,2728.64,2737.69,2738.44,2747.7,2737.32,2724.49,2731.22,2734.15,2743.31,2753.78,2770.77,2803.89,2898.93,2550.25,5.676,13.396,425.046,4230.25,6204.97,6374.76,6735.55,6782.81,6807.31,6818.87,6822.02,6801.82,6758.68,6725.37,6704.6,6672.63,6619.33,6584.89,6545,6505,6476.18,6463.48,6435.17,6406.2,6383.98,6375.54,6364.26,6360.17,6368.13,6383.25,6402.03,6433.36,6453.39,6478,6501.89,6516.41,6530.95,6544.19,6568.69,6612.93,6659,6696.82,6719.71,6730.46,6748.25,6772.95,6789.97,6792.82,6772.07,6760.9,6753.02,6747.85,6769.75,6796.13,6822.9,6837.91,6844.79,6844.73,6835.41,6833.39,6828.95,6809.97,6770.44,6717.81,6665.04,6614.59,6574.64,6537.01,6483.8,6435.7,6404.45,6385.9,6376.27,6373.69,6379.82,6392.52
6940.7,6919.04,6899.01,6879.7,6859.9,6839.7,6801.6,6761.62,6713.21,6667.99,6635.07,6600.26,6570.38,6535.85,6493.77,6465.1,6429.03,6414.04,6411.15,6418.8,6408.61,6405.83,6411.95,6396.26,6414.21,6488.02,6555.26,6624.68,6684.4,6781.95,6885.83,6980.7,7105.74,7180.92,7217.65,7236.37,7242.85,7245.98,7235.89,7201.33,7179.1,7165.43,7158.24,7139.93,7106.29,7090.69,7074.92,7053.19,7034.69,7012.12,6990.76,6970.37,6954.14,6954.53,6944.48,6928.55,6923.34,6921.53,6923.68,6930.12,6941.99,6955.49,6962.21,6967.78,6979.86,6987.16,6998.92,7011.12,7012.47,7014.79,7012.31,7010.8,7006.18,6997.43,6989.29,6973.85,6965.75,6970.5,6978.37,6995.62,7010.89,7021.55,7034.44,7049.46,7065.49,7078.68,7082.22,7084.94,7084.06,7079.22,7076.78,7078.61,7075.87,7077.65,7073.18,7070.19,7070.44,7072.81,7081.13,7085.21,7101.74,7131.15,7178.56,7223.4,7270.66,7310.36,7336.83,7374.42,7406.72,7440.92,7454.69,7457.35,7449.67,7442.97,7427.44,7404.08,7366.51,7318.87,7257.14,7200.15,7157.05,7122.34,7085.18,7060.3,7032.37,7006.74,7000.86,6994.95,6996.3,7005.8,7022.89,7039.19,7059.63,7081.15,7109.24,7134.41,7164.24,7192,7195.02,7192.46,7192.65,7190.81,7195.9,7199.92,7203.89,7202.33,7204.43,7210.8,7212.09,7209.5,7199.17,7185.37,7165.14,7138.52,7112.16,7092.41,7074.69,7052.54,7035.21,7033.23,7030.2,7022.67,7025.54,7040.3,7057.83,7074.05,7090.47,7112.08,7132.37,7171.75,7202.58,7232.26,7253.36,7269.06,7283.3,7303.8,7313.97,7326.15,7335.79,7328.95,7323.99,7313.65,7298.15,7276.41,7244.84,7200.79,7173.94,7156.01,7130.43,7115.64,7110.17,7108.96,7102.11,7106.83,7111.1,7113.08,7106.52,7103.19,7094.06,7079.93,7065.75,7053.96,7033.1,7016.54,7002.96,6994.65,7002.56,7007.62,7009.43,7007.63,7008.86,7013.48,7018.4,7033.67,7037.55,7030.81,7023.05,6999.53,6957.9,6916.17,6871.82,6804.72,6713.35,6636.87,6579.58,6526.83,6493.88,6482.11,6478.91,6490.8,6505,6550.14,6600.1,6636.61,6687.77,6720.76,6760.12,6803.41,6842.11,6866.16,6873.12,6882.69,6897.93,6905.21,6917.2,6931.98,6942.66,6953.65,6970.97,6986.27,6998.05,7013.58,7030.71,7046.53,7061.71,7071.8,7066.02,7042.85,7032.96,7020.6,7000.86,6977.29,6945.83,6919.04,6894.36,6882.13,6880.61,6875,6867.21,6867.19,6881.18,6904.15,6917.96,6931.22,6944.56,6951.19,6959.21,6967.45,6976.01,6969.94,6958.64,6946.69,6935.75,6921.14,6903.35,6874.25,6844.12,6812.33,6781.86,6743.96,6713.24,6667.28,6490.57,4930.46,2424.51,94.245,17.554,11.054,664.052,2582.69,2696.96,2708.06,2708.89,2712.3,2731.05,2731.33,2737.56,2733.78,2736.71,2733.97,2724.61,2731.28,2734.16,2743.12,2752.75,2787.07,2843.13,2956.19,2701.64,67.574,4.189,1332.33,3947.19,3839,6329.47,6772.71,6844.44,6861.52,6864.12,6853.67,6844.9,6798.27,6748.34,6718.47,6689.19,6647.35,6605.87,6566.47,6523.05,6494.14,6484.14,6457.3,6427.82,6408.53,6392.71,6379.88,6371.5,6379.07,6391.58,6406.52,6435.17,6453.64,6474.16,6503.53,6482.54,6532.96,6546.74,6557.38,6587.1,6647.76,6667.25,6698.71,6704.3,6719.37,6738.41,6750.8,6743.72,6718.52,6701.73,6687.08,6682.13,6699.46,6721.78,6748.04,6761.83,6774.45,6783.22,6780.1,6783.24,6784.67,6769.79,6737.12,6687.89,6637.27,6586.33,6542.45,6501.21,6440.27,6384.34,6342.15,6312.84,6292.13,6274.98,6266.16,6265.75
6863.33,6840.45,6820.22,6800.81,6784.78,6768.48,6735.12,6700.06,6658.54,6624.66,6606.74,6583.03,6563.91,6543.52,6506.57,6483.24,6460.29,6450.67,6448.36,6452.48,6440.58,6437.64,6441.79,6428.24,6447.71,6500.53,6559.7,6626.37,6687.2,6783.73,6882.73,6975.7,7095.91,7168.75,7214.65,7241.23,7248.74,7250.77,7238.15,7202.76,7176.58,7159.95,7145.34,7118.3,7075.51,7049.92,7019.92,6980.77,6949.38,6915.78,6883.89,6853.03,6828.55,6826.06,6814.42,6806.04,6807.25,6808.46,6813.58,6824.68,6840.33,6860.07,6875.55,6887.56,6900.75,6909.74,6921,6933.77,6936.79,6938.88,6929.89,6921,6910.83,6899.02,6890.94,6878.77,6873.37,6882.55,6895.55,6918.6,6942.5,6963.93,6985.19,7004.84,7026.2,7045.3,7053.19,7056.6,7057.65,7052.19,7047.45,7042.05,7035.03,7030.28,7022.28,7011.49,7005.06,7005.05,7012.08,7022.64,7042.42,7070.93,7108.08,7152.72,7208.81,7245.44,7278.1,7305.46,7327.06,7350.25,7365.86,7369.32,7356.34,7343.09,7321.41,7303.79,7268.68,7230.95,7178.23,7127.39,7094.14,7065.99,7034.54,7010.52,6987.74,6971.48,6972.28,6981.04,6986.39,6997.72,7013.84,7027.98,7047.28,7064,7085.49,7105.21,7130.18,7154.11,7152.58,7148.37,7151.02,7151.13,7159.92,7162.93,7164.38,7161.67,7163.68,7167.47,7172.98,7169.42,7160.35,7147.05,7126.5,7103.94,7082.16,7060.16,7040.81,7021.01,7004.15,6992.72,6985.83,7010.9,7012.23,7017.58,7026.97,7041.63,7056.64,7075.08,7097.51,7127.82,7155.77,7179.84,7196.33,7212.12,7225.08,7251.06,7265.56,7280.33,7282.56,7286.43,7272.18,7254.02,7239.26,7217.02,7179.83,7143.08,7113.48,7094.4,7066.78,7053,7047.38,7043.13,7035.38,7038.11,7050.38,7049.74,7043.28,7043,7031.73,7019.29,7007.25,6997.58,6982.25,6966.14,6948.19,6938.49,6942.01,6947.54,6949.03,6947.59,6945.65,6949.86,6954.71,6968.08,6973.17,6969.92,6962.8,6941.04,6904.48,6865.23,6822.5,6762.87,6679.57,6605.95,6550.23,6499.53,6469.92,6461.81,6463.19,6466.84,6483.95,6522.73,6570.46,6603.79,6653.67,6697.91,6730.61,6763.19,6788.96,6817.57,6808.55,6834.64,6847.25,6849.03,6860.09,6874.98,6885.4,6898.53,6913.06,6933.1,6933.48,6946.5,6966.1,6992.61,7021.88,7032.45,7040.59,7016.14,7024.85,7017.47,7009.64,6988.41,6949.61,6923.13,6896.54,6877.36,6872.98,6856.24,6839.07,6829.63,6837.81,6848.53,6852.08,6858.33,6867.25,6869.89,6870.67,6876.61,6889.25,6884.73,6885.54,6887.9,6887.83,6884.95,6883.17,6870.27,6852.89,6824.73,6799.27,6478.39,6551.34,1072.53,1686.17,44.09,9.822,283.439,170.547,2349.8,2696.62,2679.09,2688.37,2707.32,2705.28,2709.99,2715.06,2723.26,2733.9,2744.72,2749.99,2738.13,2724.62,2731.5,2733.94,2743,2754.03,2810.1,2888.6,3035.59,1639.39,422.166,196.991,446.36,3380.41,4654.97,6434.71,6931.71,6895.54,6933.38,6944.27,6925.3,6888.63,6838.38,6794.66,6757.5,6721.65,6687.19,6644.32,6603.84,6564.77,6526.92,6514.73,6484.64,6458.46,6438.35,6418.34,6405.53,6400.43,6407.58,6420,6434.99,6464.09,6487.36,6511.16,6541.43,6559.55,6572.01,6583.93,6608.33,6644.54,6677.32,6701.94,6707.77,6703.61,6710.99,6721.48,6728.81,6718.71,6689.29,6666.14,6645.4,6636.77,6652.61,6673.74,6696.88,6714.99,6728.54,6740.48,6747.2,6754.59,6763.2,6752.88,6720.42,6670.87,6620.59,6567.17,6516.04,6467.1,6396.67,6334.77,6283.06,6247.37,6217.98,6192.04,6175.79,6165.99
6786.16,6777.57,6751.29,6737.99,6736.95,6742.59,6699.6,6673.75,6644.9,6621.65,6614.15,6604.33,6593.59,6575.92,6545.98,6552.05,6514.77,6512.64,6515.12,6502.61,6474.37,6467.27,6464.45,6455.33,6467.33,6506.47,6559.25,6622.31,6679.86,6769.95,6866.75,6958.29,7071.61,7141.69,7194.75,7228.03,7238.4,7242.48,7228.59,7194.23,7166.29,7148.3,7130.32,7098.89,7048.68,7012.4,6971.67,6919.75,6872.87,6842.18,6787.92,6764.78,6725.41,6716.65,6703.95,6683.12,6705.12,6727.18,6715.63,6727.49,6743.54,6777.87,6804.66,6825.07,6852.45,6870.44,6884.82,6891.19,6892.37,6889.77,6874.01,6852.87,6838.18,6821.17,6805.81,6798.89,6796.2,6806.34,6812.13,6836.47,6868.55,6895.67,6919.4,6946.76,6975.02,6996.78,7009.33,7017.67,7020.51,7015.36,7010.68,7004.19,6994.56,6983.89,6971.81,6957.54,6950.79,6948.95,6955.43,6961.65,6974.42,7010.83,7066.5,7123.37,7171.83,7199.11,7219.97,7246.98,7255.7,7273.56,7297.79,7292.42,7277.46,7256.16,7239.98,7233.23,7202.43,7164.21,7108.75,7068.64,7052.57,7022.97,6997.77,6988.26,6968.77,6957.89,6963.41,6974.96,6983.75,6994.57,7008.06,7016.53,7021.12,7034.54,7059.78,7073.03,7089.37,7107.58,7103.46,7101.38,7107.62,7111.07,7120.18,7124.22,7123.74,7122.85,7126.11,7133.93,7139.98,7136.55,7127.61,7111.35,7093.04,7071.46,7048.39,7030.67,7019.71,6990.45,6984.3,7007.08,6997.21,6979.8,6981.78,6985.21,6992.68,7003.77,7024.5,7040.15,7066.18,7090.44,7115.89,7142.09,7167,7169.46,7190.62,7202.79,7220.27,7247.01,7241.22,7228.72,7217.43,7205.33,7165.1,7144.14,7137.25,7107.27,7066.97,7047.74,7014.5,7004.32,7006.06,7007.15,6987.84,6987.96,6991.15,6985.67,6988.59,6985.62,6975.54,6963.48,6950.9,6944.12,6929.15,6912.42,6895,6884.18,6887.22,6892.04,6893.22,6892.2,6889.05,6890.59,6898.23,6908.28,6913.58,6911.91,6906.59,6885.43,6851.75,6814.83,6771.94,6720.05,6641.55,6570.98,6518.44,6470.27,6444.19,6448.74,6462.81,6468.74,6465.92,6503.81,6567.25,6605.09,6648.5,6679.74,6702.82,6727.73,6752.62,6783.57,6799.02,6811.37,6824.13,6833.6,6832.36,6836.12,6853.17,6859.8,6873.72,6895.81,6910.84,6923.65,6949.12,6969.81,6993.18,7013.42,7023.97,7001.68,7024.67,7003.98,7001.93,6983.47,6956.02,6926.78,6902.77,6877.8,6862.23,6834.93,6799.05,6777.92,6773.57,6769.52,6758.51,6753.6,6757.62,6758.04,6760.59,6768.1,6785.5,6789.83,6801.96,6815.29,6832.58,6842.23,6850.77,6851.46,6847.53,6841.69,6806.42,6782.05,6761.51,6731.63,6455.26,6.158,9.349,22.538,28.502,2257.73,2697.95,2678.83,2695.8,2704.98,2716.89,2722.34,2720.29,2722.31,2728.18,2742.64,2751.84,2750.15,2743.51,2750.64,2736.81,2741.62,2757.41,2845.42,2917.55,2163.39,117.493,15.79,15.573,694.295,6477.97,7008.06,7040.49,7037.55,7038.91,7027.46,7013.86,6997.3,6954.35,6901.37,6851.25,6806.95,6771.86,6742.26,6707.06,6673.44,6633.26,6601.94,6581.06,6543.04,6516.83,6496.03,6468.76,6452.32,6440.8,6447.65,6459.86,6469.94,6498.89,6520.63,6545.23,6584.67,6609.03,6629.45,6646.43,6672.2,6709.03,6738.69,6761.16,6757.94,6745.15,6739.38,6736.64,6733.53,6716.58,6683.05,6656.18,6632.34,6620.43,6631.27,6649.83,6673.25,6692.49,6706.66,6721.69,6734.74,6752.55,6763.64,6760.42,6730.89,6692.37,6646.18,6597.23,6548.47,6495.51,6423.32,6353.92,6292.41,6247.6,6203.21,6161.51,6126.8,6098.75
6730.61,6739.78,6710.21,6728.88,6739.9,6741.13,6708.87,6708.17,6703.72,6687.87,6655.61,6664.93,6643,6660.64,6644.55,6611.98,6616.28,6597.53,6591.54,6573.4,6535.47,6508.85,6490.46,6479.21,6486.74,6519.2,6563.69,6619.91,6673.4,6756.37,6855.04,6951.02,7057.5,7120.97,7178.62,7214.66,7227.83,7230.84,7219.23,7183.65,7162.24,7133.86,7111.87,7076.18,7020.06,6975.13,6923.84,6860.56,6802.41,6768.46,6725.75,6683.69,6651.37,6644.11,6623.18,6633.58,6641.04,6653.42,6663.79,6684.31,6707.73,6736.51,6767.62,6801.38,6831.74,6867.58,6874.83,6882.87,6868.99,6861.33,6833.04,6802.85,6762.1,6725.33,6703.88,6736.55,6735.06,6744.65,6740.03,6747.76,6783.6,6813.1,6849.32,6876.26,6909.68,6941.91,6960.59,6976.51,6968.96,6966.37,6962.15,6953.89,6944.54,6932.75,6918.44,6905.59,6902.3,6901.8,6911.06,6922.51,6937.55,6971.26,7019.69,7061.51,7106.62,7137.72,7154.02,7175.71,7196.36,7218.82,7217.42,7208.5,7184.62,7174.88,7157.5,7145.54,7115.21,7090.04,7047.43,7012.01,6997.82,6980.67,6963.66,6961.19,6942.31,6944.99,6948.38,6965.31,6974.95,6983.77,6993.1,6999.62,7004.57,7002.09,7015.97,7036.81,7049.39,7063,7061.1,7059.93,7068.01,7076.89,7090.62,7098.08,7098.03,7097.57,7102.75,7112.17,7121.41,7116.77,7107.2,7098.64,7074.38,7051.59,7034.96,7024.23,7016.03,7014.71,6998.67,7001.17,6994.01,6978.27,6981.98,6985.15,6987.74,6995.5,7001.38,7018.92,7032.31,7058.52,7075.37,7096.09,7118.57,7122.36,7136.35,7143.1,7156.36,7178.04,7164.11,7154.64,7140.81,7135.82,7112.73,7093.27,7083.66,7044.92,7020.75,6984.62,6962.45,6947.99,6954.95,6956.18,6934.24,6923.85,6949.95,6939.88,6934.61,6960.02,6957.47,6928.79,6910.45,6910.85,6892.17,6870.35,6851.09,6838.79,6840.3,6842.91,6842.68,6840.82,6837.12,6838.71,6844.41,6855.97,6864.14,6864.45,6857.39,6837.39,6803.76,6768.69,6729.1,6680.4,6609.9,6541.58,6495.49,6445.18,6439.27,6440.62,6453.02,6455.71,6466.47,6499.29,6544.01,6574.92,6610.88,6639.61,6661.25,6687.82,6713.84,6745.61,6766.72,6782.54,6786.41,6810.68,6814.71,6838.94,6846.74,6869.78,6871.79,6888.28,6894.21,6904.34,6926.42,6948.34,6967.17,6989.36,7002.9,7000.9,7021.41,7031.13,7025.8,7011.99,6965.42,6934.22,6920.79,6890.69,6856.71,6819.03,6776.58,6738.08,6726.93,6701.85,6684.61,6673.74,6653.59,6652.88,6653.96,6661.64,6684.6,6694.42,6718.49,6739.31,6762.87,6781.78,6800.76,6809.59,6818.95,6807.81,6789.64,6750.7,6731.22,6702.25,6600.16,284.268,5.048,11.563,11.881,1684.65,2696.22,2676.99,2691.31,2703.98,2711.23,2720.58,2724.71,2723.13,2721.57,2736.98,2750.43,2748.63,2742.35,2749.25,2739.36,2740.8,2762.11,2878.17,2484.57,268.048,11.958,332.845,2059.81,5719.49,6680.49,7081.37,7116.34,7114.07,7094.44,7079.8,7063.37,7052.15,7016.79,6973.3,6928.35,6882.38,6846.06,6817.3,6780.1,6742.49,6699.74,6658.11,6627.99,6585.07,6550.98,6525.27,6494.94,6473.69,6458.18,6463.38,6470.83,6480.19,6502.16,6524.1,6552.51,6593.63,6622,6649.25,6674.78,6705.69,6736.06,6761.12,6772.63,6764.93,6747.22,6733.79,6719.52,6706.15,6689.61,6665.29,6643,6626.14,6619.65,6629.68,6651.58,6681.29,6700.7,6713.73,6730.71,6742.33,6758.58,6767.21,6762.1,6734.5,6698.91,6655.65,6606.73,6556.26,6504.12,6437.66,6375.47,6315.33,6273.02,6227.05,6182.03,6146.58,6112.75
6718.17,6711.73,6701.26,6709.12,6722.54,6732.82,6730.95,6727.14,6717.85,6714.92,6732.65,6744.11,6747.78,6738.11,6718.66,6704.46,6683.85,6671.68,6659.68,6644.75,6618.94,6581.25,6548.36,6525.42,6525.8,6548.22,6606.64,6630.63,6678.19,6755.67,6852.75,6951.22,7058.73,7122.45,7180.16,7196.69,7226.43,7247.12,7245.38,7219.85,7181.64,7165.09,7140.39,7102.52,7040.02,6968.5,6893.87,6846.98,6791.5,6726.74,6663.54,6612.9,6587.64,6579.07,6565.06,6555.88,6565.29,6587.05,6614.09,6652.04,6687.12,6729.44,6767.09,6789.7,6833.38,6870.21,6876.54,6880.71,6869.12,6843.7,6804.88,6767.58,6732.71,6676.08,6645.26,6660.69,6656.04,6660.87,6674.57,6702.78,6711.59,6742.62,6800.28,6836.56,6854.11,6874.87,6923.69,6928.82,6940.82,6914.19,6907.34,6898.03,6887.28,6877.46,6868.06,6856.97,6854.32,6871.64,6876.3,6883.85,6913.03,6931.96,6976.65,7016.34,7039.85,7075.3,7088.41,7097.07,7119.81,7129.77,7120.35,7110.4,7101.39,7088.39,7076.13,7063.61,7036.77,7020.89,6990.92,6971.69,6957.47,6947.44,6930.75,6933.08,6927.92,6931.08,6933.48,6945.06,6952.11,6958.69,6965,6964.52,6964.69,6966.3,6965.19,6975.78,6994.51,7006.89,7003.1,6997.4,7009.5,7022.16,7041.14,7050.31,7055.52,7060.67,7068.49,7084.29,7093.39,7092.75,7082.32,7068.76,7056.91,7042.77,7026.18,7017.96,7018.83,7002.41,6991.27,6991.92,6986.53,6971.72,6975.95,6978.84,6981.04,6986.68,6991.56,7001.06,7017.03,7030.09,7049,7065.39,7079.01,7083.74,7086.35,7094.87,7110.79,7109.72,7101.87,7094.74,7079.69,7075,7059.75,7034.83,7019.78,6990.45,6958.6,6927.16,6906.49,6894.17,6894.25,6890.06,6888.32,6881.58,6901.29,6907.86,6914.04,6925.75,6919.86,6908.55,6892.96,6891.77,6880.94,6853.75,6821.82,6817.51,6814.37,6803.48,6802.96,6803.42,6800.52,6802.2,6808.07,6820.3,6826.69,6827.32,6819.15,6795.15,6759.49,6722.78,6683.22,6644.15,6582.49,6526.21,6484.9,6439.15,6436.72,6433.63,6433.95,6434.17,6441.33,6465.5,6502.73,6533.04,6568.62,6595.83,6616.58,6645.76,6676.56,6708.29,6732.87,6753.19,6774.69,6784.71,6796.31,6821.04,6835,6848.13,6856.53,6866.42,6871.33,6880.41,6899.46,6920.3,6937.15,6956.46,6969.64,6977.3,6994.78,7006.94,7005.98,7004.5,6978.38,6952.63,6925.43,6891.35,6856.9,6814.58,6759.22,6714.33,6683.9,6655.74,6618.75,6590.13,6581.04,6540.85,6542.44,6553.05,6577.51,6605.38,6638.15,6666.4,6690.14,6717.06,6754.84,6771.44,6781.86,6786.34,6757.76,6734.9,6718.7,6690.17,6605.02,360.951,0,4.051,14.616,1260.99,2710.19,2679.91,2696.36,2707.42,2700.98,2723.24,2725.42,2726.46,2731.09,2739.03,2748.85,2747.12,2742.06,2749.15,2739.4,2741.04,2766.43,2911.49,730.727,14.262,14.84,4144.7,5757.19,6399.26,6863.15,7107.79,7145.66,7143.18,7135.82,7122.91,7125.75,7111.05,7073.02,7033.88,6989.88,6940.98,6900.51,6868.11,6826.57,6780.8,6727.89,6677.11,6639.88,6596.2,6558.75,6529.21,6494.34,6468.78,6449.89,6452.51,6462.35,6475.36,6498.03,6524.06,6553.89,6598.18,6634.35,6670.73,6700.98,6725.99,6749.7,6767.5,6770.85,6759.5,6737.96,6716.78,6694.17,6672.3,6656.83,6633.27,6613.98,6602.94,6602.96,6616.77,6637.64,6664.31,6686.71,6699.44,6717.9,6731.92,6743.44,6744.42,6737.08,6710.43,6678.62,6641.42,6597.77,6553.91,6498.98,6435.58,6381.63,6333.18,6299.37,6253.53,6205.81,6169.71,6137.52
