2729.41,2779.39,2836.22,2904.05,2960.78,2968.35,2968.69,2968.78,2968.8,2962.83,2962.9,2824.95,2615.02,2957.07,2956.97,2920.63,2829.65,2860.6,2810.97,2776.02,2580.93,2416.7,2452.06,2541.47,2507.97,2474.07,2448.29,2433.64,2417.18,2403.85,2384.65,2372.29,2325.93,2267.28,2182.18,171.598,2080.37,2034.31,1983.49,1941.76,1919.24,1911.29,1904.71,1899.22,1896.38,1905.6,1911.22,1912.95,1914.59,1916.42,1918.06,1919.5,1920.81,1922.58,1914.97,1919.77,1920.11,1921.3,1927.38,1925.45,1928.27,1930.9,1934.3,1938.02,1942.01,1946.22,1942.15,1954.71,1958.39,1962.18,1965.7,1967.58,1963.85,1963.63,1962.74,1960.99,1954.36,1951.61,1948.57,1946.13,1944.18,1943.38,1942.57,1941.87,1941.75,1941.24,1942.22,1943.51,1943.16,1942.69,1942.26,1941.77,1941.61,1941.8,1942.35,1941.7,1940.74,1940.26,1938.95,1936.73,1938.06,1938.82,1929.99,1921.76,1927.04,1923.31,1925.06,1922.56,1915.42,1918.52,1902.61,1902.02,1901.31,1901.99,1904.59,1908.01,1912.4,1917.79,1924.06,1929.93,1935.58,1940.84,1944.7,1947.88,1949.7,1950.98,1951.61,1951.3,1950.35,1949.15,1947.66,1945.51,1942.71,1939.5,1936.06,1932.32,1929.15,1924.97,1920.73,1916.26,1911.94,1908.11,1905.2,1902.92,1901.25,1899.81,1901.13,1905.15,1910.05,1915.37,1921.88,1927.03,1932.47,1937.95,1943.74,1947.7,1950.41,1952.39,1954.11,1955.74,1957.47,1958.38,1958.08,1957.84,1962.4,1961.84,1961.48,1961.04,1960.58,1965.16,1964.55,1964.8,1965.07,1955.05,1954.69,1953.49,1951.39,1949.38,1947.18,1945.03,1942.84,1941.09,1939.89,1938.71,1938.28,1938.35,1938.21,1939.4,1940.73,1943.02,1946.31,1949.68,1952.43,1954.95,1958.3,1962.45,1965.89,1968.16,1969.53,1969.68,1969.42,1969.67,1970.11,1969.57,1967.76,1965.81,1964.83,1963.69,1962.43,1960.57,1957.82,1955.74,1953.6,1951.09,1948.44,1946.1,1943.88,1941.77,1940.97,1941.26,1941.16,1941.54,1943.27,1945.98,1949.01,1952.5,1956.01,1959.46,1963.09,1966.6,1969.61,1972.27,1973.81,1974.39,1973.81,1972.59,1970.4,1967.87,1964.47,1960.04,1955.59,1951.4,1947.49,1944.38,1941.29,1938.71,1935.41,1932.75,1930.73,1929.42,1927.85,1927.22,1927.1,1927.51,1928.26,1930.32,1932.56,1935.3,1937.18,1939.3,1940.84,1941.79,1942.36,1942.62,1942.69,1942.81,1942.67,1942.4,1941.88,1940.75,1938.65,1936.18,1932.64,1928.88,1924.52,1920.14,1916.04,1911.91,1908.75,1906.68,1905.39,1904.56,1904.64,1904.99,1906.1,1907.23,1908.29,1909.12,1909.7,1910.37,1911.16,1912.23,1913.33,1914.32,1914.42,1914.95,1916.43,1917.77,1918.89,1919.63,1920.27,1921.58,1922.74,1924.94,1927.58,1929.03,1930.18,1931.48,1932.78,1933.23,1932.88,1931.46,1929.54,1927.53,1925.81,1923.97,1922,1919.5,1917.47,1915.06,1913.23,1911.43,1909.76,1907.26,1905.22,1903.27,1901.64,1900.33,1898.81,1896.97,1895.78,1895.68,1896.4,1897.59,1899.26,1901.23,1903.06,1905.21,1908.1,1910.58,1912.46,1914.55,1916.02,1916.83,1918.13,1919.2,1920.31,1920.96,1920.76,1920.48,1920.34,1920.16,1920.64,1920.58,1920.67,1920.46,1919.94,1919.2,1919.12,1918.98,1918.11,1916.99,1916.44,1915.73,1915.5,1915.9,1917.04,1917.64,1918.06,1918.83,1919.42,1919.78,1919.94,1920.15,1919.64,1919.14,1918.43,1916.79,1915.46,1914.23,1912.46,1910.16,1907.23,1905.14,1902.13,1899.44,1897.59,1895.94,1894.52,1893.68
2795.32,2857.44,2927.37,2967.24,2968.55,2968.76,2956.83,2950.88,2950.92,2968.97,2945.02,2891.04,2969.1,2969.14,2969.17,2962.84,2950.08,2948.27,2879.1,2771.29,2529.99,2646.72,2571.93,2538.68,2492.3,2457.17,2429.45,2413.64,2397.06,2384.96,2367.78,2347.01,2319.01,2267.49,2196.51,1919.02,1629.92,2004.17,1997.46,1957.59,1928.52,1920.21,1913.82,1908.2,1905.01,1914.18,1919.68,1921,1922.34,1923.48,1924.03,1924.32,1924.77,1925.75,1926.07,1925.91,1925.69,1922.02,1923.49,1925.89,1928.77,1931.44,1935.02,1939.59,1943.94,1949.16,1945.78,1955.07,1959.48,1968.17,1972.3,1970.33,1971.11,1971.33,1970.43,1968.23,1961.41,1958.11,1954.56,1951.72,1949.06,1947.87,1946.68,1945.36,1944.56,1943.75,1944.48,1945.16,1944.51,1943.79,1943.07,1942.33,1942.14,1942.57,1943.05,1942.4,1941.32,1940.72,1938.88,1936.56,1937.7,1938.29,1929.23,1924.97,1925.25,1921.51,1918.29,1915.29,1912.89,1906.37,1900.06,1899.28,1898.64,1899.65,1902.31,1906.19,1910.73,1916.78,1923.41,1929.61,1935.91,1941.33,1945.54,1948.75,1951.1,1952.59,1952.98,1952.71,1951.81,1950.38,1949.21,1946.86,1943.68,1940.66,1937.36,1933.11,1929.73,1925.81,1921,1916.25,1911.63,1907.46,1903.95,1901.03,1898.91,1897.38,1898.23,1901.62,1905.96,1911.43,1917.9,1923.45,1929.09,1935.25,1941.43,1946.08,1949.28,1951.83,1954.26,1956.33,1958.71,1960.01,1960.13,1960.14,1959.89,1964.61,1964.24,1963.92,1963.55,1963.15,1968.01,1968.4,1968.53,1958.1,1958,1956.74,1955.09,1953.64,1952.13,1950.27,1948.16,1946.38,1945.05,1944.04,1943.26,1942.78,1942.06,1942.61,1943.53,1945.03,1947.67,1950.43,1952.36,1954.48,1957.51,1961.5,1964.44,1966.22,1967.58,1967.74,1967.52,1967.55,1968.01,1967.19,1965.11,1962.48,1960.92,1959.2,1957.47,1955.3,1952.41,1949.93,1947.24,1944.98,1942.46,1940.46,1938.58,1937.14,1936.82,1937.5,1938.3,1939.13,1941.29,1944.53,1947.87,1951.62,1954.86,1958.31,1961.45,1964.6,1967.5,1969.92,1971.12,1971.52,1970.52,1969.73,1967.63,1964.78,1961.13,1956.42,1951.58,1946.87,1942.79,1939.04,1936.03,1933.12,1929.33,1926.38,1924.63,1923.92,1922.47,1922.03,1921.98,1922.82,1924.07,1926.65,1929.73,1932.7,1934.91,1937.48,1939.22,1940.48,1941.18,1941.41,1941.57,1941.6,1941.39,1941.21,1940.68,1939.46,1937.34,1934.43,1930.93,1926.52,1921.86,1917.1,1912.55,1907.76,1904.18,1901.76,1900.34,1899.66,1899.91,1900.31,1901.61,1903.12,1904.08,1905.15,1905.82,1906.41,1907.39,1908.53,1909.89,1911.11,1911.34,1911.8,1913.11,1914.49,1915.62,1916.32,1916.88,1918.24,1919.45,1921.72,1924.55,1926.15,1927.55,1928.87,1930.31,1930.84,1930.48,1929.22,1927.52,1925.4,1923.61,1921.94,1919.66,1917.33,1915.24,1912.58,1910.71,1909.06,1907.07,1904.73,1902.76,1901.45,1899.86,1898.83,1897.8,1896.18,1895.61,1895.72,1896.64,1897.7,1899.58,1901.37,1902.94,1905.02,1907.95,1910.26,1911.79,1913.75,1915.2,1915.96,1917.16,1918.16,1919.13,1919.46,1919.43,1919.33,1919.26,1919.16,1919.79,1920.28,1920.61,1920.68,1920.75,1920.37,1920.57,1920.49,1919.85,1919.08,1918.65,1918.14,1917.95,1917.98,1918.81,1918.97,1919.1,1919.35,1919.61,1919.59,1919.39,1918.87,1918.2,1917.48,1916.41,1914.83,1913.33,1911.98,1910.22,1907.9,1905.67,1903.39,1900.42,1898.12,1896.05,1894.48,1893.02,1892.39
2876.93,2944.42,2968.53,2969.05,2969.17,2951.17,2951.22,2951.2,2969.22,2783.14,2909.2,2969.2,2969.25,2969.25,2969.3,2963.12,2968.32,2938.26,2867.55,2504.22,2020.34,2514.92,2434.53,2455.43,2465.66,2441.46,2408.13,2395.66,2377.46,2366.21,2350.71,2336.77,2311.44,2267.16,2215.38,2154.57,22.192,710.014,2014.11,1968.37,1939.1,1927.22,1920.84,1919.42,1921.38,1930.42,1930.79,1931.7,1932.53,1933.02,1932.41,1931.57,1931.41,1931.27,1930.44,1929.5,1928.6,1923.98,1925.1,1927.34,1929.84,1932.68,1936.33,1940.86,1945.57,1947.18,1953.07,1958.49,1963.58,1968.59,1972.82,1975.31,1976.42,1972.49,1971.18,1968.9,1965.98,1962.31,1958.52,1955.29,1952.44,1950.33,1948.64,1946.8,1945.44,1944.42,1944.62,1944.82,1943.77,1942.84,1942.02,1941.32,1940.92,1940.9,1941.13,1940.44,1939.16,1938.37,1936.39,1934.08,1935.08,1935.59,1931.01,1926.7,1922.2,1918.53,1915.18,1912.13,1905.23,1903.02,1896.42,1896.19,1895.93,1897.09,1900.16,1904.1,1908.97,1915.78,1922.7,1929.44,1936.07,1941.67,1946.32,1949.75,1952.37,1953.9,1954.4,1953.94,1953.13,1951.78,1950.42,1948.27,1945.3,1942.04,1938.47,1934.38,1931.16,1926.88,1922.27,1917.08,1912.42,1907.57,1903.99,1900.55,1898.19,1895.83,1896.22,1899.16,1903.19,1908.64,1914.77,1920.5,1926.19,1932.58,1939.13,1944.31,1948.14,1951.54,1954.66,1956.97,1959.57,1961.48,1961.58,1962.04,1961.93,1961.51,1966.54,1966.31,1965.89,1965.63,1965.47,1971.49,1966.06,1966.35,1960.99,1960.31,1959.34,1958.56,1957.17,1955.76,1954.03,1952.57,1951.11,1949.72,1948.61,1947.48,1946.2,1945.77,1945.84,1946.75,1948.24,1950.25,1951.73,1953.27,1955.47,1958.76,1961.34,1963.2,1964.45,1964.72,1964,1964.26,1964.26,1963.19,1961.59,1958.52,1956.45,1954.38,1952.42,1950.03,1946.91,1944.22,1942.05,1939.63,1937.53,1935.8,1934.31,1933.41,1933.31,1934.92,1936.54,1937.76,1940.37,1943.69,1947.36,1950.91,1953.93,1957.1,1959.59,1962.14,1964.51,1966.65,1967.83,1967.99,1967.1,1965.93,1963.94,1961.36,1957.62,1952.91,1947.82,1943.13,1938.79,1935.07,1931.71,1928.27,1924.48,1921.41,1919.51,1918.7,1917.67,1917.26,1917.53,1918.58,1920.34,1923.41,1926.7,1930.06,1932.64,1935.53,1937.27,1938.57,1939.21,1939.61,1939.67,1939.66,1939.44,1939.25,1938.57,1937.52,1935.37,1932.23,1928.54,1924.01,1918.95,1914.07,1909.03,1904.01,1899.95,1897.23,1895.83,1894.85,1895.25,1895.88,1897.12,1898.73,1900.53,1901.57,1902.21,1902.9,1904.13,1905.62,1906.9,1908.37,1908.33,1908.75,1910.15,1911.59,1912.47,1912.97,1913.42,1914.4,1915.97,1918.6,1921.29,1923.16,1924.54,1926.11,1927.7,1928.56,1928.45,1927.11,1925.6,1923.37,1921.84,1920.12,1917.7,1915.22,1912.93,1910.34,1908.64,1906.67,1904.76,1902.42,1900.7,1899.43,1898.57,1897.81,1897.34,1896.44,1896.24,1897.07,1897.92,1899.48,1901.19,1902.83,1904.17,1906.19,1908.76,1910.85,1912.15,1913.77,1915.03,1915.66,1916.58,1917.45,1918.22,1918.77,1918.35,1918.2,1918.4,1918.44,1919.19,1919.65,1920.11,1920.43,1920.75,1920.8,1921.66,1922.16,1921.65,1920.96,1920.5,1920.19,1920.18,1920.09,1920.31,1919.99,1919.5,1919.32,1919.05,1918.8,1918.05,1916.95,1916,1915.04,1913.58,1911.97,1910.5,1909.16,1907.5,1905.26,1903.13,1901.06,1898.45,1896.21,1894.22,1892.91,1891.62,1890.75
2951.56,2969.09,2969.54,2969.65,2957.7,2945.73,2951.76,2969.7,2711.65,2807.62,2969.56,2969.46,2969.46,2969.43,2969.43,2945.4,2626.76,1957.52,2230.07,2398.24,2619.5,2612.43,2482.84,2505.93,2457.35,2429.3,2399.81,2381.59,2363.15,2352.48,2335.19,2333.72,2311.48,2275.56,2229.36,2172.51,122.112,1986,2033.35,1990.39,1953.09,1951.32,1938.36,1932.76,1934.84,1938.1,1937.71,1933.21,1942.92,1942.96,1932.01,1930.52,1929.24,1932.52,1926.69,1933.4,1927.47,1926.69,1922.93,1924.49,1922.57,1925.03,1928.86,1933.37,1938.3,1944.11,1950.62,1956.08,1961,1965.74,1970.17,1972.15,1973.38,1973.16,1971.85,1969.08,1965.84,1962.06,1958.47,1955.06,1952.04,1950.05,1947.97,1945.92,1944.61,1943.11,1943.06,1943.08,1941.88,1941.04,1940.16,1939.51,1939.09,1938.58,1938.61,1938.14,1936.67,1936.07,1934.03,1931.26,1928.45,1933.54,1929.06,1915.63,1911.28,1912.08,1913.32,1906.02,1898.93,1896.38,1894.49,1893.95,1894.11,1895.78,1899.4,1903.76,1908.79,1915.63,1922.86,1929.89,1936.88,1942.57,1947.01,1950.31,1952.95,1954.84,1955.07,1954.86,1954.03,1952.94,1951.48,1949.34,1946.23,1943.17,1939.75,1935.81,1932.47,1928.18,1923.9,1918.87,1914.19,1909.6,1905.5,1901.92,1899.17,1897.01,1896.65,1899.11,1902.58,1907.47,1913.35,1918.95,1924.79,1930.84,1937.38,1943.13,1946.98,1950.83,1953.98,1956.88,1959.16,1961.29,1961.68,1967.77,1967.38,1967.29,1966.84,1966.4,1966.05,1966.19,1966.11,1966.73,1967.36,1962.56,1962.74,1962.87,1962.66,1962.4,1961.79,1960.94,1959.61,1958.23,1956.66,1955.46,1953.64,1952.04,1949.69,1948.08,1946.87,1946.73,1947.3,1948.29,1948.85,1949.74,1951.14,1953.9,1956.29,1958.15,1958.91,1959.48,1959.21,1959.5,1959.66,1959.12,1956.79,1953.83,1951.32,1949.45,1947.13,1944.76,1941.72,1939.35,1936.96,1934.84,1932.74,1931.48,1930.44,1929.97,1930.46,1932.4,1934.15,1935.93,1938.7,1942.43,1945.79,1948.97,1951.82,1954.42,1956.26,1958.19,1960.45,1962.15,1963.34,1963.59,1962.75,1961.78,1960.19,1957.87,1954.28,1949.93,1945.41,1941.07,1936.92,1933.07,1929.35,1925.69,1921.38,1918.11,1915.98,1915.13,1913.68,1913.38,1913.83,1915.04,1917.16,1920.14,1924.05,1927.06,1929.67,1932.5,1934.68,1935.93,1936.67,1936.86,1936.91,1936.74,1936.45,1936.19,1935.6,1934.31,1932.31,1929.09,1925.5,1921.19,1916.04,1910.71,1905.51,1900.49,1896.01,1893.21,1891.7,1890.72,1890.81,1891.61,1893.26,1895.51,1897.05,1898.57,1899.32,1900.33,1901.8,1903.27,1904.91,1906.52,1906.87,1907.02,1908.69,1910.17,1911.04,1911.54,1912.07,1913.4,1914.56,1917.01,1920.09,1921.7,1923.26,1924.49,1926.04,1926.89,1926.95,1925.78,1924.25,1922.21,1920.54,1918.76,1915.99,1913.48,1911.23,1908.6,1906.7,1904.93,1902.72,1900.76,1899.5,1898.67,1897.82,1897.54,1897.56,1897.01,1897.69,1898.97,1900.55,1901.8,1903.5,1905.14,1906.43,1908.18,1910.63,1912.35,1913.28,1914.52,1915.65,1916.21,1916.93,1917.56,1917.99,1918.06,1917.75,1917.43,1917.42,1917.59,1918.22,1918.79,1919.31,1919.82,1920.3,1920.55,1921.45,1922.44,1922.58,1922.14,1922.16,1921.85,1921.86,1921.54,1921.55,1920.89,1919.91,1919.14,1918.61,1917.8,1916.51,1914.9,1913.56,1912.43,1911.04,1909.33,1907.32,1905.89,1904.46,1902.6,1900.8,1898.94,1896.81,1894.55,1892.6,1891.42,1890.55,1889.94
2969.5,2969.76,2969.89,2958,2910,2886,3000,2958,2952,2783.98,1913.87,2441.78,2165.81,1907.59,773.592,149.81,83.254,88.836,154.708,238.478,941.284,546.13,710.68,692.294,1017.99,1594.89,2144.23,2348.48,2318.07,2301.8,2292.04,2317.21,2312.04,2298.03,2256.19,2183.85,384.648,1251.4,2057.64,2013.82,1958.25,1949.17,1941.25,1935.73,1943.04,1949.34,1947.97,1951.62,1949.66,1938.55,1936.19,1933.71,1936.09,1933.91,1931.54,1928.93,1930.58,1924.96,1924.45,1925.95,1923.4,1925.79,1929.21,1933.63,1938.4,1944.22,1950.36,1955.68,1960.42,1964.62,1968.36,1970.08,1970.74,1970.23,1968.27,1965.68,1962.3,1958.73,1955.1,1952.14,1945.35,1943.31,1937.41,1939.77,1938.02,1940.41,1939.84,1939.86,1938.49,1937.47,1936.88,1936.19,1935.74,1935.55,1935.42,1935.28,1933.71,1932.78,1931.13,1928.77,1925.51,1921.98,1922.43,1918.79,1909.78,1906.32,1903.11,1900.46,1897.9,1895.48,1893.72,1892.96,1893.7,1895.77,1899.6,1904.33,1909.49,1916.39,1923.74,1930.77,1937.76,1943.23,1947.77,1950.92,1953.14,1954.92,1955.54,1955.22,1954.58,1953.41,1951.92,1949.99,1947,1944.26,1940.67,1937.14,1933.78,1930.29,1926.08,1921.68,1917.13,1912.94,1909,1905.21,1902.22,1900.15,1899.57,1901.22,1904.28,1908.7,1914.12,1919.41,1924.65,1930.76,1936.71,1942.08,1946.28,1949.9,1953.01,1956.1,1958.23,1960.13,1960.7,1960.86,1960.56,1966.1,1965.77,1965.24,1964.9,1965.28,1965.61,1966.44,1967.37,1962.81,1963.48,1964.12,1964.39,1964.87,1964.92,1964.17,1963.15,1961.84,1960.28,1958.47,1956.42,1954.32,1951.23,1948.84,1946.9,1945.69,1945.28,1945.23,1944.94,1944.81,1945.58,1947.32,1949.49,1951.06,1952.26,1952.81,1952.69,1953.02,1953.6,1953.27,1951.34,1948.41,1946.12,1944.39,1942.09,1940.1,1937.4,1935.38,1933.27,1931.28,1929.34,1928.39,1927.49,1927.05,1927.81,1929.92,1931.99,1933.68,1936.47,1939.74,1942.81,1945.96,1948.23,1950.29,1951.69,1953.29,1955.1,1956.74,1957.95,1958.26,1957.85,1957.34,1956.29,1954.18,1951.59,1947.44,1943.14,1939.34,1935.43,1931.78,1928.26,1923.99,1919.81,1916.05,1914.14,1913.03,1911.54,1911.21,1911.7,1913.02,1915.3,1918.62,1922.5,1925.6,1927.74,1930.53,1932.53,1933.6,1934.15,1934.16,1934.02,1933.96,1933.31,1932.92,1932.28,1931.06,1928.86,1925.93,1922.54,1918.29,1913.18,1908.13,1902.88,1897.81,1893.54,1890.34,1888.87,1888.09,1888.25,1889.55,1891.38,1893.85,1895.93,1897.4,1898.57,1899.85,1901.25,1902.93,1905.01,1906.53,1906.95,1907.15,1908.77,1910.35,1911.2,1911.75,1912.08,1913.24,1914.69,1916.75,1919.62,1921.23,1922.57,1923.69,1924.86,1925.65,1925.54,1924.27,1923.04,1920.97,1919.09,1916.92,1914.33,1911.78,1909.32,1906.63,1904.7,1902.85,1900.82,1899.04,1897.89,1897.47,1897.46,1897.59,1898.23,1898.48,1899.56,1901.65,1903.27,1904.84,1906.52,1908.34,1909.7,1911.25,1913.46,1915.05,1915.72,1916.69,1917.64,1918.13,1918.24,1918.44,1918.65,1918.31,1917.83,1917.21,1917.2,1917.24,1917.83,1918.25,1918.85,1919.37,1919.98,1920.55,1921.74,1923.16,1923.67,1923.63,1923.96,1923.69,1923.65,1923.23,1922.73,1921.57,1920.17,1918.83,1917.69,1916.57,1915.09,1912.7,1911.24,1910.17,1908.45,1906.38,1904.61,1903.49,1902.19,1900.55,1898.96,1897.4,1895.41,1893.58,1891.82,1891.01,1890.3,1889.7
2969.84,2969.95,2952,2940,2958,3000,3000,3000,2964,282,282,168,59.9,59.844,59.756,47.702,41.582,59.078,52.484,50.78,72.03,59.416,89.108,138.142,583.232,567.424,1274.13,1743.28,2206.2,2099.36,2261.69,2308.45,2267.4,2328.22,2291.3,2245.71,1170.09,1343.05,2071.72,2046.56,1971.76,1961.16,1944.58,1951.02,1962.89,1959.32,1961.18,1971.85,1963.22,1955.24,1945.54,1947.79,1948.99,1947.43,1937.82,1934.45,1931.13,1928.91,1928.2,1922.84,1930.12,1932.01,1934.93,1938.91,1943.3,1942.49,1954.08,1952.75,1962.76,1966.39,1968.9,1970.04,1970.01,1968.99,1966.75,1963.66,1954.62,1957.46,1954.48,1947.87,1945.38,1939.73,1938.2,1936.98,1933.58,1932.14,1935.47,1937.06,1940.16,1939.44,1938.86,1938.41,1934.05,1934.14,1934.21,1933.72,1936.62,1935.48,1933.68,1931.46,1928.73,1925.8,1922.31,1918.73,1914.67,1911.63,1908.74,1906.09,1903.83,1901.45,1899.89,1899.41,1900.46,1903.12,1907.03,1912.04,1917.64,1924.28,1931.08,1938.11,1944.39,1943.64,1947.68,1950.62,1952.57,1954.12,1954.71,1954.36,1954.05,1952.97,1951.58,1949.61,1947.07,1944.36,1941.55,1938.29,1935.61,1932.49,1928.84,1925.16,1921.04,1917.24,1913.88,1910.27,1907.57,1905.46,1904.61,1905.88,1908.46,1912.48,1916.94,1921.65,1926.59,1932.08,1937.34,1942.37,1946.19,1949.51,1952.59,1955.12,1957.26,1959.14,1959.34,1959.46,1959.21,1959.07,1958.71,1964.5,1970.21,1970.62,1971.08,1972.17,1973.45,1968.9,1970.09,1971.2,1971.99,1973.01,1973.03,1972.59,1971.94,1970.97,1969.29,1967.18,1964.72,1962.05,1958.67,1955.44,1952.57,1950.52,1949.07,1948.02,1946.78,1946,1945.9,1946.94,1948.58,1950.35,1945.42,1946.62,1946.56,1947.11,1948.04,1947.9,1946.55,1944.08,1941.99,1940.52,1938.51,1936.92,1934.58,1932.64,1930.98,1929.28,1927.18,1926.34,1925.29,1925.01,1925.27,1926.76,1929.14,1930.58,1932.75,1935.58,1938.71,1941.17,1943.09,1944.87,1945.96,1947.24,1949.12,1950.79,1952.32,1953.04,1953.18,1953.02,1952.62,1951.47,1949.18,1945.76,1942.24,1939.08,1935.29,1931.71,1934.65,1930.54,1926.33,1922.66,1920.98,1920.09,1918.82,1918.52,1918.99,1920.42,1922.74,1925.94,1929.5,1931.94,1933.87,1935.94,1937.55,1938.39,1938.68,1938.45,1938.19,1937.51,1930.9,1930.25,1929.32,1927.96,1925.93,1922.88,1919.51,1915.39,1910.33,1905.15,1899.85,1894.99,1890.96,1888.14,1886.65,1886.01,1886.22,1887.5,1889.72,1892.54,1894.84,1896.85,1898.26,1899.88,1901.72,1904,1905.95,1907.84,1908.44,1908.62,1910.29,1911.83,1912.95,1913.26,1913.55,1914.61,1915.47,1917.56,1920,1921.25,1922.51,1923.55,1924.62,1924.94,1924.44,1923.35,1921.8,1919.61,1917.64,1915.55,1912.63,1909.62,1907.12,1904.54,1902.65,1900.51,1898.49,1896.92,1895.95,1895.87,1896.41,1897.05,1898.35,1899.01,1900.82,1903.24,1905.36,1907.03,1908.8,1910.6,1912.05,1913.74,1915.76,1917.11,1917.55,1918.35,1919.18,1919.47,1919.47,1919.55,1919.21,1918.93,1918.37,1917.78,1917.58,1917.85,1918.29,1918.85,1919.34,1920.05,1920.69,1921.24,1922.81,1924.06,1924.84,1924.9,1925.05,1925,1924.97,1924.01,1923.11,1921.38,1919.54,1917.81,1916.08,1914.57,1912.4,1909.98,1908.5,1907.1,1905.31,1903.57,1902,1900.85,1899.74,1898.55,1897.54,1896.27,1894.69,1893.37,1891.96,1891.24,1891.07,1890.55
3000,2952,2946,3000,3000,3000,3000,3000,2964,1428,966,294,60,59.95,59.872,59.784,41.608,53.16,63.59,66.958,103.456,116.178,166.27,228.394,550.738,555.136,814.9,1115.72,1175.01,1264.68,2035.36,2368.51,2368.89,2358.16,2326.65,2260.63,616.806,1351.68,1784.8,2049.06,1966.1,1964.25,1934.03,1947.97,1967.12,1967.71,1973.01,1966.81,1967.25,1962.39,1957.43,1952.74,1954.9,1950.91,1947.02,1943.27,1939.67,1937.01,1935.88,1936.37,1931.59,1939.11,1941.46,1945.14,1948.81,1953.66,1946.17,1950.23,1959.16,1967.37,1969.16,1969.72,1968.55,1966.65,1963.95,1960.71,1957.65,1954.84,1951.96,1950,1944.38,1939.31,1938.42,1935.73,1936.69,1933.4,1923.04,1930.54,1930.08,1931.87,1931.31,1937.28,1937.18,1937.08,1937.13,1936.79,1935.66,1938.5,1936.81,1934.85,1932.54,1929.69,1926.64,1923.47,1919.68,1917.03,1914.34,1912.26,1910.02,1908,1906.44,1900.36,1901.41,1904.51,1908.67,1913.74,1919,1924.95,1931.26,1937.84,1943.57,1941.95,1945.39,1947.79,1949.57,1950.98,1951.52,1951.45,1951.27,1950.41,1949.42,1947.88,1945.64,1943.75,1941.46,1938.8,1936.82,1934.48,1931.66,1928.66,1925.66,1922.35,1919.44,1916.45,1914,1912.35,1911.52,1912.48,1914.67,1918.04,1921.8,1925.93,1930.04,1934.95,1939.08,1943.48,1946.73,1949.64,1952.38,1954.88,1956.02,1958.05,1958.39,1958.63,1958.27,1958.21,1957.99,1957.84,1964.02,1964.7,1965.58,1972.91,1974.75,1976.33,1977.68,1979.31,1980.68,1981.75,1982.19,1982.25,1981.74,1980.8,1979.24,1976.83,1973.81,1970.58,1966.88,1963.2,1959.62,1956.81,1954.18,1952.38,1950.29,1948.49,1947.8,1942.42,1943.17,1944.66,1939.81,1940.99,1941.18,1942,1943.17,1943.49,1942.42,1940.51,1938.94,1937.35,1935.85,1934.47,1932.74,1931.06,1929.22,1927.55,1925.71,1924.62,1923.57,1922.8,1922.6,1923.81,1925.28,1926.39,1927.97,1930.66,1933.13,1935.3,1937.05,1938.73,1939.85,1941.5,1943.71,1945.58,1947.29,1948.51,1949.04,1949.54,1950.09,1949.37,1947.63,1944.92,1942,1939.34,1936.12,1933.14,1936.26,1932.74,1929.14,1932.05,1930.6,1929.82,1928.66,1928.36,1928.78,1929.9,1931.67,1934.18,1937.09,1939.15,1940.2,1941.94,1943.13,1943.3,1943.38,1936.78,1936.21,1935.71,1928.69,1927.6,1926.53,1924.82,1922.86,1919.85,1916.71,1912.59,1907.86,1902.89,1898.18,1893.92,1890.39,1888.03,1886.75,1886.23,1886.9,1888.5,1890.98,1894.22,1896.76,1898.32,1900.09,1901.87,1903.84,1906.3,1908.22,1910.26,1910.83,1911.36,1912.92,1914.3,1915.17,1915.58,1915.61,1916.2,1916.96,1918.58,1920.73,1921.59,1922.51,1923.3,1923.92,1924.34,1923.64,1922.06,1920.53,1918.37,1916.29,1914.19,1910.91,1908.14,1905.66,1903.04,1901.37,1899.64,1897.81,1896.26,1895.77,1896.06,1896.83,1897.95,1899.79,1901,1903.12,1906.18,1908.6,1910.17,1912.2,1913.7,1914.84,1916.41,1918.27,1919.31,1919.62,1920.31,1920.68,1920.64,1920.47,1920.25,1919.94,1919.43,1918.87,1918.29,1918.1,1918.48,1919.14,1919.62,1920.25,1921,1921.57,1922.5,1924.05,1925.36,1926.08,1926.42,1926.79,1926.57,1926.24,1924.93,1923.17,1921.2,1918.82,1916.76,1914.62,1912.8,1910.4,1907.69,1906.18,1904.8,1903.29,1901.51,1900.05,1899.11,1898.22,1897.49,1897.07,1896.59,1895.37,1894.23,1893.23,1892.99,1893.06,1892.81
3000,2952,2952,3000,3000,3000,3000,3000,3000,1968,2927.71,2870.63,1998.02,700.938,180.064,300.864,46.256,91.038,306.006,546.342,960.566,784.354,1177.19,1917.04,2044.57,2309.99,2289.91,2073.88,2122.51,2202.38,2322.19,2293.49,2286.23,2367.83,2326.72,2190.75,324.502,1092.27,1658.14,1967.51,1971.91,1960.12,1916.81,1940.61,1922.37,1966.73,1980.1,1979.26,1971.85,1962.22,1960.97,1955.59,1951.5,1948.95,1949.06,1941.06,1941.51,1938.5,1933.14,1937.77,1938.66,1940.24,1942.16,1939.47,1936.72,1940.47,1950.43,1947,1948.84,1961.99,1962.39,1962.1,1960.4,1957.59,1954.63,1951.52,1948.13,1945.69,1943.51,1941.52,1940.62,1926.24,1933.88,1933.91,1929.67,1931.04,1929.08,1927.39,1927.61,1923.53,1935.44,1935.61,1935.6,1935.82,1936.05,1935.4,1934.22,1937,1935.6,1933.89,1931.94,1929.61,1927.01,1923.96,1920.89,1918.47,1916.09,1914.01,1912.02,1910.3,1909.08,1909.04,1904.7,1908,1911.79,1916.29,1921.03,1926.24,1931.97,1937.75,1942.35,1946.01,1942.53,1944.6,1945.65,1946.95,1947.14,1946.89,1946.54,1946.01,1945.33,1944.22,1942.77,1941.18,1939.39,1937.92,1936.75,1935.68,1933.73,1931.76,1929.26,1927.11,1924.74,1922.29,1920.31,1919.08,1918.36,1919.18,1920.95,1923.67,1926.6,1929.92,1933.58,1937.4,1940.81,1944.49,1946.97,1949.76,1952.2,1954.31,1955.68,1957.17,1957.36,1957.6,1957.71,1957.57,1957.28,1957.4,1963.96,1965.13,1966.23,1973.82,1975.44,1977.31,1979.06,1980.94,1982.35,1984.06,1984.61,1984.67,1984.43,1983.6,1981.6,1978.93,1976.02,1972.2,1968.23,1964.21,1960.23,1956.92,1953.63,1951.18,1948.6,1946.61,1945.49,1939.16,1939.53,1940.76,1935.93,1937.25,1937.78,1938.99,1940.38,1940.85,1940.33,1938.92,1937.55,1936.34,1934.98,1933.85,1932.27,1930.86,1929,1927.4,1925.45,1924.04,1922.6,1921.3,1920.29,1920.59,1921.49,1922.21,1923.63,1925.88,1928.09,1930.16,1932.31,1934.24,1935.52,1937.81,1940.22,1942.36,1944.52,1946.07,1947.09,1948.01,1948.99,1948.91,1947.84,1945.5,1943.31,1941.02,1938.43,1935.89,1939.31,1936.23,1933.21,1936.37,1935.03,1934.49,1933.34,1932.96,1933.22,1933.83,1935.38,1936.87,1939.12,1940.41,1940.93,1942.02,1942.72,1942.25,1941.97,1935.27,1934.7,1933.81,1926.59,1925.5,1924.04,1922.34,1920.5,1917.38,1914.25,1910.4,1905.97,1901.43,1897.03,1893.31,1890.29,1888.29,1887.66,1887.42,1888.05,1889.9,1892.67,1896.07,1898.92,1900.85,1902.67,1904.46,1906.48,1909.22,1911.45,1913.55,1914.21,1914.87,1916.79,1918.55,1919.42,1919.85,1919.79,1920.26,1920.76,1922.2,1923.59,1924.23,1924.72,1925.22,1925.21,1925.3,1924.49,1922.76,1921.02,1918.65,1916.53,1914.15,1910.74,1907.75,1905.18,1902.65,1901.08,1899.22,1897.49,1896.3,1896.06,1896.57,1897.73,1899.35,1901.31,1903.27,1905.77,1908.95,1911.66,1913.66,1915.37,1917.04,1918.03,1919.29,1920.79,1921.6,1921.51,1921.77,1922.13,1921.98,1921.7,1921.3,1920.7,1920.15,1919.9,1919.51,1919.29,1920,1920.66,1921.27,1921.98,1922.57,1923.38,1924.45,1925.87,1927.1,1927.82,1928.03,1928.06,1927.64,1926.76,1925.02,1923,1920.31,1917.61,1915.27,1912.95,1911.3,1908.59,1905.88,1904.29,1903.25,1901.76,1900.5,1899.27,1898.41,1897.92,1897.73,1897.75,1897.49,1896.76,1896.06,1895.23,1895.26,1895.92,1895.92
2958,3000,3000,3000,3000,3000,3000,3000,2969.7,2957.87,2921.84,2852.66,2746.81,2429.49,2244.63,2013.57,1261.35,701.094,870.146,936.862,2084.21,2070.04,1610.71,2134.42,2132.64,2094.47,2432.83,2412.89,2380.6,2388.13,2364.75,2161.72,2407.49,2388.96,2365.03,2320.66,715.128,960.742,1475.15,1918.43,1882.88,1923.7,1958.32,1949.38,1947.18,1946.51,1987.01,1986.01,1978.38,1968.64,1967.16,1961.81,1962.36,1953.42,1949.17,1945.42,1941.97,1938.72,1933.72,1937.95,1938.66,1939.9,1941.55,1944.02,1946.5,1949.45,1952.41,1954.22,1955.21,1949.36,1948.78,1953.7,1951.36,1948.28,1945.21,1942.04,1939.09,1937.05,1935.22,1933.85,1933.38,1929.32,1933.73,1934.68,1930.74,1931.42,1922.12,1924.93,1931.92,1926.52,1932.74,1939.13,1939.15,1939.29,1939.21,1938.94,1937.89,1936.6,1935.26,1934.09,1932.46,1930.8,1928.64,1926.51,1923.76,1921.71,1919.95,1918.17,1916.53,1915.37,1914.31,1914.42,1916.09,1918.94,1916.37,1920.52,1924.44,1929.01,1933.53,1937.85,1941.66,1944.1,1945.5,1946.4,1940.76,1941.45,1941.46,1940.71,1940.63,1940.06,1939.51,1938.93,1937.78,1937.29,1936.47,1935.58,1935.76,1935.61,1934.82,1934.03,1932.54,1931.36,1929.7,1927.71,1926.1,1925.17,1924.65,1925.2,1926.57,1928.91,1931.1,1933.55,1936.74,1939.72,1942.47,1945.33,1947.61,1949.86,1951.94,1953.83,1954.89,1956.37,1956.48,1956.8,1956.88,1956.99,1957.01,1957.28,1964.07,1965.72,1967.13,1974.69,1976.5,1978.44,1980.44,1982.63,1984.28,1985.86,1986.48,1986.73,1986.62,1985.71,1983.69,1980.56,1977.18,1972.97,1969.01,1964.99,1960.9,1957.12,1953.69,1950.69,1947.93,1946.05,1944.6,1938.06,1938.59,1939.59,1935,1936.54,1937.37,1938.88,1939.83,1940.97,1940.71,1939.81,1938.72,1937.74,1936.54,1935.54,1934.23,1932.52,1930.76,1928.96,1926.36,1925.02,1922.73,1920.91,1919.36,1919.01,1919.15,1919.19,1919.83,1921.8,1923.58,1925.69,1927.89,1929.92,1932.04,1934.49,1937.52,1939.9,1942.71,1944.57,1946.4,1947.66,1949.06,1949.52,1948.72,1947.13,1945.24,1943.45,1941.41,1938.99,1943.04,1940.35,1937.51,1941.31,1940.14,1939.55,1938.48,1937.94,1937.9,1938,1938.94,1940.4,1941.53,1941.96,1942.08,1942.33,1942.49,1941.77,1941.03,1934.11,1933.13,1931.88,1924.82,1923.52,1921.98,1920.05,1918.12,1914.96,1912.24,1908.55,1904.54,1900.58,1896.75,1893.66,1891.42,1890.11,1889.87,1889.64,1890.62,1892.52,1895.34,1898.8,1901.58,1903.75,1905.38,1907.37,1909.74,1912.4,1914.76,1916.88,1917.91,1919.05,1921.22,1923.04,1923.95,1924.61,1924.45,1924.93,1925.1,1925.91,1927.15,1927.23,1927.39,1927.35,1927.07,1926.72,1925.62,1923.9,1921.94,1919.32,1916.9,1914.36,1910.7,1907.9,1905.38,1902.74,1901.21,1899.39,1898.06,1897.17,1897.01,1898.1,1899.53,1901.55,1904.11,1906.66,1909.46,1913,1915.81,1917.62,1919.31,1920.88,1921.57,1922.56,1923.5,1923.98,1923.44,1923.15,1923.26,1922.73,1922.41,1921.86,1921.25,1920.62,1920.63,1920.47,1920.74,1921.58,1922.4,1923.01,1923.89,1924.6,1925.4,1926.38,1927.92,1928.67,1929.19,1929.17,1928.8,1927.97,1927.09,1924.77,1922.13,1919.19,1916.5,1913.93,1911.74,1910.08,1907.55,1904.75,1903.6,1902.65,1901.69,1900.67,1899.71,1899.14,1898.67,1899.31,1899.77,1899.89,1899.73,1899.27,1898.79,1899.19,1900.11,1900.26
2969.91,3000,3000,3000,3000,3000,2969.12,2937.21,2912.16,2850.43,2740.57,2676.57,2230.25,1599.28,1993.39,2343.31,1325.53,398.844,153.064,486.55,875.384,1011.11,826.506,756.274,492.028,1377.54,2360.84,2394.1,2398.66,2401.15,2404.32,2352.91,2420.06,2410.5,2368.99,2332.12,678.536,1037.86,1511.89,1963.82,1942.4,1961.8,1963.3,1991.46,1976.32,1970.91,1991.62,1990.43,1989.28,1974.53,1963.9,1958.62,1959.16,1955.04,1946.76,1943.28,1940.14,1937.67,1932.53,1936.98,1937.63,1938.85,1940.01,1942.32,1944.54,1946.7,1949.01,1949.84,1950.02,1949.47,1942.31,1940.88,1944.17,1940.97,1937.93,1935.01,1932.34,1930.74,1929.05,1928.27,1928.18,1928.72,1929.75,1931.11,1928.25,1929.29,1930.47,1936.31,1937.89,1938.8,1927.99,1934.52,1940.93,1941.17,1941.01,1940.75,1939.76,1938.8,1937.53,1936.62,1935.6,1934,1932.46,1930.65,1928.55,1926.85,1925.22,1923.89,1922.53,1921.6,1920.96,1921.01,1922.38,1924.98,1921.8,1925.19,1928.45,1931.96,1935.22,1938.6,1941.05,1942.06,1942.1,1941.9,1941.49,1935,1934.34,1933.36,1932.46,1931.59,1930.69,1930.34,1929.55,1929.52,1929.83,1930.22,1931.36,1932.22,1932.64,1933.36,1933.27,1933.32,1932.64,1931.43,1930.38,1930.09,1929.68,1930.1,1931.54,1933.36,1934.86,1936.61,1938.86,1941.13,1943.16,1945.25,1947.01,1948.7,1950.55,1952.23,1953.02,1954.11,1954.23,1954.43,1954.71,1955.13,1955.23,1955.69,1962.82,1964.38,1966.29,1974.28,1976,1978.23,1980.41,1982.84,1984.56,1986.47,1987.03,1987.12,1986.96,1985.87,1983.86,1980.36,1976.44,1972.1,1968.08,1964.18,1960.16,1956.45,1952.75,1949.85,1946.97,1945.04,1943.77,1937.24,1937.45,1938.44,1933.98,1935.42,1936.83,1938.21,1939.54,1940.89,1940.91,1940.68,1939.47,1938.95,1937.71,1936.98,1935.62,1934.13,1932.34,1930.38,1927.58,1925.47,1923.15,1920.52,1918.43,1916.95,1916.63,1916.23,1916.83,1918.29,1919.9,1922.4,1924.73,1927.12,1929.5,1932.84,1936.39,1939.61,1942.64,1945.22,1947.3,1949.04,1950.73,1951.84,1951.53,1950.18,1948.87,1947.39,1945.72,1943.83,1948.14,1945.56,1943.05,1947.02,1945.69,1944.78,1943.83,1942.81,1942.61,1942.17,1942.57,1943.05,1943.83,1943.28,1942.72,1942.25,1941.85,1940.87,1940.05,1933.03,1931.91,1930.71,1923.18,1922.04,1920.2,1918.3,1915.98,1913.14,1910.48,1907.21,1903.78,1900.06,1896.67,1894.18,1892.69,1892.07,1892.04,1892.49,1893.4,1895.48,1898.08,1901.54,1904.13,1906.42,1907.85,1910.03,1912.52,1915.16,1917.65,1919.87,1921.14,1922.7,1925.1,1927.14,1928.41,1929.22,1929.18,1929.5,1929.59,1930.4,1930.92,1930.63,1930.46,1930,1929.28,1928.78,1927.39,1925.34,1923.18,1920.46,1917.91,1915.06,1911.49,1908.29,1905.65,1902.98,1901.29,1899.55,1898.14,1897.53,1897.78,1899.04,1900.97,1903.53,1906.71,1909.49,1912.91,1916.85,1919.33,1921.38,1923.21,1924.64,1924.96,1925.83,1926.18,1926.03,1925.29,1924.87,1924.49,1923.68,1922.89,1922.53,1921.87,1921.64,1921.41,1921.87,1922.57,1923.71,1924.84,1925.94,1926.86,1927.85,1928.58,1929.34,1930.45,1930.95,1931.1,1930.61,1929.96,1928.77,1927.34,1924.97,1921.87,1919,1916.14,1913.38,1911.53,1909.64,1907.31,1904.94,1904.12,1903.53,1902.93,1902.42,1901.8,1901.27,1901.23,1901.92,1902.89,1903.09,1903.4,1903.28,1902.73,1903.26,1904.27,1904.84
2954.35,2960.11,2963.75,2964.64,2958.9,2937.29,2886.14,2822.11,2789.31,2738.48,2612.95,2139.06,2141.12,1544.71,1082.36,2270.85,1593.38,110.356,95.138,74.918,181.788,277.868,292.332,462.15,438.416,795.472,1952.26,2233.76,2325.45,2318.46,2116.17,2118.08,2177.47,2363.61,2383.12,2277.01,484.13,598.252,1066.44,1844.61,1925.9,1939.13,1962.07,1975.05,1976.11,1978.02,1983.81,1981.98,1977.33,1972.98,1972.93,1967.92,1963.94,1959.93,1952.03,1949.04,1946.28,1943.97,1943.03,1943.76,1944.39,1940.94,1937.44,1939.26,1941.03,1942.91,1944.7,1945.17,1944.65,1943.77,1930.67,1940.62,1938.18,1935.11,1932.18,1930,1927.74,1926.45,1925.38,1924.66,1924.99,1925.86,1927.5,1929.12,1930.74,1932.39,1934.45,1936.44,1933.01,1934.34,1935.67,1942.41,1937.26,1937.6,1937.69,1943.21,1942.44,1941.82,1940.92,1940.34,1939.3,1938.27,1937.02,1935.8,1933.84,1932.47,1931.15,1930.1,1928.95,1928.27,1927.74,1928.21,1929.32,1931.3,1927.86,1930.51,1932.88,1934.72,1937.05,1938.79,1939.85,1939.04,1937.87,1936.13,1934.3,1933.13,1925.63,1924.04,1922.74,1921.53,1920.77,1920.66,1920.45,1920.97,1921.97,1923.5,1925.7,1927.75,1929.6,1931.23,1932.13,1933.44,1933.74,1933.35,1932.88,1932.94,1932.87,1933.54,1934.72,1936.32,1937.21,1938.44,1939.83,1941.6,1942.52,1944.29,1945.49,1946.87,1948.41,1949.6,1950.15,1951.05,1951.17,1951.51,1951.6,1952.12,1952.38,1953.02,1960.29,1962.65,1964.77,1972.92,1975.05,1977.68,1979.86,1982.57,1984.71,1986.38,1986.78,1987.09,1986.95,1985.72,1983.23,1980.12,1976.14,1971.68,1967.98,1964.31,1960.61,1957.34,1953.57,1951.1,1948.33,1946.44,1945.44,1938.64,1938.63,1939.75,1935.27,1936.71,1938.24,1939.67,1940.98,1942.25,1942.47,1942.05,1941.2,1940.31,1939.19,1938.47,1937.16,1935.86,1934.14,1931.72,1928.54,1926.05,1923.31,1920.13,1917.3,1915.28,1914.28,1913.87,1914.08,1915.52,1917.38,1919.96,1922.66,1925.55,1928.54,1932.53,1936.63,1940.25,1943.85,1946.71,1949.38,1951.33,1953.42,1954.74,1955.06,1954.37,1953.56,1952.84,1951.47,1949.88,1954.25,1952.34,1950.14,1954.03,1952.5,1951.2,1949.74,1948.39,1947.97,1946.76,1946.4,1946.04,1945.75,1944.86,1943.72,1942.77,1941.74,1940.48,1939.71,1932.68,1931.49,1930.17,1922.98,1921.9,1919.94,1917.95,1915.73,1913.09,1910.61,1907.59,1904.49,1901.59,1898.55,1896.47,1895.43,1895.07,1895.59,1895.74,1896.67,1898.5,1901.07,1904.46,1907.04,1909.02,1910.79,1912.65,1915.05,1917.88,1920.68,1922.79,1924.12,1926.09,1928.53,1930.45,1931.87,1933.08,1933.06,1933.13,1933.08,1933.66,1933.83,1933.38,1932.72,1932.02,1931.07,1930.24,1928.55,1926.59,1924.35,1921.68,1918.68,1915.89,1912.29,1908.85,1905.83,1903.19,1900.79,1898.89,1897.6,1897.35,1897.84,1899.63,1901.78,1904.69,1908.45,1911.88,1915.73,1919.51,1922.55,1924.53,1926.13,1927.26,1927.66,1927.96,1928.1,1927.61,1926.64,1925.84,1925.26,1924.3,1923.73,1923.46,1922.92,1922.98,1923.48,1924.24,1925.66,1927.52,1928.82,1929.99,1930.9,1931.75,1932.56,1932.95,1933.54,1933.69,1933.01,1932.17,1931.1,1929.46,1927.68,1925.03,1921.67,1918.6,1915.64,1913.16,1911.4,1909.95,1907.82,1905.82,1905.2,1905.15,1905.06,1904.72,1904.67,1904.48,1904.53,1905.37,1906.58,1907,1907.25,1907.28,1907.12,1907.7,1908.97,1909.49
2887.89,2890.44,2888.84,2881.46,2861.69,2826.23,2788.04,2746.49,2692.57,2663.36,2588.27,2125.2,2092.59,2031.76,1722.58,1880.65,2253.4,1939.91,824.532,108.126,68.246,99.164,103.658,679.008,941.378,1949.68,2441.35,2430.49,2410.63,2402.95,2408.93,2430.78,2432.36,2429.29,2388.75,2218.72,486.99,782.932,1141.73,1877.29,1959.53,1960.17,1971.44,1968.74,1965.97,1983.7,1983.99,1979.6,1975.35,1971.12,1965.84,1961.16,1957.99,1954.65,1947.02,1944.76,1942.39,1940.55,1940.22,1941.2,1941.98,1938.27,1934.95,1936.5,1937.71,1939.47,1940.49,1940.9,1939.93,1938.67,1937.21,1935.73,1933.49,1919.28,1916.67,1920.39,1918.56,1923.8,1923.07,1922.95,1923.47,1924.39,1926.12,1928.3,1930.22,1932.74,1934.71,1937.21,1939.61,1941.38,1937.46,1944.44,1945.71,1946.25,1946.41,1946.26,1945.93,1933.74,1933.13,1932.58,1931.97,1930.91,1929.75,1928.73,1927.1,1925.85,1924.68,1923.79,1923.01,1922.58,1922.42,1928.67,1929.92,1931.58,1927.46,1929.39,1936.55,1937.79,1938.36,1938.59,1937.96,1936.02,1933.16,1930.48,1927.69,1925.41,1923.04,1915.57,1913.47,1912.3,1911.56,1911.65,1911.62,1912.58,1914.21,1916.53,1919.41,1922.76,1925.48,1928.09,1930.26,1932.53,1933.7,1933.87,1934.06,1934.53,1934.67,1935.71,1936.85,1938.1,1938.36,1939.21,1940,1941.11,1941.53,1942.52,1943.18,1943.83,1945.14,1946.44,1946.79,1947.41,1947.19,1947.68,1947.65,1948.32,1948.76,1949.8,1951.32,1953.82,1956.38,1958.85,1961.51,1964.27,1966.64,1969.61,1971.75,1973.67,1974.46,1974.33,1974.21,1972.98,1970.59,1967.46,1963.39,1959.12,1955.46,1952.36,1949.05,1945.88,1942.62,1940.03,1937.98,1936,1935.11,1934.48,1934.46,1935.63,1936.68,1938.39,1939.87,1941.26,1942.26,1943.39,1943.76,1943.28,1942.17,1941.21,1939.96,1938.93,1937.69,1936.55,1934.77,1932.22,1928.85,1925.74,1922.2,1918.64,1915.72,1913.37,1912.07,1911.25,1911.46,1913.38,1915.54,1918.85,1921.95,1925.25,1928.93,1933.51,1938.12,1942.41,1946.3,1949.91,1952.71,1955.07,1957.28,1958.82,1959.06,1958.72,1958.17,1957.48,1956.5,1955.13,1953.68,1952,1949.97,1947.97,1946.23,1944.75,1942.96,1941.76,1940.76,1939.19,1937.86,1936.79,1935.87,1934.28,1932.42,1930.93,1929.43,1927.85,1927.17,1926.2,1925.46,1924.17,1922.98,1921.79,1920.25,1918.23,1916.14,1914.03,1911.93,1909.33,1906.72,1904.25,1901.66,1899.71,1898.99,1898.9,1899.19,1899.3,1899.87,1901.47,1903.72,1906.58,1909.18,1911,1912.7,1914.49,1916.61,1919.48,1922.12,1924.29,1925.91,1927.91,1930.64,1932.71,1934.39,1935.5,1935.54,1935.59,1935.54,1936.06,1935.9,1935.25,1934.71,1933.77,1932.6,1931.73,1929.85,1927.79,1925.63,1922.77,1919.76,1916.69,1912.95,1909.34,1906.13,1902.83,1900.2,1898.14,1896.81,1896.61,1897.37,1899.38,1901.71,1905.14,1909.21,1913.07,1916.86,1920.91,1923.79,1926.13,1927.71,1928.82,1928.87,1928.99,1928.88,1928.29,1927.18,1926.03,1925.48,1924.76,1924.34,1924.49,1924.47,1925.03,1926.18,1927.56,1929.42,1931.68,1933.4,1934.67,1935.89,1936.45,1936.86,1936.98,1937.1,1936.47,1935.19,1933.81,1932.07,1930.07,1927.85,1924.9,1921.59,1918.42,1915.54,1913.15,1911.61,1910.65,1908.76,1907.33,1907.24,1907.61,1907.82,1907.89,1908.32,1908.43,1908.51,1909.59,1910.62,1911.22,1911.78,1911.86,1911.94,1912.54,1913.48,1914.17
2816.42,2814.2,2806.25,2793.09,2770.69,2738.97,2711.9,2680.4,2642.43,2600.8,2562.39,2518.9,2129.55,2422.91,2400.47,2384.04,2370.34,2221.33,2235.92,733.51,505.412,92.778,218.866,1167.44,1882.87,2411.97,2439.43,2426.49,2404.93,2398.41,2411.93,2432.95,2436.54,2431.42,2294.63,2005.97,411.176,486.042,979.056,1964.5,1984.94,1968.56,1968.31,1971.21,1972.02,1978.42,1975.23,1971.36,1967.23,1963.49,1958.36,1954.09,1951.2,1948.46,1946.06,1939.72,1938.09,1936.94,1936.86,1937.79,1939,1935.7,1936.36,1933.09,1934.41,1935.97,1936.86,1936.91,1935.85,1934.86,1933.66,1932.66,1930.78,1928.67,1915.5,1914.02,1918.48,1918.4,1923.8,1924.02,1924.65,1925.34,1927.12,1929.28,1931.67,1934.25,1936.55,1939.37,1941.75,1943.71,1945.6,1942.08,1948.75,1949.66,1949.84,1949.59,1949.49,1949.4,1943.6,1937.33,1936.87,1935.8,1934.88,1934.1,1932.9,1931.78,1930.94,1930.33,1929.89,1929.62,1929.63,1935.86,1936.77,1931.64,1932.75,1933.86,1934.04,1933.96,1933.32,1931.92,1935.85,1932.6,1928.54,1924.92,1921.66,1918.41,1915.55,1907.52,1905.35,1903.88,1903.04,1903.51,1903.84,1905.15,1907.45,1910.29,1913.85,1917.52,1920.89,1924.51,1927.3,1930.33,1931.92,1932.99,1933.42,1934.24,1934.73,1935.47,1936.77,1937.84,1937.68,1937.96,1938.21,1938.84,1938.7,1939.37,1939.92,1940.44,1941.24,1942.59,1942.99,1943.68,1943.46,1944,1944,1944.64,1945.35,1946.64,1948.47,1951.04,1954.22,1956.96,1959.99,1963.21,1965.68,1968.94,1971.37,1973.61,1974.33,1974.23,1974.4,1972.93,1970.85,1967.63,1963.48,1959.39,1956.02,1953.3,1950.47,1947.58,1944.89,1942.66,1940.24,1938.62,1937.95,1937,1936.76,1937.81,1938.86,1940.36,1941.69,1943.02,1943.47,1944.37,1944.5,1944.06,1942.6,1941.4,1940.24,1938.95,1937.58,1936.48,1934.63,1932.2,1928.94,1925.82,1922.25,1918.6,1915.62,1912.87,1911.53,1910.69,1910.88,1913.06,1915.25,1918.96,1922.54,1926.26,1930.61,1935.43,1940.84,1945.14,1949.68,1953.5,1956.38,1959.15,1961.4,1963.04,1963.25,1962.49,1961.76,1960.86,1959.88,1958.33,1956.89,1955.17,1953.35,1951.51,1950.08,1948.63,1946.8,1945.4,1944,1941.98,1940.18,1938.51,1936.96,1935.21,1932.95,1931.07,1929.31,1927.5,1926.92,1926.17,1925.6,1924.52,1923.39,1922.71,1921.46,1919.66,1917.88,1915.99,1914.17,1912.11,1910.11,1908.13,1905.81,1904,1903.25,1903.09,1903.17,1903.04,1903.17,1904.27,1906.05,1908.49,1910.43,1912.1,1913.41,1914.86,1917.13,1919.83,1922.31,1924.18,1925.8,1928.09,1930.43,1932.38,1934.32,1935.32,1935.52,1935.61,1935.59,1935.92,1935.94,1935.31,1934.7,1933.99,1932.97,1932.36,1930.63,1928.66,1926.7,1924.12,1921.02,1917.88,1914.16,1910.54,1906.79,1903.14,1899.96,1897.58,1896.14,1895.72,1896.33,1898.39,1901.14,1904.54,1908.84,1913.04,1916.97,1921.06,1924.25,1926.63,1928.31,1929.55,1929.72,1930.02,1929.94,1929.23,1927.84,1926.69,1926.08,1925.26,1925.02,1925.39,1925.92,1926.98,1928.82,1930.82,1933.4,1935.97,1937.8,1939.32,1940.33,1940.74,1940.96,1940.67,1940.24,1939.07,1937.22,1935.15,1932.79,1930.15,1927.59,1924.35,1920.94,1917.68,1915.06,1912.95,1911.51,1910.96,1909.94,1909.13,1909.29,1910.3,1910.85,1911.82,1912.35,1912.73,1913,1914.15,1915.29,1916.03,1916.45,1916.55,1916.53,1916.85,1917.57,1918.19
2749.29,2742.65,2730.27,2712.93,2690.67,2666.89,2639.61,2613.34,2580.37,2541.38,2506.53,2474.42,2450.49,2423.77,2402.31,2389.37,2388.79,2301.38,2319.28,2234.21,2300.98,1611.92,1321.5,2402.29,2423.24,2425.42,2415.21,2407.19,2390.52,2387.32,2402.07,2421.83,2426.16,2427.31,2280.89,1651.87,550.208,898.948,906.998,2018.77,1977.34,1966.62,1968.03,1963.52,1964.29,1971.07,1968.12,1964.14,1960.7,1956.7,1952.01,1948.12,1945.67,1943.55,1941.86,1935.72,1934.25,1933.55,1933.82,1935.12,1936.5,1937.47,1933.54,1930.05,1931.23,1932.58,1933.67,1933.54,1932.8,1932.17,1931.22,1930.99,1930,1928.67,1927.29,1915.7,1914.94,1920.81,1920.58,1926.59,1927.41,1927.83,1929.3,1931.25,1933.77,1936.55,1939.08,1941.85,1944.29,1946.28,1948.3,1950.35,1946.7,1952.94,1953.23,1953.23,1953.45,1953.74,1953.78,1947.73,1941.73,1941.09,1940.23,1939.6,1938.9,1938.2,1937.71,1937.45,1937.55,1937.35,1937.76,1938.13,1938.44,1938.72,1939.08,1939.17,1938.39,1937.05,1935.24,1932.55,1929.42,1925.17,1926.17,1921.85,1917.58,1914.11,1910.38,1901.74,1899.1,1897.05,1896.34,1897.19,1897.53,1899.1,1901.96,1905.01,1908.85,1913.24,1916.99,1921.02,1924.2,1927.71,1930.01,1931.35,1931.98,1933.1,1933.47,1934.38,1935.49,1936.29,1936.08,1935.9,1935.51,1935.7,1935.19,1935.74,1936.18,1936.48,1936.89,1938.63,1938.91,1939.76,1939.67,1940.55,1940.14,1940.68,1941.6,1942.88,1944.51,1947.55,1950.53,1953.74,1956.97,1960.45,1963.51,1966.8,1969.52,1971.75,1972.72,1972.87,1972.79,1971.54,1969.43,1966.34,1962.32,1957.92,1954.99,1952.42,1950.18,1947.95,1945.62,1943.66,1942.24,1940.82,1940.27,1939.74,1939.3,1940.19,1941.28,1942.65,1943.82,1944.65,1945.08,1945.63,1945.47,1944.71,1943.03,1941.5,1940.09,1938.67,1937.49,1936.12,1934.45,1932.55,1929.27,1926.37,1923.18,1919.79,1916.85,1914.17,1912.79,1912.05,1912.56,1914.45,1916.89,1920.6,1924.47,1928.17,1932.75,1938.14,1943.63,1948.53,1953.1,1957.04,1960.28,1962.97,1965.43,1966.96,1967.22,1966.16,1965.32,1964.29,1962.92,1960.98,1959.64,1957.85,1955.94,1954.06,1952.37,1950.89,1948.74,1947.12,1945.55,1943.09,1940.88,1938.73,1936.73,1934.46,1931.89,1929.78,1927.8,1926.33,1925.73,1925.16,1924.82,1923.95,1923.5,1923.18,1922.54,1921.09,1919.79,1918.48,1916.82,1915.09,1913.52,1911.62,1909.19,1907.17,1906.6,1906.03,1905.53,1905.09,1904.96,1905.38,1906.61,1908.45,1910.39,1911.84,1913,1914.19,1916.06,1918.82,1921.31,1922.98,1923.96,1926.25,1928.43,1930.44,1932.28,1933.57,1933.78,1933.72,1933.98,1934.7,1934.84,1934.74,1934.4,1933.93,1933.07,1932.56,1931.39,1929.92,1928.15,1925.5,1922.65,1919.68,1915.55,1911.65,1907.55,1903.4,1899.58,1896.86,1895.34,1894.51,1895.15,1897.35,1900.2,1903.72,1908.38,1912.46,1916.83,1921.02,1924.37,1926.95,1928.78,1930.11,1930.37,1930.71,1930.53,1929.92,1928.52,1927.34,1926.73,1926,1925.72,1926.79,1927.68,1929.1,1931.27,1933.76,1936.67,1939.57,1941.41,1943.11,1943.88,1943.94,1943.88,1943.08,1941.93,1940.23,1937.59,1934.89,1931.75,1928.88,1925.81,1922.53,1918.95,1916.11,1913.62,1911.87,1911.05,1910.95,1910.53,1910.29,1911.02,1912.45,1913.51,1914.73,1915.89,1916.47,1916.99,1918.06,1919.05,1919.76,1920.01,1920.28,1920.08,1920.2,1921.03,1921.72
2693.18,2681.46,2664.59,2643.13,2619.32,2596.21,2571.57,2548.14,2521.65,2490.21,2462.6,2442.4,2421.58,2403.51,2389,2380.75,2382.74,2389.06,2390.79,2310.77,2425.27,2399.41,2221.63,2447.85,2430.41,2394.31,2410.04,2405.83,2392.52,2392.59,2406.85,2425.21,2428.43,2428.55,2325.43,2122.1,376.11,819.476,1046.07,2022.82,1974.81,1964.55,1958.44,1954.4,1960.08,1962.22,1959.8,1956.61,1953.63,1950.31,1945.94,1943.07,1940.92,1939.4,1938.07,1936.87,1931.03,1930.24,1930.95,1932.35,1933.91,1934.89,1935.55,1936.42,1928.8,1930.16,1931.56,1931.83,1931.56,1931.58,1931.61,1932.24,1932.39,1931.67,1931.4,1931.45,1920.36,1920.61,1926.2,1926.65,1932.79,1932.95,1933.91,1935.35,1937.47,1940.11,1942.56,1945.17,1947.14,1949,1951.24,1953.22,1954.9,1950.75,1956.23,1956.55,1956.71,1957.12,1951.88,1952.09,1946.47,1945.98,1945.61,1945.48,1945.14,1944.79,1944.8,1944.88,1945.2,1945.26,1945.63,1945.73,1945.56,1944.89,1944.29,1943.23,1941.07,1938.83,1935.87,1932.44,1928.59,1923.61,1923.85,1918.86,1914.35,1910,1906.3,1897.54,1894.75,1893.08,1892.16,1893.07,1893.66,1895.24,1897.94,1901.17,1905.22,1909.42,1913.25,1917.56,1920.75,1924.37,1926.53,1928.37,1929.4,1930.63,1931.08,1931.82,1932.9,1933.99,1933.41,1933.05,1932.93,1932.8,1932.25,1932.83,1933.1,1933.42,1934.15,1935.58,1936.26,1936.85,1937.01,1937.35,1936.62,1937.01,1937.72,1938.86,1940.34,1943.07,1946.31,1949.46,1952.89,1956.88,1960.26,1963.72,1966.82,1969.28,1970.53,1970.99,1970.79,1969.61,1967.58,1964.51,1960.84,1956.39,1953.37,1951.16,1949.28,1947.07,1945.24,1943.86,1942.77,1942.07,1941.53,1941.17,1940.99,1942.26,1943.33,1944.68,1945.6,1946.28,1946.44,1946.86,1946.79,1945.69,1943.68,1941.67,1940.18,1938.39,1937.4,1936.09,1934.56,1932.34,1929.85,1927.26,1924.27,1921.24,1918.85,1916.44,1915.36,1914.67,1915.36,1917.52,1920.13,1923.65,1927.71,1931.59,1936.09,1941.58,1946.72,1951.79,1956.42,1960.53,1963.8,1966.73,1969.06,1970.79,1971.03,1970.03,1968.65,1967.2,1965.59,1963.82,1961.85,1959.54,1957.31,1955.27,1953.41,1951.89,1949.59,1947.44,1945.46,1942.79,1940.37,1937.67,1935.39,1932.52,1929.98,1927.83,1925.84,1924.39,1923.71,1923.39,1923.53,1922.88,1922.83,1923.09,1922.92,1922.14,1921.29,1920.36,1919.21,1917.85,1916.62,1915.07,1912.78,1910.88,1909.82,1909.35,1908.77,1907.91,1907.38,1907.46,1908.35,1909.76,1911.07,1912.4,1913.23,1914.16,1915.79,1918.06,1920.1,1921.43,1922.31,1923.99,1925.72,1927.42,1929.32,1930.38,1930.79,1931.02,1931.33,1932.17,1933.03,1933.61,1933.88,1933.75,1933.18,1933.08,1932.37,1931.51,1929.95,1927.72,1924.85,1921.69,1917.74,1913.3,1908.95,1904.46,1899.88,1896.78,1894.66,1894.1,1894.66,1896.78,1899.76,1903.4,1908.17,1912.83,1917.08,1921.34,1924.74,1927.36,1929.26,1931.08,1931.45,1931.87,1932.01,1931.45,1930.41,1929.3,1928.65,1927.97,1928.13,1929.25,1930.14,1932,1934.45,1936.94,1940,1942.66,1944.34,1945.62,1946.36,1945.72,1945.2,1944.1,1942.42,1940.08,1936.93,1933.73,1930.38,1927.04,1924.36,1921.24,1917.9,1915.31,1913.09,1912,1911.56,1911.9,1912.29,1912.57,1913.41,1915.35,1916.82,1918.62,1919.8,1920.53,1920.89,1921.88,1922.92,1923.41,1923.53,1923.62,1923.58,1923.55,1923.99,1924.55
2651.89,2640.29,2623.58,2603.73,2580.6,2558.31,2535.72,2514.62,2491.41,2465.81,2444.52,2428.45,2411.17,2396.66,2386.42,2383.38,2386.64,2392.99,2407.5,2420.86,2428.7,2441.21,2434.5,2444.36,2383.74,2175.1,2390.07,2407.92,2398.24,2399.24,2413.37,2430.15,2431.09,2430.52,2353.51,1106.11,1436.43,770.474,1622.89,2017.43,1968.57,1957.1,1951.28,1947.41,1953.4,1956.1,1954.01,1951.18,1948.82,1946.08,1942.52,1939.82,1932.69,1936.79,1935.5,1934.22,1933.1,1927.66,1928.42,1929.83,1926.44,1927.48,1927.95,1928.9,1930.1,1927.44,1929.03,1930.03,1930.39,1931.59,1937.29,1938.99,1939.94,1940.56,1941.04,1941.77,1937.34,1927.01,1926.89,1927.53,1933.17,1933.03,1933.35,1934.45,1936.11,1938.6,1940.64,1942.97,1949.81,1951.43,1953.64,1955.82,1952.3,1948.26,1948.49,1948.72,1954.37,1949.9,1950.4,1950.55,1950.74,1950.84,1950.67,1951.06,1951.3,1951.46,1951.7,1951.91,1952.42,1952.33,1952.61,1952.34,1951.43,1949.93,1948.28,1946.09,1943.3,1940.18,1936.61,1932.22,1927.84,1922.36,1916.55,1911.35,1906.64,1902.03,1897.94,1894.86,1892.16,1890.6,1889.96,1890.31,1891.04,1892.52,1895.28,1898.22,1901.79,1905.92,1909.66,1913.5,1916.9,1920.48,1923.15,1924.75,1925.88,1927.04,1927.66,1928.38,1929.65,1930.92,1930.55,1930.5,1930.15,1930.53,1930.04,1930.81,1931.29,1931.6,1931.95,1933.36,1933.87,1934.26,1934.15,1934,1933.03,1932.57,1933.05,1933.69,1934.87,1937.35,1940.58,1943.81,1947.61,1951.83,1955.33,1959.06,1962.32,1965.21,1966.89,1967.48,1967.55,1966.48,1964.98,1962.03,1958.38,1954.4,1951.62,1949.29,1947.51,1945.63,1943.92,1942.93,1942.5,1941.99,1942.24,1941.96,1942.44,1943.32,1944.72,1945.87,1946.57,1946.99,1947.01,1947.59,1947.32,1946.22,1944.04,1942.02,1940.31,1938.7,1937.41,1936.23,1934.83,1933,1930.61,1928.48,1925.97,1923.34,1921.57,1919.82,1918.72,1918.55,1919.17,1921.14,1924.11,1927.68,1931.15,1935.09,1939.17,1944.1,1949.28,1954.22,1958.8,1962.82,1966.3,1969.4,1971.62,1973.41,1973.8,1972.77,1971.21,1969.49,1967.57,1965.29,1962.95,1960.36,1957.8,1955.43,1953.13,1951.43,1949.13,1946.66,1944.3,1941.55,1938.55,1935.77,1933.14,1930.33,1927.67,1925.36,1923.51,1922.12,1921.42,1921.44,1922.06,1921.72,1922.08,1922.94,1923.48,1923.25,1922.98,1922.52,1921.73,1920.81,1920.06,1918.66,1916.63,1914.38,1912.92,1912.43,1911.7,1910.7,1909.93,1909.65,1910.22,1911.34,1912.52,1913.82,1914.5,1914.92,1916.21,1918.18,1919.95,1920.73,1920.97,1921.97,1923.14,1923.87,1925.3,1926.6,1926.92,1927.2,1927.78,1929.16,1930.32,1931.43,1932.39,1932.88,1933.05,1933.12,1932.93,1932.55,1931.55,1929.73,1926.8,1923.78,1919.4,1914.69,1910.08,1904.71,1899.66,1896.14,1893.53,1892.71,1893.28,1895.73,1898.51,1902.05,1906.84,1911.7,1916.19,1920.52,1924.31,1926.94,1929.19,1931.11,1932.08,1933.11,1933.49,1933,1932.36,1931.35,1930.99,1930.3,1930.54,1931.72,1933.01,1934.68,1937.18,1939.75,1942.29,1944.53,1945.93,1946.98,1947.27,1946.18,1945.43,1943.64,1941.62,1938.8,1935.33,1931.98,1928.62,1925,1922.39,1919.56,1916.55,1914.22,1912.56,1911.81,1912.15,1912.75,1913.68,1914.72,1916.04,1918.26,1920.11,1921.9,1923.51,1924.3,1924.83,1925.58,1926.5,1926.58,1926.62,1926.43,1926.11,1925.99,1926.22,1926.46
2616.87,2606.38,2591.8,2574.72,2555.33,2536.92,2518.09,2500.09,2481.77,2461.21,2442.28,2431.55,2417.36,2406.17,2397.86,2396.68,2400.75,2406.32,2417.59,2432.98,2443.13,2447.96,2438.85,2443.28,2398.14,1800.47,2380.2,2408.55,2401.02,2401.41,2409.53,2422.7,2426.6,2422.76,2335.69,763.748,1331.97,832.418,2052.07,1999.54,1960.5,1946.53,1935.01,1937.05,1949.12,1952.91,1951.21,1937.91,1936.09,1933.62,1941.61,1928.27,1926.56,1925.51,1924.48,1918.95,1928.63,1927.92,1928.05,1929.08,1925.33,1915.91,1910.5,1911.2,1923.09,1925.06,1921.89,1928.7,1930.37,1936.67,1928.41,1936.69,1944.12,1935.38,1931.52,1932.51,1933.09,1933.71,1933.91,1934.11,1933.93,1938.91,1933.57,1934,1935.27,1937,1938.74,1940.51,1941.53,1942.72,1945.05,1946.97,1948.78,1949.41,1949.83,1950.11,1950.73,1951.53,1952.27,1952.68,1953.04,1953.44,1954,1954.74,1955.5,1956.02,1956.77,1957.12,1957.84,1957.83,1957.78,1956.93,1955.55,1953.53,1951.33,1948.62,1944.94,1941.11,1936.87,1932.08,1927.28,1921.73,1915.81,1910.5,1905.7,1901.09,1897.14,1893.98,1891.58,1890.13,1889.8,1890.39,1891,1892.5,1895.26,1898,1901.12,1904.86,1908.05,1911.74,1914.87,1918.17,1920.7,1922.22,1923.44,1924.37,1924.97,1925.54,1926.83,1928.3,1928.52,1928.64,1928.71,1929.22,1929.16,1930.08,1930.82,1931.21,1931.32,1932.54,1932.96,1933.05,1932.86,1932.34,1930.73,1930.11,1930.1,1930.37,1930.89,1932.97,1935.85,1938.97,1942.79,1947.15,1950.94,1954.8,1958.41,1961.03,1963.36,1964.33,1964.61,1963.84,1962.44,1960.11,1956.68,1952.87,1949.97,1947.8,1945.9,1944.06,1942.65,1941.87,1941.79,1941.81,1942.07,1942.56,1943.21,1944.29,1945.81,1946.86,1947.35,1947.5,1947.74,1947.86,1947.58,1946.16,1944.03,1941.94,1940.51,1938.96,1937.83,1936.78,1935.62,1934.09,1932.35,1930.47,1928.56,1926.43,1925.21,1923.82,1923.17,1922.91,1923.66,1925.34,1928.11,1931.18,1934.51,1937.72,1941.34,1945.92,1950.81,1955.34,1959.88,1963.79,1967.46,1970.64,1973.1,1975.11,1975.73,1974.7,1973.04,1971.25,1968.91,1966.41,1963.46,1960.67,1957.88,1955.14,1952.94,1950.93,1948.6,1946.09,1943.55,1940.59,1937.62,1934.53,1931.81,1929.01,1926.44,1924.26,1922.55,1921.23,1920.9,1921.01,1921.75,1921.94,1922.67,1923.93,1924.9,1925.11,1925.31,1925.2,1924.45,1923.45,1922.92,1921.4,1919.49,1917.11,1915.67,1915.04,1913.8,1912.9,1912.13,1911.64,1911.98,1912.8,1913.9,1914.96,1915.53,1915.86,1916.78,1918.11,1919.45,1919.77,1919.52,1919.7,1919.88,1920.24,1920.89,1921.77,1921.95,1922.43,1922.94,1924.32,1926.11,1927.7,1929.28,1930.52,1931.19,1931.8,1932.05,1932.3,1931.59,1929.99,1927.38,1924.49,1919.94,1915.36,1910.08,1904.54,1899.05,1895.23,1892.45,1891.39,1891.94,1893.97,1897.05,1900.43,1905.08,1910.11,1914.22,1918.41,1922.37,1925.25,1927.84,1930.13,1931.69,1932.98,1933.59,1933.86,1933.43,1932.76,1932.88,1932.54,1932.85,1933.99,1934.98,1937.03,1939.25,1941.26,1943.34,1945.39,1946.4,1947.25,1947.04,1945.33,1943.89,1942.05,1940,1936.82,1933.27,1930.05,1926.63,1923.38,1920.68,1918.21,1915.57,1913.68,1912.27,1911.85,1912.29,1913.43,1914.96,1916.18,1918,1920.36,1922.42,1924.46,1926.22,1927.18,1928.06,1928.73,1929.25,1929.32,1929.08,1928.95,1928.53,1928.06,1927.98,1928.09
2586.1,2578.57,2567.39,2553.57,2538.48,2524.3,2510.17,2495.82,2480.39,2464.13,2448.49,2436.32,2424.6,2417.58,2410.49,2410.27,2414.15,2419.18,2428.14,2439.99,2448.15,2444.5,2449.12,2437.82,2428.64,2310.92,1909.68,2394.37,2392.35,2386.97,2383.63,2411.89,2418.58,2408.86,2333.17,884.75,1366.01,707.7,2070.46,1996.9,1956.45,1946.23,1940.28,1931.39,1949.52,1947.86,1952.21,1950.4,1937.22,1935.09,1932.17,1941.19,1928.88,1928.09,1926.98,1925.9,1920.6,1930.87,1930.89,1927.06,1923,1922.95,1917.31,1912.29,1913.49,1926.55,1923.33,1926.25,1933.91,1936.72,1944.13,1936.72,1944.35,1941.67,1943.2,1939.15,1939.75,1940.07,1940.14,1940.39,1940.05,1939.08,1943.76,1938,1938.72,1939.58,1940.76,1941.65,1942.18,1943.32,1944.94,1946.78,1948.47,1948.99,1949.38,1949.8,1950.26,1951.21,1952.1,1952.65,1953.51,1954.17,1955.02,1955.92,1957.15,1957.82,1958.65,1959.31,1960.1,1960.11,1959.9,1958.73,1956.88,1954.41,1951.87,1948.57,1944.58,1940.48,1936.08,1931.43,1926.66,1921.33,1916.3,1911.28,1906.96,1902.7,1899.11,1896.34,1894.61,1893.63,1893.69,1894.25,1894.89,1896.02,1898.05,1899.95,1902.68,1905.55,1908.49,1911.47,1914.22,1916.99,1919.26,1920.66,1921.84,1922.81,1923.21,1923.8,1925.02,1926.86,1927.32,1927.96,1928.45,1929.2,1929.37,1930.72,1931.65,1931.91,1932.05,1933.04,1933.2,1933.37,1932.68,1931.75,1929.52,1928.38,1928,1927.59,1927.56,1929.15,1931.62,1934.43,1938.12,1942.52,1946.35,1950.24,1953.93,1957.33,1959.47,1960.9,1961.43,1961.28,1960.63,1963.27,1960.11,1956.59,1953.64,1946.42,1944.46,1942.3,1940.92,1940.43,1940.77,1941.09,1941.81,1942.41,1943.37,1944.57,1946.33,1947.38,1947.51,1947.56,1947.21,1947.35,1947.06,1945.31,1943.08,1941.08,1939.55,1938.37,1937.1,1936.29,1935.59,1934.43,1933.09,1931.81,1930.61,1928.96,1928.22,1927.24,1926.91,1926.73,1927.43,1929.01,1931.51,1934.41,1937.35,1940.16,1943.05,1947.32,1951.74,1955.68,1960.22,1964.04,1967.44,1970.49,1972.99,1974.99,1975.37,1974.6,1972.83,1970.6,1968.32,1965.62,1962.26,1959.28,1956.21,1953.58,1951.19,1949.55,1947.1,1944.57,1942.15,1939.2,1936.33,1933.01,1930.48,1927.82,1925.82,1923.76,1922.37,1921.16,1921.24,1921.78,1922.91,1923.23,1924.48,1925.82,1927.31,1927.66,1928.02,1928.01,1927.15,1926,1925.09,1923.44,1921.3,1918.61,1917.1,1915.92,1914.87,1913.96,1913.17,1912.5,1912.65,1913.46,1914.51,1915.64,1916.22,1916.49,1917.27,1918.23,1919.25,1919.12,1918.22,1917.81,1917.09,1916.55,1917,1917.51,1917.64,1917.72,1918.18,1919.61,1921.72,1923.79,1925.76,1927.32,1928.5,1929.47,1930.32,1930.99,1930.91,1929.98,1927.5,1924.59,1920.01,1915.51,1910.49,1904.6,1898.87,1895.07,1892.05,1890.5,1890.8,1893.01,1895.29,1898.34,1902.75,1907.55,1911.58,1915.83,1919.84,1922.93,1926,1928.86,1930.76,1932.95,1933.92,1934.55,1934.5,1934.5,1934.72,1934.59,1934.96,1936.16,1937.17,1938.62,1940.45,1942.02,1943.88,1944.96,1945.46,1945.92,1945.16,1943.4,1941.79,1939.88,1937.62,1934.51,1931.12,1928.02,1924.78,1921.49,1918.98,1916.43,1914.45,1912.93,1911.81,1911.57,1912.25,1913.51,1915.34,1917.15,1919.18,1921.99,1924.09,1926.55,1928.46,1929.79,1930.47,1931.15,1931.64,1931.85,1931.22,1930.95,1930.34,1929.68,1929.18,1929.08
2562.82,2557.01,2548.84,2538.68,2527.58,2517.42,2507.02,2496.81,2484.58,2471.49,2459.46,2449.28,2439.54,2430.84,2423.77,2422,2423.69,2427.75,2435.86,2444.63,2450.63,2450.49,2437.89,2431.93,2422.93,2421.03,2382.86,2396.77,2381.98,2366.79,2326.07,2397.02,2392.28,2371.56,2297.6,2048.13,1553.86,1064.44,2053.05,2007.2,1959.13,1942.85,1937.6,1934.58,1942.19,1935.81,1939.99,1954.34,1941.72,1939.48,1937.03,1935.38,1934.34,1933.62,1923.81,1918.12,1917.62,1921.38,1921.49,1917.44,1917.06,1916.53,1915.78,1915.62,1916.72,1919.15,1932.1,1923.95,1932.48,1935.76,1939.55,1952.22,1940.01,1941.94,1943.4,1944.73,1945.29,1945.84,1945.75,1945.77,1945.28,1943.71,1942.75,1941.67,1941.63,1942.04,1942.29,1942.49,1942.5,1943.07,1944.47,1945.78,1947.24,1947.75,1948.21,1948.4,1949.24,1950.3,1951.33,1952.03,1953.17,1954.14,1955.23,1956.44,1957.85,1958.86,1959.59,1960.24,1960.93,1960.48,1959.85,1958.6,1956.24,1953.46,1950.5,1947,1942.61,1938.67,1934.52,1930.18,1926.15,1921.86,1917.54,1913.81,1910.4,1907.42,1904.66,1902.99,1902.3,1901.98,1902.12,1902.85,1903.45,1903.9,1905.02,1906.16,1907.73,1909.68,1911.39,1913.67,1915.8,1917.87,1919.62,1920.67,1921.52,1922.24,1922.85,1923.19,1924.45,1926.29,1927.3,1928.19,1928.71,1929.7,1930.51,1931.75,1932.66,1932.94,1933.01,1933.75,1933.98,1933.93,1933.1,1931.96,1929.55,1927.74,1927.04,1926.23,1925.6,1926.73,1928.57,1931.29,1934.45,1939,1942.88,1946.84,1950.55,1953.85,1956.47,1958.52,1959.71,1959.66,1959.25,1957.97,1955.37,1952.15,1949.25,1946.72,1944.59,1942.29,1940.91,1940.42,1941.04,1941.5,1942.26,1943.09,1944.26,1945.64,1947.41,1948.19,1948.18,1947.8,1947.6,1947.19,1946.55,1944.85,1942.56,1940.48,1939.13,1937.77,1936.88,1936.1,1935.65,1934.68,1934.24,1933.44,1932.55,1931.57,1931.3,1930.63,1930.2,1930.3,1930.81,1932.09,1934.53,1936.72,1939.08,1941.46,1943.82,1947.54,1951.41,1954.99,1958.73,1962.11,1965.34,1968.41,1970.29,1971.94,1972.38,1971.61,1969.77,1967.59,1965.1,1962.25,1959.11,1956.52,1953.57,1951.35,1949.19,1947.57,1945.15,1942.76,1940.28,1937.28,1934.43,1931.48,1928.75,1926.57,1924.67,1923,1921.85,1920.77,1921.28,1922.16,1923.68,1924.32,1925.77,1927.55,1929.17,1929.68,1930.11,1929.92,1928.94,1927.53,1926.69,1924.61,1922.45,1919.49,1917.83,1916.73,1915.81,1914.76,1914.33,1913.81,1914.3,1915.11,1915.95,1917.31,1918.56,1918.68,1919.26,1920.13,1920.56,1920.17,1918.94,1917.48,1915.89,1914.38,1913.92,1914.38,1914.25,1914.2,1914.26,1915.73,1917.6,1920.17,1922.27,1924.16,1925.54,1926.74,1928.03,1928.98,1929.41,1928.57,1926.88,1924.19,1920.39,1916.07,1911.36,1905.66,1900.29,1896.51,1893.39,1891.86,1892.33,1893.93,1896.02,1898.83,1902.79,1907.33,1910.77,1915.19,1918.91,1922.33,1925.56,1928.58,1931.27,1933.59,1935.13,1936.03,1936.28,1936.26,1936.53,1936.48,1936.7,1937.58,1938.16,1939.04,1940.25,1941.3,1942.37,1942.82,1942.85,1942.77,1941.9,1939.92,1938.49,1936.57,1934.41,1931.79,1928.56,1925.6,1922.7,1919.78,1917.6,1915.29,1913.29,1912.02,1915.08,1911.08,1912.1,1913.47,1915.65,1917.73,1920.23,1923.1,1925.18,1928.29,1930.29,1931.65,1932.86,1933.53,1933.77,1933.69,1933.31,1932.74,1932.38,1931.48,1930.67,1930.45
2547.28,2543,2536.51,2528.86,2520.88,2513.73,2506.94,2499.72,2491.22,2480.97,2471.69,2464.61,2457.32,2450.26,2443.65,2439.85,2438.85,2439.82,2445.11,2450.31,2454.46,2453.57,2450.26,2443.93,2424.59,2412.99,2406.79,2412.77,2405.35,2408.8,2410.44,2406.7,2393.29,2375.23,2303.33,2231.14,2009.39,1059.39,2026.29,1994.95,1973.6,1951.97,1947.43,1944.83,1952.59,1951.23,1949.96,1948.5,1947.15,1945.2,1943.17,1941.28,1940.4,1940.02,1939.33,1938.3,1937.75,1928.41,1932.77,1928.37,1927.66,1926.54,1921.36,1921.13,1922.13,1924.34,1926.83,1939.96,1932.3,1939.91,1943.6,1946.79,1954.7,1951.4,1948.2,1953.98,1954.72,1959.23,1954.98,1955.02,1949.95,1948.14,1946.73,1945.25,1944.59,1944.08,1943.72,1943.14,1942.59,1942.89,1943.88,1944.91,1945.9,1946.09,1946.52,1946.9,1947.66,1948.77,1950.13,1950.73,1951.98,1953.46,1954.84,1956.21,1957.71,1958.51,1959.04,1959.12,1959.62,1959.13,1958.15,1956.2,1953.53,1950.69,1947.57,1944.18,1940.36,1936.88,1933.57,1930.02,1927.05,1924.49,1921.7,1919.5,1917.71,1916.23,1914.71,1913.77,1913.97,1914.02,1914.63,1914.9,1914.86,1914.63,1914.47,1914.55,1915.18,1915.69,1916.73,1917.81,1919.19,1920.69,1922.11,1923.24,1923.88,1924.65,1925.04,1925.35,1926.43,1928.75,1929.85,1930.63,1931.3,1932.05,1932.77,1933.89,1934.94,1934.98,1934.74,1935.1,1934.99,1934.84,1933.76,1932.22,1929.5,1927.62,1926.09,1925.01,1923.88,1924.21,1925.47,1927.75,1930.6,1934.93,1938.68,1942.52,1946.19,1949.92,1952.79,1955.22,1957.08,1957.75,1958.16,1957.06,1954.94,1952.63,1954.61,1951.98,1949.4,1946.81,1945.44,1940.76,1941.21,1941.94,1942.61,1943.83,1944.92,1946.21,1947.94,1948.58,1947.98,1947.48,1947.05,1946.57,1946.08,1944.17,1942.16,1940.28,1939.29,1938.16,1937.3,1936.49,1936.37,1935.88,1935.83,1935.7,1935.3,1934.95,1934.83,1934.39,1933.99,1933.88,1934.04,1935.05,1936.74,1938.66,1940.51,1942.26,1944.6,1947.75,1950.9,1954.45,1957.45,1960.38,1963.18,1965.32,1966.83,1968.13,1968.29,1967.38,1965.25,1963,1960.43,1957.62,1954.8,1952.42,1950.21,1948.29,1946.48,1945.41,1943.64,1941.37,1939.01,1936.11,1933.22,1930.36,1927.98,1926.03,1924.26,1923.04,1921.9,1921.52,1922.14,1923.16,1925.08,1925.98,1927.61,1929.36,1931.11,1931.58,1932.05,1931.74,1930.42,1928.49,1927.56,1925.39,1922.88,1920.4,1918.73,1917.46,1916.84,1916.24,1916.2,1915.84,1916.54,1917.64,1918.57,1920.42,1921.67,1922.05,1922.54,1922.97,1923.03,1922.26,1920.35,1918.52,1915.98,1913.9,1912.92,1912.71,1912.86,1912.41,1912.47,1913.65,1915.48,1918.09,1920.31,1921.98,1922.93,1924.43,1925.54,1926.69,1927.39,1927.28,1925.79,1923.7,1920.35,1916.66,1912.73,1907.93,1903.01,1899.78,1897.12,1895.69,1896.22,1897.89,1899.53,1901.55,1905.36,1908.94,1911.92,1915.99,1919.86,1923.12,1926.52,1929.85,1932.5,1935.28,1937,1938.11,1938.51,1938.56,1939.07,1938.86,1938.91,1939.33,1939.02,1939.41,1939.77,1939.88,1940.21,1939.77,1939.2,1938.78,1937.7,1935.98,1934.48,1932.75,1931.08,1928.76,1926.13,1923.48,1920.96,1918.31,1916.5,1914.32,1920.82,1919.58,1919,1915.2,1916.39,1917.82,1916.06,1918.35,1921.07,1923.87,1926.03,1929.01,1931.21,1932.68,1934.06,1934.9,1935.15,1935.08,1934.54,1934.14,1933.54,1932.5,1931.79,1931.49
2533.99,2530.73,2526.06,2521.22,2516.09,2511.75,2507.85,2503.47,2497.07,2490.31,2484.04,2479.4,2474.6,2469.38,2464.42,2461.52,2459.75,2459.64,2461.6,2463.79,2465.24,2463.82,2459.92,2453.33,2445.56,2435.09,2429.96,2430.95,2428.96,2426.46,2421.98,2412.18,2398.84,2367.74,2286.44,2175.56,2063.89,704.498,1812.55,1997.79,1968.05,1957.32,1947.3,1945.25,1953.49,1957.15,1955.89,1954.08,1952.92,1951.06,1949.06,1947.37,1946.36,1937.25,1936.88,1935.88,1944.17,1943.09,1942.56,1941.74,1941.88,1935.42,1934.47,1933.87,1934.75,1932.77,1931.06,1942.22,1955.92,1948.94,1953.22,1960.03,1958.66,1960.47,1952.59,1962.73,1963.48,1963.93,1963.98,1959.67,1958.72,1952.86,1951.16,1949.21,1947.75,1946.43,1945.26,1943.95,1942.95,1942.82,1943.31,1943.85,1944.75,1944.63,1944.76,1945.17,1946.11,1947.5,1949.28,1950.08,1951.63,1953.59,1955.21,1957.07,1958.43,1959.1,1959.2,1958.92,1958.88,1957.7,1955.66,1953.23,1950,1946.64,1943.24,1940.03,1936.65,1933.77,1931.1,1928.95,1927.54,1926.49,1925.88,1925.71,1925.33,1925.01,1924.62,1924.71,1925.26,1925.65,1925.61,1925.7,1925.04,1923.81,1922.94,1922.16,1921.82,1921.37,1921.12,1921.41,1922.32,1923.38,1924.5,1925.42,1926.27,1926.81,1927.62,1928.03,1929.63,1931.81,1933.05,1934.03,1934.7,1935.25,1935.9,1936.78,1937.56,1937.33,1936.73,1936.71,1936.26,1936,1934.68,1933,1929.8,1927.32,1925.55,1923.95,1922.39,1922.35,1923.26,1925.07,1927.79,1931.7,1935.64,1939.15,1942.62,1946.62,1950.02,1953.12,1955.48,1956.81,1958.33,1957.77,1956.21,1954.51,1952.14,1954.02,1947.11,1944.63,1943.29,1942.49,1942.51,1943.08,1943.7,1944.92,1945.8,1946.73,1948.32,1948.45,1947.69,1947.12,1946.6,1946.18,1945.76,1944.18,1942.38,1941.04,1940.27,1939.34,1938.55,1937.98,1938.06,1937.85,1938.35,1938.93,1938.89,1938.56,1938.58,1938.15,1937.31,1937.25,1937.1,1937.53,1938.61,1939.56,1941.1,1942.72,1944.36,1947.24,1949.95,1952.76,1955.73,1957.87,1960.04,1961.7,1962.21,1963.02,1962.88,1961.33,1959.22,1956.73,1954.45,1952.18,1949.84,1948.49,1947.28,1945.83,1944.79,1944.39,1943.14,1941.16,1939.18,1936.32,1933.45,1930.26,1928.13,1926.39,1924.75,1923.65,1922.99,1922.57,1923.43,1924.75,1926.64,1927.67,1929.42,1931.25,1932.74,1933.38,1933.56,1932.76,1931.4,1929.24,1927.66,1925.61,1923.4,1920.92,1919.24,1918.37,1917.86,1917.69,1918.04,1917.89,1919.01,1920.05,1921.68,1923.61,1925.44,1926.08,1926.35,1926.38,1926.22,1925.15,1923.01,1920.56,1917.5,1914.75,1913.57,1913.15,1912.93,1912.57,1912.16,1913.1,1914.57,1917.06,1919.04,1920.64,1921.45,1922.65,1923.84,1925.16,1926.28,1926.29,1925.29,1923.53,1921.17,1918.32,1915.3,1911.29,1907.31,1904.9,1902.52,1901.29,1901.55,1903.24,1904.22,1905.98,1908.79,1911.86,1914.33,1917.86,1921.27,1924.13,1927.28,1930.68,1933.66,1936.59,1938.56,1939.76,1940.12,1940.24,1940.47,1940.13,1939.83,1939.53,1938.69,1938.2,1937.74,1937.15,1936.53,1935.5,1934.46,1933.64,1936.28,1934.92,1933.73,1932.53,1931.3,1933.23,1931.24,1933.19,1931.17,1929.14,1927.77,1925.77,1924.13,1923.45,1919.16,1919.52,1920.62,1917.98,1916.45,1918.62,1921.34,1924.03,1926.34,1929.2,1931.46,1932.95,1934.39,1935.34,1935.6,1935.61,1935.15,1934.65,1933.98,1933.08,1932.19,1935.53
2522.75,2521.58,2519.57,2516.81,2514.5,2512.56,2510.96,2508.84,2505.56,2500.89,2497.03,2494.55,2491.12,2487.44,2484.06,2482.19,2481.4,2481.44,2482.71,2483.42,2482.91,2480.56,2476.36,2470.36,2462.37,2452.94,2446.9,2446.43,2442.85,2437.75,2426.87,2413.44,2392.22,2353.36,2276.75,1986.94,1739.98,1537.02,1986.24,1998.74,1970.9,1955.16,1951.32,1949.79,1948.11,1962.77,1961.07,1959.41,1958.11,1956.4,1954.43,1952.98,1943.56,1943.49,1943.02,1950.64,1950.09,1948.72,1947.72,1946.36,1940.67,1944.49,1948.31,1943.6,1948.46,1946.23,1939.62,1941.13,1949.42,1962.04,1959.84,1962.63,1964.93,1962.66,1968.89,1970.19,1967.29,1967.68,1958.99,1971.59,1965.77,1963.71,1953.8,1950.98,1949.06,1946.84,1949.53,1943.37,1942.07,1941.52,1941.84,1941.98,1942.64,1942.48,1942.88,1943.77,1945.02,1946.9,1948.99,1950.1,1952.5,1955.33,1957.42,1959.24,1960.23,1960.43,1960.44,1959.45,1958.41,1956.1,1953.49,1950.19,1946.62,1942.93,1939.37,1936.05,1933,1931.11,1929.66,1928.96,1929.1,1929.91,1931.19,1932.63,1933.73,1935.06,1935.71,1936.13,1936.41,1936.8,1936.99,1936.05,1934.84,1933.11,1931.31,1934.46,1933.17,1931.65,1926.26,1925.9,1926.17,1926.78,1927.81,1928.98,1929.82,1930.66,1931.82,1932.76,1934.29,1936.57,1937.58,1938.49,1938.88,1939.66,1939.92,1940.39,1940.66,1940.13,1939.39,1939.05,1938.44,1937.38,1936.06,1934.04,1930.62,1927.99,1926.05,1924.15,1922.54,1921.83,1922.42,1923.99,1926.31,1929.92,1933.34,1936.74,1940.26,1944.19,1948.26,1951.82,1955.11,1957.17,1959.84,1960.19,1959.5,1958.19,1956.21,1953.93,1955.55,1952.58,1951.08,1949.76,1949.62,1949.71,1949.8,1950.67,1947.68,1948.32,1949.27,1948.82,1947.79,1947.01,1946.38,1945.67,1945.2,1943.79,1942.31,1941.54,1940.9,1940.25,1939.66,1939.21,1939.28,1939.27,1940.16,1940.69,1940.97,1940.87,1940.78,1940.11,1939.37,1939,1938.65,1938.72,1939.51,1940.36,1941.42,1942.85,1944.19,1946.67,1948.86,1951.13,1953.59,1955.25,1956.64,1957.66,1957.46,1957.22,1956.54,1955.08,1952.78,1950.01,1948.11,1946.45,1944.73,1944.72,1944.5,1943.91,1943.76,1944.13,1943.64,1942.28,1940.5,1937.99,1935.43,1932.46,1930.08,1928.48,1927.18,1926.18,1925.76,1925.34,1926.4,1927.64,1929.53,1930.42,1932.27,1933.73,1935.05,1935.49,1935.37,1934.29,1932.5,1929.93,1928.52,1925.78,1923.66,1921.44,1920.04,1919.29,1919.24,1919.17,1919.92,1920.2,1921.69,1922.89,1924.62,1926.76,1928.88,1929.89,1930.4,1930.14,1929.88,1928.45,1925.96,1923.05,1919.71,1916.51,1914.75,1914.47,1914.1,1913.58,1912.8,1913.17,1914.09,1916.37,1918.24,1919.26,1919.9,1920.76,1921.76,1923.22,1924.02,1924.79,1924.04,1922.84,1921.26,1919.45,1917.23,1914.35,1911.26,1909.83,1907.72,1906.95,1907.79,1908.91,1910,1911.16,1913.19,1915.8,1917.44,1920.46,1923.36,1925.89,1928.71,1931.77,1934.58,1937.62,1939.83,1940.72,1941.14,1941.08,1941,1940.44,1939.54,1938.88,1937.16,1935.57,1934.68,1936.94,1936,1934.55,1933.29,1932.01,1930.99,1933.79,1937.02,1936.41,1935.91,1934.83,1933.46,1932.38,1930.76,1929.1,1928.02,1926.36,1925.19,1924.5,1923.85,1924.16,1921.33,1918.76,1920.67,1918.74,1921.34,1923.83,1925.78,1928.44,1930.85,1932.28,1933.74,1934.68,1934.91,1935.06,1934.54,1934.14,1933.6,1936.36,1935.59,1935
2514.45,2515.09,2514.83,2514.42,2514.92,2515.21,2515.88,2515.69,2514.52,2512.1,2510.33,2509.13,2507.48,2505.47,2502.86,2502.44,2502.33,2502.6,2504.33,2504.42,2503.71,2500.72,2495.36,2489.43,2481.99,2473.74,2465.67,2461.68,2454.98,2445.04,2428.44,2409,2380.71,2334.95,2244.17,1844.19,1069.82,2018.04,2013.72,1997.27,1970.25,1956.24,1952.72,1951.55,1950.29,1959.99,1953.74,1947.69,1946.71,1959.24,1957.69,1952.29,1956.28,1955.86,1955.49,1954.81,1953.81,1952.27,1950.75,1949.08,1946.83,1944.72,1942.99,1952.36,1952.97,1955.1,1957.45,1959.71,1962.73,1961.87,1964.8,1967.38,1970.08,1972.28,1974.02,1976.18,1977.75,1978.52,1978.97,1978.55,1977.02,1974.98,1972.5,1965.18,1953.23,1946.47,1944.09,1941.9,1940.44,1939.84,1939.81,1939.51,1940.17,1940.15,1940.9,1942.15,1943.95,1946.02,1948.52,1954.9,1957.85,1961.18,1963.5,1970.15,1966.4,1961.85,1960.9,1959.2,1957.17,1953.86,1950.17,1946.25,1941.73,1937.86,1934.48,1931.33,1928.83,1927.97,1927.64,1927.98,1929.4,1931.4,1933.93,1937.3,1940.45,1943.04,1944.75,1945.81,1946.9,1947.52,1947.74,1947.04,1945.54,1942.97,1940.44,1938.24,1936.5,1939.36,1937.55,1931.78,1931.17,1931.31,1932.16,1932.95,1933.82,1934.69,1935.76,1936.63,1938.07,1939.92,1941.15,1942.22,1942.41,1942.87,1943.02,1943.29,1943.42,1942.78,1941.68,1940.92,1939.68,1938.56,1937,1934.8,1931.49,1928.84,1926.79,1924.77,1923.16,1922.68,1923.02,1924.26,1926.49,1929.76,1933.32,1936.61,1940.37,1944.67,1949.35,1953.72,1957.4,1960.24,1963.42,1964.66,1964.78,1963.91,1961.79,1959.47,1960.84,1957.59,1955.83,1954.03,1952.91,1952.55,1952.26,1952.8,1957.06,1953.09,1949.55,1948.67,1947.42,1946.32,1945.2,1944.31,1944,1942.76,1941.63,1941.1,1940.97,1940.29,1939.79,1939.79,1939.8,1939.8,1940.72,1941.49,1941.62,1941.55,1941.35,1940.62,1939.97,1939.41,1938.92,1939.11,1939.66,1940.35,1941.66,1942.75,1944.06,1946.39,1948.35,1950.25,1952.18,1953.26,1954.04,1954.38,1953.4,1952.49,1951.21,1949.26,1947.04,1944.27,1942.71,1941.38,1940.48,1941.59,1942.25,1942.83,1943.59,1944.7,1944.77,1944.14,1943.06,1940.82,1938.58,1936.13,1934.21,1932.8,1931.42,1930.81,1930.27,1929.98,1931.22,1932.41,1934.21,1935.04,1936.57,1937.73,1938.75,1938.63,1938.05,1936.76,1934.86,1931.86,1930.02,1927.68,1925.69,1923.7,1922.74,1922.14,1922,1922.42,1923.51,1924.22,1925.63,1926.74,1928.79,1930.71,1932.84,1934.33,1934.66,1934.25,1933.68,1932.29,1929.28,1926.14,1922.51,1919.1,1916.83,1916.37,1916.2,1915.36,1914.41,1914.7,1915.06,1916.83,1918.13,1918.54,1918.89,1919.34,1920.14,1921.49,1922.54,1923.44,1923.31,1922.57,1922.06,1921.19,1920.05,1918.42,1916.27,1915.56,1914.37,1913.81,1914.67,1915.71,1916.42,1917.35,1918.61,1920.59,1921.28,1923.78,1925.97,1927.86,1930.3,1932.91,1935.46,1938.44,1940.62,1941.51,1941.74,1941.59,1941.24,1940.46,1939.31,1938.25,1939.49,1937.48,1935.9,1934.08,1932.78,1930.76,1929.21,1928.04,1931.01,1934.42,1934.27,1934.29,1934.31,1933.76,1933.4,1932.86,1931.95,1930.57,1929.59,1928,1927.1,1926.68,1925.71,1922.03,1918.76,1919.58,1921.22,1919.09,1921.39,1923.27,1924.85,1927.36,1929.22,1930.49,1931.98,1932.93,1933.15,1933.17,1932.92,1932.45,1935.8,1934.87,1934.17,1933.32
2510.43,2508.93,2510.83,2512.07,2513.79,2516.35,2518.99,2521.14,2521.59,2521.51,2521.47,2521.87,2521.76,2520.56,2519.7,2519.56,2520.35,2521.38,2522.95,2523.15,2521.77,2517.65,2510.94,2503.12,2493.56,2483.07,2471.85,2462.54,2451.5,2435.7,2415.19,2391.24,2356.5,2307.22,2206.2,2049.53,1027.17,2072.86,2017.85,1991.29,1967.23,1954.71,1952.21,1951.23,1950.45,1955.17,1949.28,1948.33,1947.69,1946.94,1959.16,1958.49,1953.91,1958.07,1957.52,1956.67,1955.41,1949.64,1951.83,1949.55,1946.85,1944.51,1942.73,1951.95,1952.28,1954.4,1956.76,1958.91,1962,1964.94,1967.85,1967.01,1969.88,1971.91,1973.95,1976.4,1978.18,1979.09,1979.99,1979.53,1977.95,1975.53,1973.14,1969.56,1962.05,1950.22,1943.24,1940.66,1939.09,1938.4,1938.21,1937.93,1938.42,1938.58,1939.3,1941.09,1943.08,1950.65,1953.53,1956.31,1959.96,1968.09,1970.77,1973.05,1973.46,1968.45,1967.32,1960.05,1957.06,1953.14,1948.45,1943.73,1939.15,1935.12,1931.79,1928.86,1927.08,1926.65,1927.3,1928.47,1930.43,1933.33,1936.84,1940.95,1945.13,1949.14,1951.67,1953.2,1954.68,1956.09,1956.27,1955.95,1954.23,1951.58,1948.6,1946.32,1948.95,1946.31,1943.93,1942.34,1941.34,1936.71,1937.12,1937.54,1938.4,1938.98,1939.61,1940.2,1941.17,1942.8,1943.66,1944.17,1944.26,1944.65,1944.16,1944.34,1943.83,1942.84,1941.51,1940.38,1938.96,1937.57,1935.84,1933.54,1930.6,1927.98,1925.99,1924.12,1922.88,1922.35,1923.18,1924.55,1926.84,1930.32,1933.83,1937.37,1941.18,1945.88,1951.27,1956.31,1960.93,1964.14,1967.76,1969.71,1970.15,1969.81,1967.69,1964.91,1962.09,1963.01,1960.99,1958.54,1957.02,1955.76,1955.25,1958.85,1958.28,1953.69,1953.19,1947.86,1946.02,1944.89,1943.48,1942.43,1942.2,1941.16,1940.33,1940.26,1940.47,1939.92,1939.33,1939.62,1939.85,1939.83,1940.79,1941.59,1941.74,1941.74,1941.46,1940.79,1940.08,1939.95,1939.4,1939.46,1939.96,1940.82,1941.92,1943.13,1944.48,1946.46,1948.26,1949.78,1951.43,1952.01,1952.08,1951.72,1949.69,1947.85,1946.3,1943.86,1941.42,1938.71,1937.35,1936.73,1936.67,1938.62,1940.48,1942.12,1943.93,1945.65,1946.87,1946.9,1946.26,1944.54,1942.56,1940.51,1939.12,1937.88,1936.49,1935.96,1935.41,1935.31,1936.64,1937.64,1939.3,1940.04,1941.04,1942.23,1942.84,1942.48,1941.7,1940.09,1937.71,1934.77,1932.82,1930.35,1928.63,1926.8,1926.09,1925.45,1925.59,1925.95,1926.98,1927.68,1928.7,1929.76,1931.56,1933.56,1935.63,1937.09,1937.37,1936.7,1936.05,1934.35,1931.74,1928.64,1924.7,1921.22,1918.91,1918.41,1918.35,1917.51,1916.42,1916.31,1916.3,1917.57,1918.41,1918.72,1918.31,1918.68,1919.12,1920.33,1921.5,1922.82,1923.01,1923.09,1923.11,1923.33,1923.12,1922.39,1921.65,1921.73,1921.38,1921.21,1921.97,1922.92,1923.48,1924.06,1924.64,1925.4,1925.52,1927.1,1929.03,1930.1,1931.91,1933.98,1936.22,1938.94,1941.09,1941.88,1941.56,1941.1,1940.78,1939.68,1938.19,1940.21,1937.49,1935.03,1933.17,1931.27,1929.58,1927.59,1925.79,1928.83,1932.19,1932,1932.61,1933.12,1933.74,1933.77,1933.93,1933.85,1933.26,1932.18,1931.47,1930.44,1929.28,1928.7,1927.62,1923.66,1920.09,1920.61,1921.65,1918.98,1920.54,1921.93,1923.12,1925.41,1926.88,1927.98,1937,1937.74,1937.85,1934.09,1934.04,1933.65,1933.2,1932.14,1931.44,1930.88
2509.04,2510.58,2512.62,2513.19,2514.33,2517.55,2520.55,2524.88,2527,2528.11,2529.52,2531.93,2533.56,2533.95,2533.81,2535.07,2537.07,2539.02,2541.15,2541.49,2539.44,2534.93,2526.88,2517.69,2505.78,2492.48,2477.68,2463.48,2448.33,2428.57,2402.49,2372.19,2331.7,2263.85,2203.1,1848.36,1744,2063.6,2007.81,1981.8,1962.83,1952.58,1950.86,1950.12,1950.06,1949.72,1949.64,1948.71,1948.39,1948.09,1960.53,1960.13,1960.07,1956.62,1958.95,1957.96,1956.42,1954.15,1947.88,1949.24,1946.43,1943.4,1941.37,1940.02,1940.57,1953.06,1945.11,1947.6,1955.29,1958.63,1961.69,1969.15,1968.55,1970.9,1973.22,1976.24,1978.51,1979.82,1981.08,1981.01,1979.18,1976.78,1974.34,1966.34,1962.78,1959.28,1952.64,1940.95,1939.33,1943.16,1938.24,1937.8,1938.19,1938.62,1939.78,1946.62,1949.36,1952.26,1955.68,1963.56,1967.75,1972.21,1975.23,1977.09,1976.97,1975.72,1973.75,1965.7,1957.37,1952.56,1947.07,1942.41,1937.56,1933.72,1930.85,1928.45,1927.02,1927.5,1928.5,1930.49,1933.3,1936.97,1940.86,1945.94,1950.93,1955.98,1958.93,1961.22,1962.89,1964.27,1964.78,1964.67,1963.2,1960.25,1956.97,1958.71,1956.13,1953.21,1950.43,1948.05,1946.22,1945.42,1945.22,1940.89,1941.23,1941.53,1942.23,1942.22,1942.87,1943.86,1944.1,1943.94,1943.92,1943.64,1942.86,1942.4,1942.14,1941.01,1939.53,1938.23,1936.47,1934.79,1933.18,1931.22,1928.33,1925.68,1923.71,1922.15,1921.36,1920.98,1921.93,1923.57,1925.65,1928.94,1932.66,1936.56,1940.47,1945.52,1951.31,1957.08,1961.97,1965.95,1970.15,1972.89,1973.55,1973.51,1971.49,1969.16,1966.17,1963.18,1964.63,1962.01,1959.67,1958.05,1956.52,1959.96,1958.77,1957.19,1951.87,1950.05,1944.43,1943.15,1941.57,1940.74,1940.54,1939.76,1939.44,1939.78,1940.12,1939.76,1939.67,1940.14,1940.3,1940.22,1941.14,1941.72,1941.9,1941.96,1941.78,1940.89,1940.23,1940.28,1939.72,1939.45,1940.3,1941.15,1942.1,1943.38,1944.8,1946.66,1947.97,1949.44,1950.59,1951.14,1950.6,1949.57,1946.98,1944.52,1942.59,1939.57,1936.9,1934.2,1932.88,1933.06,1933.84,1936.54,1939.57,1941.8,1944.43,1947.14,1949.05,1949.88,1949.76,1948.4,1946.9,1945.28,1943.71,1942.75,1941.71,1940.86,1940.29,1940.05,1941.28,1942.08,1943.36,1944.35,1945.2,1945.77,1945.84,1945.27,1944.41,1942.48,1940.16,1937.26,1934.97,1932.68,1930.93,1929.23,1928.49,1928.24,1928.07,1928.43,1929.19,1929.91,1931.03,1931.87,1933.62,1935.18,1937.3,1938.85,1939.16,1938.24,1937.45,1935.55,1933.2,1929.98,1926.25,1922.61,1920.46,1920.02,1920.09,1919.33,1918.32,1917.56,1917.19,1918.1,1918.88,1918.65,1918.2,1918.13,1918.72,1919.92,1920.98,1922.49,1923.08,1923.66,1924.67,1925.69,1926.5,1927.07,1927.18,1928.08,1928.19,1928.59,1929.27,1930.26,1930.64,1930.66,1930.59,1930.53,1930.26,1931.08,1932,1932.56,1933.64,1934.99,1936.71,1939.08,1940.69,1941.06,1940.61,1939.86,1938.86,1937.81,1939.93,1938.05,1934.9,1932.27,1930.45,1928.3,1926.8,1924.87,1927.47,1930.47,1930.17,1930.58,1931.47,1932.5,1933.74,1934.29,1934.83,1934.9,1934.61,1933.98,1933.58,1932.44,1931.4,1930.59,1929.4,1929.01,1925.14,1917.42,1917.93,1918.68,1923.45,1924.27,1921.21,1926.88,1928.28,1933.06,1934.1,1934.64,1934.65,1935.04,1934.96,1930.62,1930.37,1929.58,1928.84,1924.31
2510.06,2512.16,2515.64,2517.54,2518.64,2521.69,2523.64,2528.75,2531.46,2533.18,2535.9,2539.43,2541.9,2544.01,2545.47,2548.15,2551.19,2553.92,2556.7,2557.43,2555.74,2550.49,2542.02,2531.07,2517.74,2502.33,2485.86,2468.95,2451.47,2429.16,2399.4,2363.8,2317.39,2235.78,2097.84,887.46,1861.82,2043.69,1989.9,1971.7,1956.71,1950.52,1949.33,1949.17,1949.24,1949.31,1949.19,1954.14,1948.4,1948.32,1961.22,1960.55,1960.1,1959.38,1965.27,1952.89,1954.88,1951.97,1941.45,1942.32,1942.95,1940.29,1937.96,1936.61,1937.17,1939.6,1952.22,1943.99,1946.55,1954.26,1962.41,1966.22,1970.11,1969.26,1972.12,1975.77,1982.64,1980.56,1982.21,1982.4,1980.74,1978.63,1971.56,1967.32,1963.77,1960.28,1953.68,1951.16,1940.33,1939.76,1944.06,1939.06,1939.65,1940.16,1941.62,1944.63,1952.78,1956.22,1965.31,1969.27,1973.86,1978.55,1981.27,1983.06,1982.12,1980.22,1977.67,1973.42,1967.99,1953.69,1951.71,1946.8,1937.82,1934.51,1931.84,1929.77,1928.76,1929.91,1931.86,1934.37,1937.59,1941.74,1946.31,1951.8,1957.58,1963.22,1966.26,1968.4,1974.93,1976.39,1976.66,1976.35,1970.43,1967.37,1963.67,1965.53,1962.27,1958.35,1954.79,1951.87,1949.04,1947.49,1946.68,1946.15,1941.74,1941.76,1941.91,1942.04,1942.4,1942.72,1942.62,1942.16,1941.65,1941.09,1940.36,1939.28,1938.33,1937.3,1935.87,1934.27,1932.35,1930.73,1928.75,1926.75,1923.98,1921.55,1919.67,1917.97,1917.12,1917.47,1918.3,1919.66,1921.85,1925.16,1929.15,1933.31,1937.7,1942.87,1948.78,1954.3,1959.5,1964.07,1969.51,1972.66,1973.96,1974.91,1973.51,1971.08,1968.6,1966.07,1967.3,1964.38,1961.64,1959.35,1957.38,1959.89,1958.24,1956.34,1950.15,1947.95,1942.25,1940.92,1939.23,1938.19,1937.92,1937.81,1938.24,1938.84,1939.52,1939.38,1939.39,1940.23,1940.59,1940.51,1941.35,1941.99,1942.03,1941.85,1941.61,1940.88,1940.09,1939.89,1939.51,1939.29,1940.15,1940.97,1942.02,1943.23,1944.78,1946.38,1947.49,1948.89,1949.93,1949.93,1949.21,1947.99,1944.86,1941.83,1939.38,1936.31,1933.73,1931.17,1930.27,1930.7,1932,1935.74,1939.17,1942.43,1945.99,1949.72,1952.27,1953.62,1954.02,1953.15,1952.03,1950.81,1949.43,1948.31,1946.9,1945.96,1945.02,1944.81,1945.86,1946.46,1947.46,1948.21,1948.85,1949.1,1949.06,1948.27,1947.05,1944.88,1942.68,1939.81,1937.32,1934.99,1933.08,1931.51,1930.88,1930.12,1930.02,1930.07,1930.6,1931.63,1932.74,1933.6,1935.26,1936.83,1938.79,1940.66,1940.96,1940.25,1939.44,1937.7,1935.12,1932,1928.6,1925.11,1922.65,1922.1,1922.12,1921.26,1920.14,1919.42,1918.78,1919.19,1919.64,1919.33,1918.77,1918.73,1919.01,1920.06,1921.23,1923.04,1924.05,1925.4,1927.04,1928.78,1930.54,1932.08,1932.96,1934.23,1934.99,1935.59,1936.32,1936.97,1937.28,1936.97,1936.22,1935.7,1934.82,1934.94,1934.93,1934.53,1934.92,1935.44,1936.47,1938.23,1939.32,1939.59,1938.58,1937.55,1936.25,1938.87,1937.09,1935,1931.93,1929.49,1927.77,1925.61,1924.49,1926.9,1929.58,1929.02,1929.1,1929.91,1931.03,1932.61,1934.11,1935.08,1935.81,1936.06,1936.01,1935.46,1934.94,1933.72,1932.69,1931.93,1930.52,1929.97,1929.39,1921.46,1921.46,1917.91,1922.36,1926.46,1926.93,1928.33,1929.31,1929.97,1930.78,1931.33,1931.11,1931.42,1931.47,1927.34,1927.03,1926.24,1921.46,1924.85
2510.12,2512.29,2516.46,2518.95,2520.19,2524.1,2527.37,2532.52,2534.42,2536.89,2539.78,2544.49,2548.17,2551.47,2554.41,2558.55,2562.63,2566.88,2570.39,2571.59,2570.08,2564.68,2555.28,2543.58,2528.88,2511.78,2493.64,2475.68,2456.11,2431.66,2388.73,2354.61,2302.22,2241.58,2072.07,1778.71,2044.44,2035.03,1986.88,1963.08,1951.3,1947.71,1947.41,1947.5,1948.05,1948.07,1947.98,1947.56,1952.23,1952.2,1947.14,1946.84,1946.34,1959.63,1958.4,1958.04,1959.41,1945.5,1938.01,1934.7,1941.01,1936.58,1934.48,1933.03,1929.5,1931.84,1939.22,1950.63,1948.94,1941.84,1954.62,1964.06,1968.42,1972.15,1971.83,1976,1979.57,1982.23,1984.5,1980.17,1983.18,1980.88,1969.82,1966.1,1962.67,1963.24,1956.9,1954.52,1953.33,1943.63,1943.41,1947.67,1943.77,1944.64,1946.58,1949.95,1953.6,1962.42,1967.01,1976.25,1981.53,1985.6,1988.2,1989.53,1988,1985.27,1981.73,1980.98,1970.94,1968.93,1953.7,1948.63,1940.03,1940.9,1934.54,1932.76,1932.18,1933.66,1935.76,1938.81,1942.27,1946.69,1951.58,1957.52,1963.64,1970.3,1977.69,1980.31,1982.45,1984.02,1984.44,1984.24,1982.1,1978.91,1974.88,1971.62,1967.56,1963.09,1958.8,1954.9,1951.11,1949.12,1947.72,1946.41,1945.9,1940.95,1940.93,1940.68,1940.37,1940.4,1939.57,1938.66,1937.99,1937.11,1935.56,1934.45,1933.44,1931.92,1930.34,1928.97,1927.01,1925.05,1923.05,1921.24,1918.5,1916.2,1914.48,1912.81,1911.54,1911.55,1912.8,1913.87,1915.9,1918.76,1922.25,1926.22,1930.95,1936.19,1941.73,1947.24,1952.34,1957.78,1963.94,1967.84,1970.29,1971.73,1971.19,1969.42,1968,1966.05,1967.81,1964.18,1961.27,1958.36,1956.26,1954.42,1956.29,1953.6,1947.15,1944.85,1943.01,1938.03,1936.11,1935.45,1935.49,1935.83,1936.55,1937.83,1938.7,1938.97,1939.15,1940.43,1940.94,1940.9,1941.44,1941.94,1941.94,1941.73,1941.44,1940.49,1939.94,1940.06,1939.56,1939.5,1940.16,1940.81,1941.92,1943.32,1944.64,1945.96,1946.8,1947.94,1949.01,1949.04,1948.29,1946.55,1943.47,1940.12,1937.5,1934.6,1931.99,1929.42,1929.02,1929.77,1931.6,1935.64,1939.7,1943.63,1947.49,1951.9,1955.36,1957.01,1957.89,1957.27,1956.69,1955.65,1954.06,1952.66,1950.69,1949.52,1948.3,1947.81,1948.41,1948.38,1948.7,1949.48,1950.18,1950.58,1950.43,1949.32,1948.31,1946.1,1944.09,1941.37,1938.83,1936.6,1934.71,1932.94,1932.39,1931.49,1931.1,1931.01,1931.7,1932.61,1933.83,1934.89,1936.67,1938.25,1940.42,1942.31,1942.88,1942.21,1941.23,1939.93,1937.56,1934.51,1931.28,1927.75,1925.39,1924.42,1924.2,1923.32,1922.22,1921.38,1920.41,1920.76,1921.01,1920.66,1920.28,1920.12,1920.31,1921.4,1922.91,1924.9,1926.37,1928.02,1930.53,1932.91,1935.28,1937.35,1938.67,1940.38,1941.25,1941.94,1942.56,1943.02,1942.94,1942.4,1941.05,1939.99,1938.43,1937.53,1936.84,1935.54,1934.97,1934.67,1934.8,1935.86,1936.62,1936.4,1935.33,1933.96,1936.54,1935.21,1933.44,1931.53,1928.99,1926.62,1925.09,1923.78,1926.98,1929.78,1929.11,1928.84,1929.19,1930.29,1931.89,1933.53,1935.33,1936.24,1937.1,1937.26,1937.31,1936.86,1936.42,1935.27,1933.93,1933.12,1931.54,1930.74,1929.93,1929.17,1924.93,1924.8,1925.08,1924.89,1925.04,1925.87,1926.66,1927.21,1927.79,1928.07,1927.75,1927.76,1927.81,1923.54,1923.57,1922.81,1922.11,1921.68
2510.19,2512.73,2515.89,2518.27,2519.95,2524.13,2528.18,2533.18,2536.58,2539.47,2543.54,2549.58,2554.54,2559.11,2563.27,2567.12,2572.36,2577.42,2581.23,2583.6,2582.01,2576.19,2566.09,2554.25,2538.46,2520.52,2501.31,2482.3,2461.53,2430.32,2393.9,2351.99,2289.92,2222.69,1854.87,1780.6,2067.51,2024.37,1977.57,1956.04,1946.41,1944.14,1943.85,1944.4,1944.89,1945.01,1945.04,1944.84,1955.11,1954.96,1945.01,1944.87,1944.32,1943.61,1948.15,1950.29,1948.64,1949.3,1940.26,1931.24,1932.03,1944.44,1930.98,1929.69,1926.21,1928.39,1926.19,1947.02,1945.51,1948.26,1942.14,1956.37,1966.45,1970.46,1966.49,1975.42,1979.58,1982.85,1985.47,1981.26,1979.66,1978.48,1972.17,1968.75,1965.77,1963.17,1961.21,1959.51,1958.4,1958.16,1948.79,1948.89,1950.05,1951.53,1953.65,1957.71,1961.49,1966.24,1975.93,1980.69,1990.35,1993.58,1995.24,1996.02,1993.61,1989.93,1985.23,1979.67,1973.63,1971.53,1956.6,1951.59,1943.13,1940.72,1938.97,1938.07,1937.56,1939.57,1942.09,1944.76,1948.79,1953.27,1958.36,1964.29,1970.35,1977.64,1985.3,1988.23,1990.74,1992.34,1992.77,1992.21,1990.07,1986.74,1981.93,1977.94,1973.41,1967.91,1962.53,1957.93,1953.49,1950.57,1948.35,1946.73,1946.04,1945.38,1940.09,1939.41,1938.66,1938.13,1936.86,1935.43,1934.54,1933.29,1931.84,1930.25,1929.05,1927.62,1925.93,1924.47,1922.85,1920.61,1918.7,1916.83,1914.33,1912.08,1910.6,1908.69,1907.5,1907.34,1908.32,1909.3,1910.53,1912.46,1915.65,1919.17,1923.48,1928.73,1933.57,1938.77,1943.84,1949.56,1956.32,1960.69,1964.04,1966.19,1966.43,1965.76,1965.08,1963.99,1961.91,1958.57,1959.33,1956.66,1953.75,1951.93,1949.67,1950.88,1947.64,1941.62,1939.76,1934.86,1933.33,1932.66,1933.11,1933.82,1934.94,1936.78,1937.94,1938.36,1938.98,1940.47,1940.95,1940.82,1941.26,1941.51,1941.55,1941.4,1940.94,1940.13,1939.68,1939.97,1939.77,1939.66,1940.23,1941.02,1941.81,1943.17,1944.55,1945.56,1946.32,1947.26,1948.03,1948.35,1947.81,1946.15,1942.87,1939.71,1937.39,1934.44,1932.12,1930.09,1929.81,1930.8,1933.15,1936.9,1941.47,1945.52,1949.69,1954.3,1957.81,1959.81,1960.94,1960.79,1960.66,1959.71,1958.03,1956.45,1954.21,1952.53,1951.16,1950.06,1950.06,1949.78,1949.94,1950.64,1951.21,1951.44,1951.19,1950.4,1949.19,1947.41,1945.62,1942.84,1940.21,1937.88,1935.98,1934.09,1933.25,1932.53,1931.73,1931.64,1932.15,1933.32,1934.26,1935.52,1937.39,1939.04,1941.66,1943.97,1944.69,1944.49,1943.73,1942.56,1940.69,1937.99,1934.63,1931.23,1928.52,1927.26,1926.87,1925.81,1924.56,1923.54,1922.29,1922.37,1922.52,1922.16,1921.87,1921.64,1922.01,1923.23,1924.61,1926.89,1928.6,1930.89,1933.59,1936.46,1939.07,1941.65,1943.39,1945.06,1946.08,1946.89,1947.31,1947.44,1947.24,1946.41,1944.4,1942.61,1940.68,1939.39,1937.82,1935.86,1934.65,1933.48,1933.17,1933.62,1933.88,1933.57,1932.4,1930.91,1929.68,1932.33,1930.89,1929.22,1927.16,1925.52,1924.52,1927.68,1931.26,1930.89,1930.53,1930.55,1931.05,1932.42,1933.98,1935.8,1937.46,1938.49,1939.32,1939.67,1939.78,1939.24,1938.54,1937.26,1936.03,1934.86,1933.1,1932.08,1931,1929.91,1929.22,1928.81,1924.74,1924.15,1927.66,1928.01,1924.62,1924.74,1925.13,1925.05,1924.33,1924.44,1920.47,1920.07,1920,1919.24,1914.53,1913.92
2510.65,2513.58,2516.53,2518.68,2520.77,2524.69,2530.04,2536.3,2541.67,2545.43,2550.83,2558.29,2564.43,2569.7,2574.65,2579.14,2584.09,2588.65,2592.73,2595.42,2594.41,2587.62,2577.33,2565.09,2549.23,2531.19,2511.62,2492.03,2465.48,2432.51,2393.18,2347.55,2270.39,2170.52,1795.32,1945.57,2062.82,2014.46,1969.2,1949.59,1942.12,1940.41,1941.14,1941.71,1942.29,1942.54,1948.3,1948.25,1958.71,1959.08,1948.8,1954.38,1953.62,1952.68,1940.04,1948.78,1945.58,1941.91,1942.97,1928.97,1925.42,1921.19,1934.26,1921.6,1922.11,1919.79,1917.78,1932.3,1941.34,1944,1948.3,1957.86,1963.3,1963.12,1959.64,1969.03,1978.71,1982.4,1980.54,1986.47,1985.69,1980.17,1969.51,1971.79,1969.83,1962.84,1966.5,1965.61,1965.01,1965.43,1960.82,1956.23,1957.92,1959.68,1962.38,1966.53,1970.73,1975.06,1979.66,1983.9,1987.74,1989.86,1990.4,1994.93,1991.74,1992.32,1987.46,1981.5,1975.14,1969.59,1955.11,1951.17,1947.31,1945.59,1944.94,1944.65,1944.85,1946.99,1949.57,1952.43,1956.31,1960.93,1966.02,1971.51,1977.52,1985.1,1988.51,1991.62,1994.77,1996.33,1996.47,1995.63,1993.29,1989.29,1984.41,1979.77,1974.42,1967.81,1961.76,1956.07,1950.46,1946.53,1943.6,1941.52,1940.26,1939.08,1938.07,1936.81,1936.03,1934.87,1933.18,1931.72,1930.61,1929.32,1927.58,1926.24,1925.08,1923.59,1922.57,1921.17,1920.02,1918.02,1916.35,1914.56,1912.34,1910.54,1908.9,1906.99,1905.06,1904.56,1905.06,1905.25,1905.4,1906.48,1908.67,1911.9,1915.74,1919.89,1924.54,1929.32,1934.14,1940.66,1947.46,1952.62,1956.03,1959.24,1960.66,1961.08,1960.78,1960.28,1958.55,1955.14,1952.06,1949.13,1946.21,1944.21,1941.84,1943.18,1939.95,1941.75,1936.41,1931.53,1930.4,1930.02,1930.68,1932.05,1933.56,1935.73,1937.07,1938.07,1939.06,1940.65,1941.07,1941.04,1941.37,1941.7,1941.5,1941.27,1940.85,1940.18,1939.89,1940.16,1939.91,1939.99,1940.5,1941.08,1942.03,1943.19,1944.55,1945.07,1945.56,1946.67,1947.19,1947.45,1947.05,1945.56,1943.05,1940.24,1938.02,1935.47,1933.42,1932.02,1931.85,1933.04,1935.56,1939.18,1943.57,1947.84,1952.03,1956.52,1960.39,1962.55,1963.89,1964.06,1964.08,1963.32,1961.38,1959.76,1957.12,1954.72,1953.2,1951.31,1950.79,1949.73,1949.37,1950.03,1950.45,1950.69,1950.39,1949.75,1948.87,1947.09,1945.64,1943.31,1940.72,1938.49,1936.72,1934.99,1933.56,1932.52,1931.67,1931.28,1931.6,1932.82,1933.95,1935.17,1937.41,1939.49,1942.07,1944.64,1945.81,1946.15,1945.78,1944.86,1942.95,1940.57,1937.65,1934.38,1931.34,1929.54,1928.67,1927.24,1925.73,1924.08,1922.94,1922.96,1923.01,1922.96,1922.83,1922.81,1923.39,1924.87,1926.46,1929.01,1931.19,1933.42,1936.5,1939.5,1942.2,1944.74,1946.64,1948.15,1948.81,1949.37,1949.59,1949.48,1948.88,1947.8,1945.45,1942.88,1940.84,1938.85,1937.11,1934.98,1932.92,1931.58,1930.85,1931.05,1931.05,1930.43,1929.39,1927.87,1926.8,1925.94,1928.84,1927.54,1926.27,1925.21,1928.8,1932.5,1932.77,1932.59,1932.73,1933.27,1933.92,1935.21,1936.78,1938.55,1940.06,1940.8,1941.54,1941.61,1941.53,1940.97,1936.15,1938.61,1937.39,1936.04,1934.25,1932.82,1931.56,1930.36,1929.24,1928.69,1928.22,1927.32,1926.69,1922.99,1926.87,1922.92,1923.09,1922.73,1921.87,1921.85,1917.88,1917.2,1913.06,1912.66,1911.75,1911.13
2513.71,2516.43,2518.68,2520,2521.6,2525.24,2530.62,2538.14,2543.7,2548.34,2554.69,2563.48,2571.72,2578.23,2584.6,2589.75,2594.38,2600.77,2604.75,2607.26,2604.89,2598.01,2587.78,2575.7,2560.39,2542.44,2522.94,2503.46,2481.67,2441.93,2400.96,2352.32,2277.47,2116.94,1596.54,1818.6,1961.48,2007.27,1966.92,1943.59,1937.78,1943.85,1945.83,1946.2,1947.03,1953.2,1953.43,1953.41,1964.37,1964.73,1964.38,1954.08,1953.24,1952.18,1950.57,1947.85,1944.26,1945.17,1941.07,1937.54,1929.38,1934.97,1932.3,1930.16,1930.74,1928.33,1929.94,1940.08,1938.13,1940.96,1945.38,1955.38,1961.22,1966.23,1971.56,1972.52,1977.65,1981.77,1985.21,1986.7,1982.51,1981.96,1977,1975.7,1974.52,1973.5,1972.84,1972.8,1973.19,1963.61,1964.41,1965.39,1967.74,1969.9,1978.03,1982.1,1985.94,1994.64,1997.87,1995.45,1997.14,1996.91,2000.98,1999.33,1995.47,1990.84,1976.59,1971.35,1969.65,1970.71,1957.59,1960.01,1957.64,1951.76,1952.61,1953.55,1954.56,1957.52,1960.7,1963.99,1967.5,1972.19,1976.67,1981.6,1986.84,1993.76,1996.44,1999.57,2002.49,2003.81,2003.9,2003.06,2000.44,1996.42,1990.88,1985.98,1979.95,1977.89,1970.8,1964.34,1957.98,1953.53,1949.57,1946.4,1939.14,1937.51,1935.92,1934.06,1932.24,1931.19,1929.39,1927.52,1926.62,1925.52,1924.18,1923.07,1922.25,1921.05,1920.55,1919.8,1918.61,1917.07,1915.94,1914.62,1912.75,1910.89,1909.2,1906.66,1904.36,1903.56,1903,1901.91,1900.63,1900.82,1902.38,1904.74,1907.5,1911.27,1915.05,1919.56,1924.61,1931.21,1938.6,1943.64,1947.86,1951.72,1953.97,1955.03,1955.79,1955.62,1954.28,1951.05,1948.18,1949.35,1942,1940.19,1937.89,1935.35,1932.38,1934.67,1933.63,1933.13,1928.32,1928.29,1929.19,1930.62,1932.26,1934.7,1936.18,1937.49,1938.69,1940.52,1940.96,1940.91,1940.9,1941.26,1941.09,1941.03,1940.65,1939.99,1939.93,1940.77,1940.84,1940.92,1941.44,1941.94,1942.34,1943.58,1944.93,1945.13,1945.38,1945.98,1946.5,1947.16,1946.9,1945.78,1944.03,1941.86,1940.1,1938.35,1936.74,1935.61,1935.82,1937.08,1939.66,1943.05,1946.74,1951,1955.02,1959.35,1963.34,1965.38,1966.73,1966.9,1967.16,1966.55,1964.62,1962.28,1959.23,1956.73,1954.45,1952.18,1951.12,1949.57,1948.35,1948.52,1948.8,1949.06,1948.85,1948.15,1947.66,1945.9,1944.5,1942.45,1939.86,1937.63,1935.68,1933.86,1932.1,1931.07,1930.09,1929.54,1929.76,1931.11,1932.46,1933.79,1936.25,1938.4,1941.09,1944.19,1945.52,1946.46,1946.56,1945.63,1944.26,1941.95,1939.39,1935.79,1932.95,1930.43,1928.91,1927.26,1925.73,1924.42,1923.12,1922.81,1922.9,1922.91,1923.23,1923.54,1923.89,1925.78,1927.64,1930.03,1932.53,1935.05,1937.8,1940.63,1943.4,1945.73,1947.63,1948.99,1949.58,1949.91,1949.93,1949.61,1948.72,1947.46,1944.97,1942.15,1939.79,1937.71,1935.81,1933.5,1931.52,1929.63,1928.78,1928.71,1928.71,1927.96,1926.92,1925.65,1924.84,1928.26,1927.47,1926.88,1926.03,1929.8,1933.81,1934.15,1934.64,1935.02,1935.43,1935.98,1936.96,1938.22,1939.76,1941.15,1942.34,1943.21,1943.55,1943.47,1935.27,1930.58,1937.6,1936.06,1938.35,1936.96,1935.26,1933.69,1932.31,1930.84,1929.61,1928.92,1928.27,1927.51,1926.81,1926.65,1926.42,1926.29,1922.34,1921.91,1916.77,1916.3,1915.97,1911.56,1911.41,1910.77,1909.76,1909.1
254.68,321.582,2114.86,2523.64,2524.16,2526.98,2532.66,2541.12,2546.99,2554.39,2563.83,2576.29,2586.81,2595.07,2601.07,2606.36,2612.52,2617.67,2620.06,2621.1,2617.19,2608.87,2598.77,2586.49,2572.15,2554.6,2535.74,2516.38,2494.56,2464.44,2421.57,2358.84,2247.46,2000.88,1936.86,1126.86,1872.38,1997.63,1963.4,1947.22,1936.25,1943.63,1946.29,1947.18,1947.72,1953.92,1954.54,1965.39,1966.07,1971.2,1971.03,1960.53,1954.38,1958.4,1951.35,1953.03,1948.97,1949.7,1940.99,1932.32,1928.79,1929.99,1931.15,1928.77,1929.39,1930.96,1936.51,1938.45,1940.59,1939.4,1948.45,1954.58,1960.77,1966.25,1972.03,1973.16,1978.53,1983.12,1986.57,1988.79,1985.35,1986.12,1982.08,1981.62,1981.3,1981.37,1982,1982.47,1982.79,1983.14,1979.1,1975.7,1972.9,1978.94,1986.53,1989.58,1997.08,1998.7,2000.55,2000.61,1999.81,1997.84,1995.76,1993.77,1989.37,1984.69,1980.23,1970.32,1965.4,1962.63,1961.8,1956.52,1960.67,1961.99,1959.45,1962.38,1965.18,1969.39,1973.35,1977.21,1981.26,1985.64,1989.55,1993.68,1998.13,2004.04,2010.98,2013.63,2015.87,2016.59,2016.22,2015.13,2012.43,2008.22,2002.44,2002.45,1990.45,1982.59,1974.82,1967.31,1960.13,1954.66,1949.77,1945.89,1942.93,1940.59,1938.31,1936.21,1928.5,1927.13,1925.6,1923.61,1923.09,1922.6,1921.68,1921.01,1920.69,1920.02,1919.78,1919.75,1919.55,1918.46,1917.6,1916.86,1915.26,1913.28,1911.25,1908.23,1905.19,1903.2,1901.62,1899.46,1897.06,1895.47,1895.86,1896.94,1898.95,1901.39,1904.66,1908.76,1913.54,1920.06,1927.55,1932.49,1937.39,1941.87,1944.87,1946.87,1948.1,1948.4,1947.73,1945.01,1942.78,1940.04,1941.51,1939.63,1937.99,1931.67,1933.23,1928.09,1927.21,1927.15,1930.8,1927.29,1928.56,1930.08,1931.93,1934.28,1936.15,1937.27,1938.43,1940.36,1940.7,1940.56,1940.66,1940.76,1940.69,1940.73,1940.51,1939.94,1940.33,1941.32,1941.61,1941.81,1942.04,1942.13,1942.43,1943.33,1944.21,1944.28,1944.24,1944.81,1945.48,1946.09,1946.25,1945.71,1944.64,1943.35,1942.29,1941.07,1940.25,1939.78,1940.16,1941.96,1944.2,1947.1,1950.57,1954.33,1958.17,1962.21,1965.44,1967.14,1968.08,1968.34,1968.8,1967.87,1965.55,1962.89,1959.52,1956.44,1953.98,1951.36,1949.47,1947.61,1946.19,1945.78,1945.79,1946.03,1945.88,1945.66,1945.16,1943.6,1942.15,1940.31,1937.85,1935.58,1933.62,1931.2,1929.62,1928.25,1927.09,1926.47,1926.76,1928.43,1930.39,1932.26,1934.62,1936.93,1940.09,1943.24,1945.01,1946.28,1946.9,1946.39,1945.15,1942.81,1939.99,1936.39,1933.21,1930.47,1928.39,1926.29,1924.46,1923.03,1921.84,1921.82,1922.02,1922.12,1922.94,1923.89,1924.68,1926.31,1928.72,1931.03,1933.62,1936.15,1938.71,1941.31,1943.77,1946.12,1947.69,1948.69,1949.28,1949.49,1949.35,1948.78,1947.78,1946.37,1944,1941.42,1939.08,1937.06,1935.09,1932.88,1930.48,1928.95,1927.89,1927.6,1927.35,1926.82,1925.85,1928.76,1927.82,1927.61,1927.55,1927.26,1930.95,1935.22,1935.63,1936.38,1937.33,1938.23,1938.69,1939.38,1940.27,1941.31,1942.58,1943.71,1944.75,1945.22,1945.38,1937.08,1932.61,1935.49,1934.09,1940.51,1938.97,1937.33,1935.59,1934.15,1932.29,1930.65,1929.58,1929.12,1928.52,1927.77,1926.97,1926.7,1922.51,1926.16,1921.93,1921.24,1915.9,1915.34,1914.71,1910.13,1909.91,1909.16,1908.14,1907.52
