3996.95,3997.32,3996.55,3998.56,4003.33,4010.57,4020.74,4031.65,4038.33,4044.24,4047.98,4050.99,4051.27,4044.3,4034.65,4024.77,4013.19,4002.42,3991.47,3982.99,3976.4,3972.09,3971.02,3971.44,3970.53,3968.13,3967.4,3966.61,3973.08,3974.25,3973.17,3971.31,3967.93,3959.54,3955.05,3954.26,3948.91,3945.73,3941.76,3940.47,3941.43,3944.91,3948.5,3951.24,3957,3967.63,3974.14,3981.34,3991.87,3991.19,3994.91,4004.63,4010.65,4015.16,4008.26,4005.96,4003.72,4003.25,4001.15,4002.69,4005.39,4001.9,3995.93,4004.01,4000.37,4007.96,4011.69,4010.57,4020.2,4023.01,4024.01,4023.01,4025.02,4024.31,4028.62,4027.74,4014.6,4015.43,4017.6,4018.19,4019.74,4022.19,4024.91,4028.61,4033.63,4038.1,4041.29,4044.89,4042.69,4047.74,4054.06,4054.7,4060.14,4062.65,4063.9,4064.72,4062.94,4061.44,4058.43,4053.48,4049.25,4042.94,4039.01,4036.08,4034.01,4031.3,4037.62,4041.53,4046.67,4050.14,4059.14,4067.16,4072.37,4084.18,4100.92,4114.91,4125.03,4143.7,4157.44,4174.5,4183.43,4188.62,4193.23,4198.96,4202.06,4202.42,4199.74,4193.28,4184.32,4177.01,4164.08,4148.23,4134.32,4120.68,4105.4,4092.87,4083.05,4075.43,4065.67,4057.4,4052.49,4046.29,4039.61,4034.25,4028.9,4024.16,4015.52,4007.98,4004.21,4001.66,3996.28,3990.84,3986.21,3982.91,3976.24,3969.89,3963.7,3952.74,3949.67,3943.45,3938.07,3932.7,3922.33,3910.4,3898.31,3883.65,3861.32,3839.83,3817.2,3796.44,3774.02,3751.59,3730.02,3701.54,3658.74,3588.05,3448.65,3308,1728.2,2364.19,2997.1,2924.27,2804.42,2834.97,2820.57,2810.1,2804.16,2794.69,2791.09,2792.72,2796.55,2800.02,2802.82,2804.86,2809.23,2817,2826.73,2874.13,2938.46,3013.12,3089.02,3185.76,3308.52,3439.9,3579.32,3741.38,3833.73,3875.15,3913.24,3948.94,3980.39,4010.81,4040.58,4068.02,4092.9,4112.85,4125.77,4134.45,4137.54,4136.66,4134.39,4130.18,4119.38,4108.23,4095.67,4084.31,4073.01,4065.03,4056.35,4045.87,4035.16,4028.8,4019.29,4013.3,4009.48,4003.82,3998.26,3994.23,3991.75,3993.91,3998.84,4004.3,4014.12,4017.69,4027,4033.57,4044.01,4054.83,4063.12,4065.96,4067.65,4073.05,4080.01,4080.85,4088.15,4092.27,4092.9,4093.48,4095.82,4096.77,4096.46,4099.37,4096.93,4099.25,4097.21,4092.81,4094.24,4092.43,4092.4,4094.24,4097.48,4096.58,4096.83,4096.99,4097.23,4098.83,4091.09,4090.51,4093.51,4087.29,4092.04,4103.03,4104.37,4115.17,4113.5,4121.73,4129.85,4139.55,4151.46,4161.24,4170.62,4179.94,4188.54,4193.12,4202.92,4204.99,4196.45,4187.99,4174.13,4154.66,4140.86,4129.19,4114.97,4099.9,4083.58,4076.12,4065.27,4055.24,4056.63,4054.77,4052.8,4057.09,4064.2,4073.18,4081.81,4089.33,4097.99,4104.35,4121.15,4127.42,4128.76,4138.75,4147.01,4147.92,4153.26,4156.63,4158.99,4176.68,4187.9,4199.14,4209.96,4222.96,4236.46,4247.16,4245.74,4246.29,4252.09,4255.37,4254.54,4255.24,4258.38,4256.38,4243.79,4248.81,4245.76,4245.53,4252.42,4254.78,4246.29,4251.36,4258.49,4272.97,4280.78,4285.81,4297.34,4307.47,4317.67,4326.65,4336.83,4343.91,4348.26,4350.76,4356.09,4358.06,4353.41,4347.35,4340.08,4330.56,4319.84,4310.88,4303.19,4299.54,4299.24,4298.68,4300.41,4306.85,4310.35,4311.03,4316.15,4330.96,4341.61,4348.75,4360.78,4367.05,4371.3,4377.64,4384.38,4391.4,4404.16
3995.43,3996.05,3995.81,3997.84,4002.78,4009.7,4018.89,4028.96,4035.13,4038.38,4041.19,4042.63,4040.74,4032.45,4022.43,4011.46,4001.3,3989.93,3980.44,3972.1,3966.65,3962.87,3962.22,3962.43,3961.8,3959.2,3961.8,3960.67,3962.39,3962.5,3961.15,3958.85,3955.17,3952.84,3950.14,3952.87,3949.96,3948.82,3949.08,3957.02,3961.02,3962.45,3961.61,3965.67,3972.56,3992.03,4004.47,4014.88,4015.24,4012.89,4008.19,4016.42,4032.03,4033.8,4032.18,4025.08,4022.44,4018.26,4016.69,4014.27,4012.49,4008.97,4009.55,4013.54,4010.88,4012.69,4014.9,4016.42,4020.07,4026.32,4025.33,4023.77,4019.56,4021.48,4026.4,4025.58,4026.09,4019.22,4017.52,4015.47,4019.45,4027.5,4031.24,4036.68,4042.96,4049.5,4048.89,4052.34,4057.45,4052.35,4055.55,4061,4063.31,4057.77,4055.65,4052.42,4048.13,4044.94,4042.07,4037.34,4035.42,4030.88,4028.49,4027.58,4031.82,4040.22,4039.52,4044.44,4053.77,4057.36,4062.1,4065.15,4066.45,4076.81,4092.82,4105.01,4122.56,4131.12,4146.5,4158.09,4170.52,4175.27,4178.14,4181.18,4183.64,4184.46,4183.07,4177.72,4169.53,4164.32,4152.22,4138.56,4127.67,4118.62,4106.07,4096.16,4089.03,4084.4,4077.27,4071.58,4068.28,4061.63,4053.52,4046.77,4035.27,4034.81,4025.75,4016.33,4009.37,4005.08,3997.87,3991.15,3984.96,3978.99,3970.02,3961.81,3954.46,3946.59,3938.7,3931.85,3926.8,3922.44,3914.06,3904.05,3895.16,3882.26,3863.41,3844.07,3824.63,3804.08,3784.39,3764.21,3742.3,3714.35,3672.65,3608.16,3466.39,3268.8,2687.64,2870.91,3014.87,2941.73,2837.78,2837.11,2824.06,2813.59,2806.65,2796.69,2793.89,2795.83,2799.26,2801.82,2805.04,2806.65,2810.77,2819.39,2828.92,2873.58,2937.42,3012.35,3085.79,3191.74,3310.03,3437.88,3577.59,3736.48,3830.11,3874.38,3910.49,3943.83,3974.91,4002.44,4030.28,4057.78,4083.55,4103.68,4118.73,4129.73,4134.07,4136.18,4138.68,4139,4131.31,4122.8,4112.82,4100.81,4090.06,4081.41,4071.93,4057.43,4044.73,4035.16,4023.51,4015.22,4009.78,4003.56,3997.1,3992.1,3989.82,3990.77,3995.22,4001.02,4007.53,4016.89,4023.11,4029.72,4035.1,4045.41,4056.57,4059.64,4064.68,4062.17,4065.6,4068.54,4073.15,4075.22,4075.64,4075.25,4077.84,4078.18,4079.9,4083.93,4088.14,4089.15,4083.63,4085.88,4091.28,4092.4,4095.35,4098.29,4097.62,4103.27,4105.43,4104.89,4105.83,4103.6,4100.4,4100.08,4099.25,4098.77,4109.62,4116.9,4125.57,4137.46,4142.63,4150.51,4158.75,4168.48,4178.46,4186.57,4194.51,4201.12,4206.81,4209.58,4220.69,4212.1,4203.22,4194.07,4185.87,4163.48,4140.96,4129.4,4115.14,4111.4,4096.76,4085.12,4074.6,4065.95,4061.32,4058.88,4057.31,4060.3,4067.3,4075.23,4082.25,4089.52,4097.56,4107.94,4111.9,4127.49,4130.19,4139.66,4144.97,4155.22,4156.82,4166.7,4175.46,4183.63,4193.84,4205.09,4215.06,4227.71,4239.42,4248.23,4257.14,4260.14,4267.51,4266.47,4260.02,4260.35,4258.41,4256.88,4257.04,4255.59,4252.98,4252.72,4254.03,4255.82,4259.12,4263.91,4271.13,4279.94,4288.63,4299.32,4312.14,4323.58,4334.28,4345.61,4355.94,4364.34,4362.72,4372.59,4371.67,4367.87,4364.25,4357.58,4349.96,4339.21,4328.67,4318.4,4308.92,4302.92,4299.7,4295.44,4294,4294.41,4301.02,4305.78,4307.97,4316.31,4322.53,4333.34,4340.21,4345.77,4353.99,4360.75,4367.01,4375.94,4385.47
3994.15,3994.9,3994.99,3996.92,4001.3,4009.01,4016.73,4025.04,4028.68,4030.3,4031.99,4032.27,4029.17,4020.62,4009.93,3997.98,3988.74,3979.55,3970.18,3962.8,3958.2,3954.57,3955.08,3956.26,3956.31,3953.67,3955.78,3953.36,3955.04,3955.11,3953.43,3951.32,3949.08,3952.64,3945.81,3945.97,3951.56,3953.41,3956.25,3961.38,3968.44,3977,3978.44,3987.28,3989.12,4008.26,4020.53,4028.65,4027.54,4021.96,4021.62,4024.2,4032.59,4033.97,4030.76,4027.79,4024.5,4025.88,4020.5,4018.9,4011.5,4014.96,4015.8,4015.75,4019.41,4021.03,4023.43,4019.35,4026.74,4027.1,4024.73,4021.76,4026.47,4017.22,4024.84,4023.64,4023.85,4022.45,4026.56,4029.6,4035.22,4039.79,4041.2,4043.52,4052.06,4059.24,4063.52,4066.65,4070.29,4068.07,4064.12,4062.23,4060.62,4055.38,4050.47,4044.98,4034.74,4030.92,4027.05,4024.84,4027.53,4020.55,4019.26,4020.16,4034.52,4041.48,4052.02,4054.3,4056.35,4060.74,4065.92,4072.2,4077.71,4083.85,4094.58,4110.14,4120.96,4131.97,4139.62,4153.15,4159.66,4161.45,4161.75,4162.1,4163.39,4163.19,4161.16,4157.35,4150.47,4146.54,4136.44,4124.89,4116.95,4110.18,4101.91,4094.76,4090.01,4087.44,4082.98,4080.14,4077.47,4071.71,4063.04,4054.65,4046.44,4040.76,4030.76,4019.7,4011.45,4004.79,3996.18,3987.83,3980.28,3972.11,3960.05,3950.57,3941.31,3932.48,3923.82,3916.32,3912.02,3907.35,3900.8,3892.53,3883.87,3872.57,3855.43,3838.37,3820.01,3800.47,3780.69,3760.3,3738.31,3711.5,3666.15,3609.2,3463.55,3244.57,2710.49,2718.81,3024.71,2944.04,2861.28,2839.85,2827.34,2815.8,2809.21,2798.83,2795.91,2797.56,2800.84,2802.8,2806.29,2808,2812.32,2820.84,2830.25,2872.75,2934.52,3009.39,3092.26,3188.34,3307.48,3434.15,3573.55,3731.21,3830.25,3870.33,3903.55,3935.4,3965.29,3991.98,4019.3,4047.3,4073.7,4093.62,4109.58,4120.33,4126.17,4130.28,4134.85,4137.96,4134.01,4127.76,4120.7,4111.25,4101.25,4093.08,4084.15,4068.97,4055.66,4045.57,4033.45,4024.28,4018.52,4011.39,4003.39,3998.48,3995.06,3995.58,3997.84,4001.96,4006.72,4011.43,4018.53,4025.37,4033.56,4041.87,4048.62,4051.13,4054.87,4056.05,4057.46,4059.6,4062.71,4064.1,4063.83,4062.01,4064,4063.79,4062.51,4071.7,4075.82,4077.36,4074.2,4079.22,4085.19,4089.46,4094.52,4098.39,4099.48,4106.55,4109.15,4110.1,4111.47,4114.12,4107.98,4112.41,4118,4124.8,4127.81,4136.64,4146.41,4154.38,4156.14,4164.89,4176.65,4184.97,4194.69,4201.09,4206.92,4212.14,4219.62,4223.47,4224.8,4220.67,4211.28,4201.84,4187.07,4174.28,4165.94,4145.34,4131.54,4113.83,4100.67,4090.04,4081.18,4073.11,4068.81,4066.53,4065.57,4066.29,4072.41,4079.58,4085.36,4091.97,4099.57,4104.6,4113.06,4120.92,4132.7,4143.35,4152.9,4160.08,4167.27,4174.71,4183.19,4191.62,4201.88,4212.43,4222.76,4234.64,4244.24,4251.98,4258.19,4264.04,4267.12,4266.06,4259.55,4258.58,4257.74,4256.27,4256.89,4256.08,4254.64,4255.42,4255.91,4258.3,4261.95,4266.79,4273.18,4281.48,4289.78,4300.58,4314.04,4326.39,4337.64,4348.06,4357.97,4367.38,4374.03,4378.62,4378.21,4374.44,4371.2,4365.73,4357.24,4347.42,4336.92,4325.13,4314.06,4306.13,4300.57,4293.92,4290.52,4288.41,4289.07,4295.94,4301.71,4302.81,4308.21,4315.08,4321.61,4332.16,4339.4,4345.18,4351.15,4355.84,4371.65
3995.24,3996.5,3996.46,3998.16,4002.73,4009.1,4016.52,4023.18,4025.01,4024.58,4024.21,4023.82,4020.99,4012.36,4001.68,3990.07,3980.2,3971.92,3964.38,3958.77,3954.3,3952.29,3952.37,3953.42,3952.06,3950.89,3952.58,3950.04,3950.69,3951.1,3949.72,3947.14,3945.74,3945.78,3947.15,3948.62,3947.1,3951.29,3962.88,3970.05,3984.83,3993.66,3994.93,4001.75,4012.82,4026.76,4032.87,4041.35,4041.98,4031.17,4029.32,4030.21,4037.87,4037.72,4033.01,4029.37,4026.01,4022.9,4022.19,4021.04,4021,4020.69,4023.42,4023.47,4022.51,4024.2,4026.47,4022.79,4023.32,4022.58,4024.12,4015.12,4022.26,4016.14,4023.92,4022.77,4023.72,4027.41,4031.75,4032.79,4038.85,4044.7,4047.79,4051.32,4060.71,4067.98,4076.47,4075.62,4079.17,4079.31,4069.22,4066.21,4062.21,4050.69,4043.3,4040.61,4032.74,4027.47,4023.76,4020.31,4018.94,4013.53,4012.77,4019.21,4030.98,4043.46,4052.09,4056.45,4059.82,4065.3,4070.99,4078.67,4088.9,4099.9,4105.07,4109.83,4127.21,4134.93,4140.18,4146.9,4149.22,4147.66,4146.1,4143.09,4142.28,4141.89,4139.8,4135.66,4130.55,4125.56,4117.3,4107.39,4102.22,4098.09,4092.48,4088,4086.08,4086.55,4084.32,4082.13,4081.62,4076.57,4067.8,4058.43,4049.7,4043.53,4032,4019.28,4009.92,4001.54,3991.41,3981.75,3972.9,3962.72,3950.09,3938.57,3928.35,3919.78,3910.25,3902.87,3897.45,3893.39,3886.49,3880.49,3872.19,3861.6,3845.56,3828.63,3809.86,3791.4,3772.18,3750.86,3729.25,3703.34,3657.57,3602.45,3470.75,3337.01,2776,1728.44,2947.07,2947.52,2873.59,2843.17,2830.09,2817.04,2810.04,2800.25,2797.12,2798.43,2801.59,2803.41,2806.97,2808.71,2813.44,2821.49,2830.75,2870.85,2931.74,3006.29,3090.03,3148.93,3279.15,3417.56,3567.15,3727.23,3824.85,3868.65,3899.23,3929.98,3959.36,3986.45,4013.74,4041.06,4067.51,4087.35,4101.94,4114.18,4120.1,4123.63,4128.43,4133.59,4131.63,4127.47,4122.22,4115.46,4107.26,4100.77,4092.33,4080.15,4066.76,4058.45,4047.5,4038.45,4032.56,4025.05,4018.26,4012.31,4008.89,4006.89,4006.93,4009.09,4013.01,4016.5,4021.66,4026.93,4032.47,4039.69,4044.72,4047.34,4049.76,4049.39,4050.02,4052.45,4054.59,4057.05,4054.45,4051.08,4051.2,4052.54,4054.54,4059.68,4063.63,4061.69,4064.36,4070.48,4079.07,4085.27,4090.85,4101.29,4103.8,4104.32,4107.62,4109.86,4111.81,4115.47,4118.7,4119.66,4121.89,4130.86,4139.37,4150.11,4160.61,4165.66,4173.52,4181.5,4188.5,4196.24,4203.7,4207.98,4216.29,4219.59,4225.33,4222.78,4222.18,4217.76,4208.5,4193.93,4190.03,4176.91,4164.16,4153.72,4132.62,4117.87,4105.38,4096.14,4087.79,4080.77,4078.17,4076.9,4074.78,4076.1,4080.17,4086.06,4091.32,4097.55,4103.65,4109.49,4116.81,4123.14,4132.08,4148.02,4158.36,4164.92,4174.63,4182.89,4192.01,4199.75,4210.62,4216.31,4230.19,4241.01,4245.73,4250.96,4260.68,4265.88,4265.75,4268.33,4260.7,4261.11,4260.71,4260.49,4261.12,4261.79,4260.24,4260.71,4261.14,4264.02,4267.49,4271.21,4275.66,4283.38,4291.29,4301.09,4314.44,4326.14,4336.71,4347.53,4359.95,4368.29,4376.45,4380.87,4380.79,4376.9,4375.43,4370.12,4362.73,4352.89,4341.97,4330.33,4318.73,4310.43,4302.8,4293.36,4287.07,4283.35,4281.63,4283.73,4288.43,4292.39,4297.79,4303.15,4309.4,4314.24,4325.91,4326.58,4333.14,4343.56,4359.25
3998.3,4000.1,4000.72,4002.09,4006.46,4012.08,4019.04,4024.3,4025.8,4025.89,4024.29,4023.12,4019.14,4010.63,4001.26,3989.91,3980.65,3973,3965.7,3959.4,3954.77,3953.29,3953.57,3953.4,3952.35,3949.59,3947.7,3949.06,3949.14,3947.95,3947.26,3952.04,3951.72,3955.47,3963.98,3974.1,3978.51,3980.36,3987.66,4001.81,4011.5,4020.29,4030.7,4033.15,4037.3,4049.27,4054.4,4056.32,4055.05,4047.97,4044.4,4049.22,4050.77,4049.48,4038.08,4034.2,4038.15,4035.81,4024.03,4030.12,4024.14,4032.32,4029.34,4037.01,4042.18,4042.85,4043.4,4043.13,4042.94,4039.81,4029.9,4023.63,4021.98,4018.63,4021.97,4021.59,4022.43,4027.23,4033.31,4039.59,4046.92,4049.15,4049.38,4058.65,4073.55,4081.7,4082.01,4085.79,4090.43,4085.48,4076.9,4066.89,4060.7,4051.52,4042.39,4034.35,4025.18,4027.29,4022.02,4023.46,4018.54,4018.77,4019.03,4025.71,4029.17,4038.34,4047.25,4056.56,4061.7,4066.45,4072.24,4080.23,4090.55,4101.16,4111.93,4119.46,4125.24,4131.29,4134.67,4137.88,4136.8,4133.21,4127.68,4122.49,4120.14,4117.84,4115.82,4111.78,4107.24,4104.51,4097.68,4091.66,4087.63,4084.89,4083.65,4080.92,4080.95,4084.13,4084.02,4082.39,4083.56,4078.08,4068.25,4058.76,4045.29,4036.87,4024.69,4015.28,4005.4,3995.73,3986.26,3976.38,3965.69,3955,3940.9,3929.4,3918.63,3909.85,3900.35,3891.76,3885.34,3880.65,3875.1,3868.34,3860.67,3850.65,3834.54,3817.67,3798.63,3780.28,3759.33,3739.67,3717.1,3690.45,3651.36,3593.58,3467.68,3339.66,2929.55,1039.41,2553.7,2950.45,2882.21,2846.57,2833.25,2819.01,2811.39,2801.23,2798.29,2799.52,2802.59,2804.03,2807.66,2809.76,2814.12,2821.84,2830.93,2866.53,2925.23,2999.45,3084.71,3120.76,3296.15,3422.51,3564.78,3730.42,3829.23,3867.54,3903.52,3934.02,3963.24,3991.09,4017.14,4045.35,4070.75,4088.32,4102.77,4113.73,4119,4122.92,4127.29,4132.7,4131.23,4127.66,4124.69,4120.63,4113.76,4108.02,4101.45,4090.24,4080.16,4072.33,4062.31,4054.36,4048.74,4042.11,4034.77,4029.78,4024.84,4020.78,4018.57,4019.52,4021.71,4023.81,4027.64,4030.95,4036.14,4041.27,4045.86,4048.41,4048.7,4048.5,4048.06,4049.29,4051.03,4051.39,4048.3,4043.03,4037.71,4037.29,4039.59,4039.03,4047.92,4050.36,4058.76,4066.08,4075.34,4082.23,4090.07,4094.61,4097.62,4098.99,4102.62,4106,4108.1,4108.43,4112.26,4117.45,4120.72,4129.65,4139.66,4150.79,4163.18,4173.35,4176.24,4185.45,4191.95,4200,4204.57,4211.54,4214.03,4214.9,4218.45,4214.75,4207.96,4197.92,4193.14,4188.61,4179.99,4169.88,4158.69,4149.51,4130.95,4119.4,4108.31,4100.58,4093.55,4088.14,4087.11,4091.27,4085.54,4089.89,4088.89,4098.04,4103.14,4103.57,4109.09,4115.11,4120.72,4128.53,4135.26,4142.26,4162.98,4170.75,4180.04,4187.55,4196.36,4203.97,4209.95,4220.23,4224.54,4233.75,4246.53,4256.34,4260.86,4261.38,4265.62,4264.84,4262.34,4263.58,4264.1,4265.98,4266.98,4267.83,4266.57,4266.66,4266.65,4269.09,4273.26,4276.91,4280.43,4285.97,4292.47,4301.75,4313.25,4323.82,4333.65,4343.82,4355.38,4364.58,4372.18,4376.71,4376.34,4373.92,4373.36,4370.21,4364.49,4355.11,4344.76,4332.78,4322.63,4313.44,4304.88,4293.64,4285.87,4279.17,4276.81,4276.94,4280.97,4284.41,4289.4,4293.74,4300.11,4307.05,4313.55,4318.77,4326.3,4338.25,4355.63
4018.52,4009.34,4015.9,4023.09,4015.91,4021.64,4038.7,4037.19,4032.23,4032.24,4030.79,4034.17,4025.9,4019.01,4011.5,4001.59,3992.22,3984.51,3977.78,3971.85,3966.56,3964.41,3962.09,3959.43,3962.72,3961.03,3958.8,3955.87,3955.21,3959.96,3962.57,3956.75,3958.03,3961.32,3965.71,3975.83,3981.65,3983.69,3995.83,4005.58,4014.87,4028.17,4034.26,4035.66,4038.38,4048.49,4051.82,4051.28,4049.49,4045.27,4042.11,4040.52,4040.73,4038.29,4025.69,4023.09,4022.16,4020.18,4021.32,4022.59,4030.17,4033.2,4038.05,4041.33,4042.12,4042.34,4043.64,4044.27,4042.73,4034.34,4028.72,4014.07,4019.77,4016.32,4020.7,4020.59,4016.85,4026.09,4033.44,4040.46,4049.02,4056.94,4063.35,4077.77,4089.82,4095.09,4090.99,4095.59,4098.14,4092.75,4083.34,4076.97,4063.02,4052.29,4041.55,4032.01,4031.37,4025.25,4020.71,4023.23,4023.42,4019.43,4029.24,4038.06,4042.32,4041.2,4046.34,4055.79,4064.18,4069.42,4072.97,4079.91,4089.22,4094.02,4108.1,4113.38,4119.37,4122.89,4123.89,4124.06,4121.21,4116.18,4108.19,4102.37,4098.03,4094.66,4092.29,4089.18,4085.57,4084.17,4080.26,4077.42,4076.64,4078.22,4079.72,4080.07,4082.67,4088.42,4089.52,4089.74,4089.51,4085.11,4075.81,4064.89,4055.2,4046.47,4033.82,4020.98,4009.71,3999.44,3988.57,3977.57,3966.7,3955.06,3941.05,3928.67,3916.99,3907.16,3897.63,3886.99,3880.85,3875.51,3869.57,3863.17,3854.35,3844.53,3829.15,3809.67,3790.58,3770.55,3749.82,3728.5,3704.74,3677.91,3639.43,3585.82,3466.07,3338.09,3084.46,1081.03,2831.46,2952.77,2891.47,2849.4,2836.39,2820.67,2812.78,2803.07,2799.91,2800.83,2803.45,2805.05,2808.37,2810.57,2814.69,2822.06,2830.62,2862.23,2918.68,2991.94,3077.27,3090.02,3283.12,3414.65,3562.1,3733.13,3833.31,3873.29,3908.86,3938.91,3968.27,3996.19,4021.97,4047.75,4070.92,4086.8,4099.77,4108.1,4109.41,4115.41,4119.3,4124.52,4124.04,4122.39,4122.22,4120.04,4115.2,4110.52,4105.95,4097.35,4087.77,4081.35,4072.5,4064.02,4058,4052.95,4046.34,4041,4035.56,4030.26,4027.7,4028.56,4029.8,4030.82,4032.66,4035.86,4038.97,4041.92,4045.16,4046.84,4047.88,4046.67,4045.6,4046.24,4047.77,4047.34,4042.6,4037.35,4035.57,4034.42,4037.18,4040.45,4044.25,4047.18,4049.41,4056.73,4066.89,4073.91,4080.28,4084.48,4083,4084.58,4092.19,4092.1,4087.67,4096.34,4101.28,4107.85,4114.98,4122.7,4132.95,4144.21,4155.82,4166.77,4175.1,4183.18,4189.84,4193.36,4202.68,4203.4,4208.94,4208.08,4204.89,4200.79,4196.69,4185.87,4172.68,4163.89,4161.62,4156.44,4148.57,4142.22,4126.2,4117.28,4108.25,4102.13,4096.61,4092.58,4092.62,4096.3,4094.83,4094.62,4097.22,4101.09,4105.71,4105.44,4109.8,4115.04,4120.22,4125.98,4132.92,4139.55,4146.1,4167.08,4174.6,4181.86,4191.41,4199.36,4204.38,4211.16,4219.3,4229.24,4246.36,4253.15,4254.67,4259.13,4259.6,4259.25,4262.09,4264.63,4266.27,4267.51,4269.2,4270.74,4270.63,4271.37,4271.03,4274.15,4277.66,4282.11,4285.04,4289.05,4294.9,4301.97,4311.9,4321.24,4329.75,4339.04,4347.83,4357.95,4365.22,4369.16,4369.81,4367.6,4368.01,4365.91,4361.63,4354.69,4344.24,4332.56,4322.31,4312.9,4304.32,4292.62,4283.16,4275.85,4272.57,4271.9,4274.67,4278.33,4282.79,4288.59,4295.36,4302.43,4309.58,4317.34,4325.98,4338.33,4356.57
4020.36,4017.02,4017.2,4024.67,4022.53,4016.35,4033.29,4041.36,4035.94,4029.7,4028.01,4031.73,4028.94,4018.54,4011.75,4003.72,3996.06,3988.17,3981.44,3975.33,3970.45,3967.42,3959.36,3955.4,3963.56,3961.65,3959.37,3956.9,3955.52,3960.25,3962.45,3961.46,3958.31,3961.51,3971.4,3976.74,3983.23,3994.36,4006.02,4014.93,4022.99,4027.37,4036.49,4035.79,4036.11,4038.58,4040.13,4037.42,4035.23,4029.36,4022.28,4019.59,4017.75,4015.46,4012.29,4002.67,4003.48,4003.19,4004.58,4014.01,4018.84,4023.73,4028.92,4033.07,4035.09,4036.11,4037.56,4037.46,4037.04,4028.15,4022.45,4017.57,4015.83,4013.3,4012.91,4018.43,4020.48,4024.16,4031.34,4040.22,4049.63,4058.09,4068.66,4078.47,4089.02,4094.17,4095.66,4099.8,4097.67,4096.73,4087.98,4075.71,4067.54,4052.73,4042.76,4042.31,4033.93,4028,4029.32,4026.77,4032.56,4039.03,4045.11,4048.21,4051.78,4050.76,4050.3,4057.59,4065.71,4068.57,4072.21,4077.95,4086.1,4093.68,4100.44,4103.82,4107.97,4110.96,4110.11,4108.51,4105.61,4098,4089.89,4082.88,4078.63,4075.89,4073.71,4071.33,4069.74,4070.45,4069.7,4070.24,4073.4,4078.24,4083.86,4088.89,4095.29,4102.31,4106.87,4107.95,4110.21,4105.98,4096.93,4086.77,4075.54,4065.89,4053.6,4039.61,4027.37,4015.07,4002.58,3990.83,3977.57,3964.78,3950.29,3937.17,3923.77,3913.17,3903.09,3892.9,3884.66,3878.93,3872.57,3864.6,3853.96,3842.93,3826.9,3806.04,3785.97,3763.93,3741.92,3719.01,3694.12,3666.19,3630.33,3582.68,3469.95,3332.62,3155.14,1573.55,3009.22,2957.22,2895.6,2851.74,2838.54,2821.41,2813.53,2804.3,2801.27,2801.64,2804.19,2804.96,2808.08,2810.55,2814.5,2820.75,2829.02,2856.63,2912.68,2984.82,3071.56,3066.25,3273.74,3412.1,3561.55,3736.77,3832.12,3872.06,3908.87,3932.9,3968.95,3994.68,4014.52,4043.55,4056.09,4074.72,4085.64,4091.72,4096.47,4098.14,4102.01,4111.2,4112.6,4112.78,4115.4,4114.53,4112.73,4108.97,4107.23,4100.41,4093.54,4087.41,4079.44,4072.71,4067.03,4062.02,4054.28,4048.61,4042.52,4037.45,4033.52,4032.95,4033.26,4035.13,4036.56,4038.05,4039.94,4042.72,4046.04,4047.16,4047.12,4044.52,4042.69,4043.25,4043.58,4043.7,4040.12,4032.64,4029.78,4028.78,4032.31,4035.62,4038.84,4041.15,4043.15,4048.39,4058.06,4059.85,4065.73,4069.83,4072.77,4074.09,4078.18,4074.83,4078.74,4084.6,4090.73,4102.34,4110.26,4117.48,4128.86,4138.34,4151.36,4164.36,4172.02,4179.57,4182.14,4187.98,4192.99,4196.94,4196.41,4194.61,4189.61,4184.63,4179.57,4169.28,4160.38,4147.82,4141.79,4143.55,4137.92,4129.55,4119.19,4112.56,4106.33,4101.77,4097.71,4094.57,4094.44,4099.08,4097.45,4098.18,4099.09,4101.56,4104.25,4104.3,4107.84,4110.43,4113.36,4116.46,4121.81,4127.41,4137.39,4149.08,4156.05,4167.21,4178.06,4186.72,4194.31,4201.23,4210.43,4228.76,4239.9,4243.54,4250.04,4257.06,4262.38,4258.79,4262.56,4266.01,4267.63,4269.78,4272.43,4274.73,4275.05,4275.44,4276.48,4278.77,4282.4,4286.55,4288.65,4291.38,4294.72,4301.28,4308.81,4316.63,4323.07,4330.57,4338.26,4346.71,4353.56,4356.99,4357.86,4356.98,4356.99,4356.41,4354.91,4350.15,4341.19,4331.61,4321.96,4312.57,4304.4,4292.37,4282.98,4274.42,4270.61,4269.13,4271.41,4276.16,4281.18,4286.63,4293.55,4300.59,4309.49,4316.97,4326.76,4339.9,4358.18
4019.32,4020.67,4020.82,4016.32,4008.01,4024.81,4034.72,4037.67,4037.77,4037.9,4030.54,4034.42,4026.86,4022.1,4022.22,4008.99,4002.6,3995.45,3989.12,3983.39,3978.37,3974.44,3972.34,3968.81,3965.03,3963.12,3960.44,3958.59,3956.53,3961.66,3960.34,3963.73,3961,3964.57,3970.27,3975.85,3991.62,4002.58,4010.32,4017.16,4024.24,4029.63,4032.14,4029.46,4026.65,4026.22,4025.49,4021.41,4017.11,4011.74,4006.03,4002.4,4001.29,4000.86,3997.64,3995.71,3996.66,3991.64,3994.44,4004.38,4009.58,4015.13,4020.83,4025.85,4028.85,4030.44,4031.89,4032.65,4032.03,4024.47,4020.3,4016.08,4010.26,4006.61,4012.17,4014.16,4019.68,4023.61,4030.24,4037.62,4046.74,4053.86,4063.47,4072.29,4082.67,4089.8,4087.46,4091.78,4093.25,4088.02,4084.81,4079.09,4073.62,4065.02,4061.17,4043.29,4040.92,4033.05,4040.75,4045.64,4046.42,4052.9,4053.78,4056.1,4059.33,4062,4065.04,4066.5,4067.22,4068.78,4070.53,4074.11,4080.13,4086,4090.26,4092.04,4093.61,4095.2,4093.89,4091.5,4086.72,4079.97,4072.03,4064.92,4061.05,4059.49,4058.05,4052.47,4053.48,4055.67,4057.46,4059.97,4066.66,4079.89,4088.71,4096.69,4106.21,4116.63,4122.31,4125.55,4128.78,4125.24,4116.79,4105.48,4094.31,4084.19,4071.09,4056.28,4043.39,4031.01,4018.06,4006.04,3993.24,3978.86,3965.32,3951.28,3937.92,3926.5,3914.14,3904.26,3896.43,3889.46,3882.47,3873.21,3862.04,3849.73,3832.27,3811.02,3788.52,3765.27,3741.17,3716.31,3690.5,3662.86,3628.55,3587.41,3481.99,3353.05,3223.4,1509.95,3043.19,2963.43,2895.82,2853.33,2841.04,2821.24,2813.99,2805.42,2801.11,2801.28,2803.94,2803.19,2806.74,2809.14,2812.29,2818.28,2825.72,2848.83,2904.41,2976.86,3065.86,2806.97,3280.54,3403.83,3568.22,3743.65,3832.3,3878.5,3908.92,3937.15,3966.75,3991.43,4014.63,4030.43,4054.64,4066.99,4074.67,4080.46,4079.15,4079.21,4083.41,4089.09,4095.04,4097.84,4101.01,4103.04,4103.72,4101.64,4101.68,4097.86,4092.86,4088.83,4083.09,4076.99,4072.41,4066.61,4060.65,4054.03,4048.19,4042.53,4037.73,4036.5,4037.41,4037.93,4039.01,4040.4,4041.68,4043.71,4045.94,4046.58,4045.4,4042.67,4040.91,4040.75,4040.07,4040.03,4036.15,4029.26,4026,4025.29,4028.86,4031,4034.14,4035.45,4037.37,4042.52,4051.57,4053.07,4058.4,4061.37,4064.78,4066.22,4062.5,4067.77,4072.43,4079.73,4087.04,4094.3,4101.98,4114.04,4123.91,4138.2,4149.08,4162.02,4168.57,4174.28,4180.38,4185.44,4188.13,4183.48,4182.92,4178.17,4173.9,4168.53,4162.65,4155.95,4138.93,4131.87,4128.8,4132.61,4123.65,4121.97,4112.92,4108.68,4105.04,4105.77,4098.85,4095.7,4095.88,4100.78,4098.57,4098.69,4099.81,4100.75,4099.9,4101.53,4104.79,4105.06,4105.86,4108.03,4111.46,4115.3,4125.24,4133.64,4141.39,4149.09,4163.57,4174.24,4177.78,4193.86,4208.25,4219.19,4227.66,4236.63,4245.24,4248.77,4255.61,4261.74,4262.46,4266.93,4269.12,4270.38,4274.43,4276.01,4275.6,4277.32,4278.7,4282.36,4285.73,4289.46,4290.36,4292.04,4294.07,4299.47,4304.71,4309.87,4314.96,4320.95,4326.91,4333.69,4339.64,4343.12,4344.84,4345.03,4346.03,4345.54,4345.22,4341.66,4334.64,4325.87,4318.39,4311.15,4303.28,4291.86,4283.42,4275.46,4271.63,4270.33,4272.37,4275.89,4280.51,4285.33,4292.36,4300.27,4308.22,4316.87,4327.77,4340.67,4359.11
4018.27,4018.62,4018.93,4020.3,4023.21,4027.09,4030.1,4032.53,4034.49,4034.54,4033.09,4031.95,4030.57,4026.47,4022.55,4015.36,4008.6,4002.3,3990.66,3991.08,3985.73,3982.43,3974.05,3970.93,3967.67,3965.66,3965.04,3962.59,3966.73,3965.49,3964.4,3964.03,3965.74,3968.76,3975.05,3980.9,3987.33,3998.16,4014.1,4019.85,4024.93,4028.32,4028.87,4025.26,4020.56,4016.68,4014.43,4008.99,4004.47,3998.86,3993.38,3988.8,3986.23,3984.55,3982.88,3981.47,3983.16,3985.26,3988.22,3994.33,4000.68,4006.62,4009.69,4014.99,4023.05,4020.45,4023.22,4024.34,4025.1,4022.56,4019.61,4016.33,4011.53,4003.63,4010.49,4007.05,4017.44,4025.94,4030.98,4037.6,4045.71,4051.37,4059.3,4066.6,4076.25,4081.39,4086.05,4081.07,4077.88,4076.33,4073.3,4069.44,4064.82,4058.27,4051.88,4050.89,4047.6,4046.29,4055.53,4055.62,4058.09,4059.66,4061.29,4063.41,4065.28,4066.36,4068.31,4068.52,4068.28,4067.61,4067.22,4068.77,4072.94,4076.43,4078.48,4078.84,4079.25,4079.56,4077.03,4074.11,4069.93,4064.01,4056.15,4050.16,4046.52,4044.85,4045.13,4045.57,4046.73,4050.62,4054.09,4058.46,4067.29,4077.89,4088.64,4099.06,4109.38,4120.73,4127.37,4131.16,4133.35,4131.3,4121.64,4109.99,4098.55,4086.47,4073.88,4060.45,4048.13,4036.95,4023.42,4012.05,3999.43,3987.48,3975.51,3962.73,3950.04,3938.65,3927.43,3917.81,3909.54,3901.99,3895.41,3885.37,3873.91,3861.3,3844.14,3821.98,3793.96,3774.31,3749.07,3723.57,3697.83,3671.08,3637.48,3598.43,3500.34,3369.4,3223.11,1370.48,3049.1,2971.38,2897.18,2856.55,2842.59,2822.31,2814.61,2806.45,2802.13,2801.47,2803.21,2802.06,2804.61,2806.95,2809.68,2814.94,2821.85,2841.67,2896.03,2969.39,3060.88,1506.7,3271.62,3419.94,3577.76,3756.68,3836.7,3878.63,3907.83,3934.04,3961.82,3984.48,4005.38,4024.02,4040.57,4051.38,4057.55,4061.31,4063.79,4064.38,4067.23,4066.41,4074.3,4077.14,4083.94,4087.54,4089.23,4089.05,4090.06,4088.95,4087.48,4086.24,4081.28,4076.4,4073.58,4070.05,4065.53,4059.57,4053.81,4047.75,4043.86,4042.39,4042.38,4042.72,4043.56,4043.78,4044.85,4046.28,4048.55,4049.28,4047.4,4042.96,4040.97,4040.72,4039.64,4038.8,4035.8,4029.73,4026.65,4025.19,4028.66,4029.92,4031.55,4031.9,4034.17,4038.64,4046.36,4044.12,4052.74,4051.67,4058.64,4052.4,4057.74,4063.61,4069.71,4075.94,4083.38,4089.54,4097.24,4108.77,4117.79,4125.36,4138.46,4149.88,4154.62,4160.02,4164.33,4168.68,4171.02,4169.02,4163,4154.87,4154.43,4149.3,4144.37,4139.06,4131.21,4116.58,4119.62,4117.43,4110.86,4109.85,4110.89,4108.38,4106.36,4104.42,4097.73,4095.07,4094.82,4098.61,4097.87,4097.12,4098.53,4098.99,4096.94,4098.92,4100.02,4098.89,4099.45,4100.76,4102.23,4104.6,4117.14,4121.19,4126.77,4133.89,4144.18,4154.97,4171.68,4184.02,4191.54,4204.12,4216.7,4226.87,4238.12,4238.8,4246.44,4253.75,4259.15,4263.11,4266.49,4269.05,4272.93,4269.25,4275.35,4277.43,4278.25,4281.26,4285.85,4288.96,4290.32,4291.35,4293.03,4296.42,4300.49,4304.72,4307.46,4311.07,4315.23,4320.34,4324.4,4327.65,4329.07,4328.93,4330,4330.47,4331.93,4329.42,4324.51,4318.19,4312.15,4305.36,4300.16,4290.07,4282.65,4276.49,4273.03,4271.66,4273.18,4275.16,4280.15,4285.3,4292.9,4299.55,4307.61,4315.36,4325.4,4339.66,4359.06
4017.76,4016.91,4017.37,4017.65,4020.25,4023.85,4026.97,4029.04,4031.12,4031.74,4030.22,4029.65,4028.17,4025.65,4022.01,4016.98,4010.49,4004.15,3997.62,3992.56,3987.04,3984.14,3981.7,3972.99,3969.97,3969.81,3969.38,3974.2,3972.23,3971.15,3969.87,3969.59,3970.78,3975.05,3980.45,3986.59,3992.51,4003.34,4013.5,4023.02,4026.26,4027.96,4027.16,4022.7,4017.71,4012.04,4008.37,4001.68,3996.75,3991.25,3985.4,3980.2,3976.17,3972.72,3971.04,3969.8,3972.6,3974.59,3978.3,3984.14,3992.25,4000.33,4007.5,4009.45,4013.98,4016.18,4019.99,4022.17,4023.66,4022.37,4015.76,4009.13,4014.35,4008.3,4009.56,4011.01,4012.61,4019.94,4033.31,4038.69,4045.39,4050.28,4055.77,4061.57,4069.44,4073.58,4072.41,4075.01,4071.87,4066.72,4063.54,4060.98,4057.49,4053.41,4049.55,4047,4050.79,4054.95,4060.15,4062.38,4064.63,4067.27,4068.98,4070.95,4072.65,4069.27,4070.23,4069.8,4065.07,4061.93,4070.52,4057.54,4068.25,4075.63,4076.44,4075.49,4073.28,4072.65,4070.36,4066.01,4060.81,4055.02,4048.01,4043.21,4039.41,4037.36,4036.94,4037.52,4040.14,4044.39,4047.47,4052.88,4061.09,4071.11,4083.19,4093.45,4102.98,4113.94,4120.96,4123.96,4126.63,4123.5,4113.77,4103.14,4091.77,4080.18,4067.54,4053.79,4041.91,4029.5,4017.79,4007.48,3995.53,3985.74,3975.47,3964.23,3953.64,3943.69,3932.95,3924.49,3918.27,3911.07,3903.18,3893.15,3881.59,3868.77,3847.08,3829.9,3802.26,3777.71,3757.53,3732.36,3707.7,3681.47,3639.83,3610.5,3516.66,3386.32,3231.65,1439.14,3041.06,2978.4,2890.16,2859.79,2844.37,2823.35,2815.96,2807.94,2803.08,2801.96,2802.53,2800.85,2802.17,2804.58,2806.4,2810.04,2816.56,2831.83,2886.1,2958.29,3048.83,1236.34,3258.82,3408.49,3567.1,3745.64,3821.82,3865.47,3894.73,3919.51,3947.1,3968.71,3989.3,4007.61,4023.51,4032.58,4038.97,4041.96,4043.98,4043.94,4044.96,4047.45,4050.93,4053.76,4059.69,4065.4,4068.72,4070,4072.8,4074.96,4075.59,4076.61,4076.1,4073.33,4072.1,4070.79,4067.96,4064.29,4059.74,4054.71,4050.89,4049.31,4049.71,4050.47,4050.76,4051.08,4050.78,4051.08,4052.91,4053.16,4050.53,4046.83,4044.62,4044.12,4042.98,4041.16,4037.82,4033.01,4029.81,4029.38,4031.76,4032.1,4032.81,4031.97,4034.24,4038.11,4043.52,4043.98,4044.08,4051.75,4046.7,4048.38,4054.38,4060.45,4067.05,4072.35,4079.71,4086.01,4092.28,4097.8,4110.16,4116.35,4131.14,4135.67,4139.43,4143.01,4146.86,4149.11,4151.01,4144.57,4138.58,4134.76,4134.21,4130.61,4125.07,4120.57,4109.58,4105.19,4105.56,4104.52,4099.39,4100.18,4103.15,4102.89,4100.64,4099.35,4101.66,4094.34,4089.87,4093.33,4091.28,4091.49,4092.49,4092.15,4093.34,4090.89,4091.65,4090.23,4090.79,4090.71,4089.83,4091.52,4098.58,4101.87,4111.43,4113.46,4118.61,4137.76,4150.7,4163.18,4175.64,4188.97,4203.37,4216.01,4228.04,4235.33,4239.73,4247.02,4254.55,4259.59,4262.27,4264.5,4267.74,4270.47,4272.6,4274.01,4275.92,4280.25,4284.24,4287.68,4288.81,4289.02,4290.55,4292.66,4296.51,4298.18,4299.19,4300.07,4301.55,4305.68,4308.98,4311.62,4311.76,4312.45,4312.82,4313.96,4317.97,4317.15,4314.18,4309.36,4306.05,4300.73,4296,4287.84,4282.44,4275.78,4272.31,4271.58,4273.93,4275.4,4280.37,4284.17,4290.8,4297.33,4305.19,4313.63,4324.85,4337.49,4356.12
4015.1,4013.94,4014.32,4015.51,4017.8,4021.12,4024.53,4026.88,4029.3,4030.04,4029.4,4029.04,4027.81,4025.73,4023.13,4019.39,4013.17,4007.89,4000.47,3996.05,3990.44,3987.08,3985.05,3982.14,3979.7,3980.21,3980.8,3981.61,3980.62,3979.15,3977.54,3977.34,3979.55,3983.47,3988.95,3993.61,4002.68,4007.91,4021.69,4025.58,4027.4,4026.85,4025.44,4020.25,4015.02,4008.22,4002.59,3996.09,3991.1,3985.26,3980.81,3975.57,3970.46,3965.59,3964.48,3963.76,3966.81,3969.03,3973.22,3978.82,3987.89,3995.52,4003.72,4006.47,4011.25,4014.98,4014.27,4022.65,4020.85,4015.59,4014.61,4013.58,4019.21,4018.8,4019.09,4016.14,4017.61,4027.69,4036.55,4041.23,4046.65,4049.65,4053.16,4057.41,4063.32,4066.09,4064.02,4065.2,4066.9,4058.25,4056.53,4057.45,4056.63,4054.5,4054.19,4054.96,4060.41,4070.15,4071.78,4073.79,4077.21,4078.87,4080.05,4080.89,4081.93,4072.29,4072.2,4071.37,4070.07,4077.05,4067.33,4063.31,4069.06,4079.92,4080.6,4079.8,4078.04,4075.79,4072.62,4067.2,4062.36,4055.77,4048.73,4043.77,4039.92,4037.46,4036.73,4036.18,4038.1,4041.32,4044.24,4049.08,4056.41,4066.28,4077.71,4087.67,4097.59,4108.62,4115.92,4120.68,4122.39,4120.76,4112.47,4103.43,4093.43,4082.35,4069.06,4055.72,4044.09,4032.37,4020.44,4008.73,3997.36,3988.06,3979.39,3970.33,3960.86,3952.99,3944.53,3935.78,3929.85,3923.34,3916.51,3906.22,3894.75,3882.62,3866.07,3844.39,3812.22,3792.83,3772.74,3743.71,3719.85,3687.91,3650.98,3627.08,3535.28,3403.15,3258.92,1218.58,3045.65,2984.91,2890.43,2863.32,2845.28,2825.51,2817.33,2810.05,2804.47,2802.55,2802.69,2799.95,2800.79,2802.2,2803.33,2805.78,2812.17,2823.72,2876.88,2948.66,3038.65,538.481,3242.21,3394.97,3554.37,3731.14,3809.88,3855.87,3884.63,3909.17,3935.24,3956.57,3976.8,3994.38,4008.03,4016.08,4021.13,4022.95,4024.57,4023.84,4023.22,4024.29,4027.07,4030.43,4036.62,4042.68,4047.33,4050.23,4054.52,4058.89,4062.91,4066.2,4067.72,4068.63,4069.63,4069.9,4069.92,4067.36,4065.48,4063.11,4060.21,4059.73,4060.65,4061.13,4061.32,4060.72,4059.84,4059.2,4059.21,4059.02,4056.02,4050.99,4049.41,4049.22,4047.59,4046.58,4043.74,4038.94,4036.14,4034.95,4036.59,4036.7,4036.24,4034.4,4036,4039.38,4043.49,4041.9,4045.2,4039.48,4042.76,4044.83,4049.71,4054.94,4061,4066.56,4073.02,4079.24,4085.35,4089.88,4100.56,4105.01,4118.02,4121.05,4124.07,4126.94,4129.13,4131.22,4132.2,4129.7,4119.14,4115.79,4116.2,4113.14,4108.8,4104.84,4095.25,4091.78,4092.07,4094,4089.87,4097.25,4097.19,4096.51,4096.44,4094.46,4096.7,4094.25,4084.47,4087.47,4085.4,4084.54,4084.84,4084.21,4085.45,4082.65,4082.65,4081.53,4080.99,4084.09,4083.55,4079.59,4085.78,4088.29,4087.61,4093.04,4110.09,4120.92,4128.77,4145.64,4158.7,4174.17,4188.71,4203.75,4216.73,4228.63,4230.93,4239.06,4247.03,4253.47,4257.12,4259.9,4263.39,4264.98,4266.46,4268.86,4271.79,4275.46,4279.9,4283.62,4285.12,4285.54,4286.3,4287.37,4289.68,4291.7,4291.14,4289.51,4289.21,4291.23,4292.49,4294.59,4294.76,4294.31,4295.08,4296.09,4300.89,4301.76,4300.17,4297.48,4295.32,4291.81,4289.11,4283,4278.89,4274.03,4271.26,4270.8,4271.96,4273.57,4277.75,4282.19,4288.13,4294.95,4301.44,4310.29,4321.86,4335.89,4354.7
4012.22,4011.64,4011.83,4013.34,4015.86,4019.72,4023.36,4026.77,4029.12,4030.63,4030.42,4030.7,4030.01,4028.34,4025.84,4022.52,4017.38,4012.59,4005.98,4000.89,3996.07,3992.73,3990.66,3988.18,3985.73,3986.16,3986.73,3989.11,3988.73,3987.44,3985.36,3985.15,3987.16,3990.59,3994.81,4003,4007.33,4011.57,4014.95,4022.01,4027.09,4025.11,4022.83,4017.09,4011.2,4004.25,3999.2,3993.32,3988.23,3983.56,3979.47,3974.67,3969.2,3964.58,3964.19,3963.91,3966.22,3968.7,3973.23,3978.79,3987.09,3996.19,4004.14,4010.73,4011.93,4015.89,4015.67,4014.86,4018.23,4018.18,4018.15,4026.35,4027.73,4031.71,4028.56,4021.14,4026.36,4036.54,4039.71,4043.04,4046.93,4048.92,4051.68,4053.3,4056.44,4058.4,4059.03,4055.93,4058.34,4051.12,4051.69,4053.48,4055.85,4056.46,4058.35,4064.71,4071.48,4077.56,4080.07,4082.91,4085.35,4086.32,4087.8,4087.69,4083.01,4073.23,4080.29,4074.16,4080.73,4066.22,4064.13,4068.08,4072.98,4078.5,4078.67,4077.52,4076.44,4073.6,4071.2,4066.35,4061.7,4056.43,4049.68,4046.34,4044.05,4041.31,4039.96,4039.93,4041.48,4042.95,4046.13,4049.89,4052.03,4060.7,4076.98,4085.88,4095.7,4106.8,4113.97,4119.14,4123.43,4121.46,4115.99,4108.53,4100.3,4089.9,4077.92,4065.42,4054.98,4043.41,4031.07,4020.46,4008.58,4001.12,3992.87,3984.93,3977.49,3970.37,3962.09,3954.75,3949.95,3943.62,3936.74,3927.07,3917.63,3906.72,3890.65,3869.32,3847.8,3824.34,3800.41,3776.26,3751.29,3725.41,3689.26,3656.27,3568.65,3435.59,3298.49,870.797,3000.2,2998.05,2904.18,2868.84,2847.72,2829.03,2819.56,2813.03,2806.99,2803.98,2803.54,2799.79,2799.57,2801.02,2800.9,2803.18,2808.45,2816.95,2870.38,2941.99,3032.4,415.217,3224.83,3390.1,3547.4,3720.16,3807.02,3855.46,3883.95,3908.58,3932.29,3954.15,3971.67,3986.58,3999.1,4006.68,4009.45,4011.35,4012.57,4011.63,4010.69,4010.89,4013.66,4016.2,4023.27,4029.24,4035.69,4038.44,4042.78,4048.5,4053,4057.25,4060.28,4061.69,4064.12,4066.67,4068.48,4067.11,4066.99,4065.21,4064.58,4064.54,4065.87,4066.06,4065.76,4064.23,4063.3,4063.08,4062.41,4060.74,4057.62,4052.64,4050.59,4049.44,4047.79,4046.21,4043.84,4040.9,4039.17,4039.57,4040.78,4040.72,4041.02,4039.35,4039.87,4041.24,4039.82,4040.16,4034.64,4035.62,4038.51,4039.21,4043.37,4047.52,4052.9,4058.32,4064.32,4069.5,4074.62,4077.61,4086.81,4098.49,4102.96,4105.05,4106.69,4108.47,4110.83,4113.55,4114.05,4112.45,4107.39,4103.42,4100.09,4094.33,4095.35,4092.25,4083.1,4081.54,4083.22,4086.22,4087.93,4092.43,4092.49,4092.72,4092.07,4090.48,4093.42,4089.66,4083.12,4086.16,4083.18,4082.48,4077.38,4076.26,4077.26,4073.98,4074.36,4072.97,4076.42,4074.37,4072.64,4069.04,4074.9,4072.07,4074.47,4079.75,4087.66,4097.69,4118.75,4131.87,4145.33,4161.37,4178.85,4193.94,4208.13,4222.43,4233.64,4233.52,4242.29,4249.4,4252.55,4255.79,4259.52,4262.11,4263.88,4265.06,4268.56,4273.54,4277.06,4280.24,4281.08,4281.35,4282.39,4282.86,4283.74,4284.69,4283.68,4281.02,4279.47,4278.83,4279.26,4278.63,4278.53,4277.35,4277.79,4278.15,4282.94,4284.92,4285.26,4284.35,4283,4281.47,4279.72,4275.82,4273.88,4269.64,4268.55,4268.17,4270.6,4273.32,4277.34,4279.59,4286.04,4292.85,4299.88,4308.92,4319.71,4333.78,4353.13
4009,4008.95,4009.76,4013.12,4016.75,4021.55,4025.16,4029.17,4031.47,4033.62,4034.18,4034.05,4032.98,4031.97,4029.32,4027.19,4021.88,4017.03,4010.72,4005.55,4002.02,3998.48,3996.85,3993.92,3992.69,3993.37,3993.92,3996.37,3995.81,3994.81,3993.46,3992.35,3993.92,3996.28,4000.69,4007.56,4015.21,4014.43,4016.69,4022.3,4022.65,4025.45,4022.44,4015.85,4010.86,4003.46,3999.43,3994.03,3989.07,3985.07,3981.17,3976.8,3971.92,3968.31,3968.27,3967.77,3970.34,3968.58,3968.1,3978.08,3991.17,3998.65,4002.29,4013.02,4019.15,4018.25,4018.32,4022.62,4021.46,4022.06,4026.72,4027.69,4033.97,4038.61,4039.35,4031.87,4041.14,4041.84,4044.67,4046.87,4048.54,4049.39,4049.92,4050.34,4052.19,4048.74,4049.15,4049.14,4051.4,4048.53,4050.06,4053.57,4052.58,4059.32,4062.42,4069.24,4077.85,4080.22,4082.71,4085.55,4084.45,4090.62,4091.65,4087.19,4078.63,4076.22,4081.91,4083.32,4072.59,4065.14,4062.86,4064.64,4068.07,4072.39,4071.95,4070.61,4070.02,4068.6,4059.98,4056.97,4054.19,4049.57,4045.35,4042.35,4046.53,4044.89,4043.14,4043.33,4043.79,4045.94,4048.44,4052.6,4059.55,4067.42,4077.76,4086.46,4096.5,4107.04,4114.9,4120.39,4124.18,4124.81,4120.64,4115.6,4108.37,4099.61,4088.87,4077.61,4067.74,4056.83,4044.98,4034.1,4023.05,4015.09,4008.99,4000.11,3994.07,3987.42,3980.59,3974.05,3968.87,3963.74,3957.41,3948.1,3938.58,3928.38,3913.4,3893.55,3871.97,3849.24,3825.51,3801.1,3777.11,3750.61,3719.98,3673.67,3601.05,3469.1,3333.43,1574.44,3082.7,3015.41,2916.6,2877.39,2851.5,2833.28,2823.26,2816.5,2809.1,2805.67,2804.53,2800.89,2799.34,2800.05,2799.81,2801.8,2807.01,2812.91,2865.53,2936.91,3029.3,495.743,3238.44,3386.63,3545.36,3714.94,3810.36,3861.06,3889.12,3912.38,3935.2,3954.21,3971.67,3984.94,3995.72,4002.2,4005.41,4006.26,4008.22,4007.39,4007.04,4007.88,4010.66,4013.95,4019.8,4026.45,4030.46,4034.32,4038.92,4043.48,4048.3,4053.22,4056.5,4057.96,4060.23,4063.71,4065.73,4066.12,4065.97,4065.66,4065.01,4065.22,4066.36,4066.15,4065.88,4065.81,4064.93,4064.57,4063.01,4061.23,4058.29,4053.93,4051.13,4049.78,4048.08,4046.4,4045.62,4044.15,4043.2,4042.83,4044.58,4044.57,4044.34,4042.39,4041.82,4041.83,4038.69,4038.42,4034.22,4030.62,4032.07,4032.93,4036.18,4039.65,4044.13,4048.81,4054.12,4058.57,4066.23,4068.71,4081.35,4084.35,4087.45,4088.81,4089.57,4091.34,4093.74,4096.84,4098.77,4098.16,4094.06,4091.88,4089.19,4088.61,4086.51,4076.51,4076.88,4075.2,4077.72,4081.23,4087.62,4086.63,4086.95,4086.53,4086.02,4084.08,4086.66,4082.63,4080.19,4078.2,4075.32,4070.61,4074.67,4068.37,4069.59,4070.28,4066.05,4069.04,4066.44,4065.2,4063.88,4058.2,4063.5,4059.56,4061.36,4074.43,4077.22,4082.92,4099.63,4116.41,4130.72,4147.91,4165.98,4182.6,4197.49,4212.91,4224.5,4225.71,4234.51,4241.27,4245.58,4248.24,4253.36,4256.09,4257.98,4260.96,4264.56,4268.58,4272.25,4275.74,4277.14,4278,4277.91,4277.68,4278.79,4279.62,4278.24,4273.93,4272.33,4269.69,4267.72,4265.76,4264.88,4263.07,4262.55,4262.42,4266.59,4269.16,4269.86,4270.57,4270.34,4269.34,4270.8,4268.04,4268.53,4265.69,4266.48,4267.32,4270.42,4273.78,4277.52,4280,4286.03,4292.17,4299.47,4307.36,4318.84,4334.14,4353.79
4005,4006.63,4009.23,4014.01,4018.78,4024.78,4028.98,4032.39,4035.43,4037.62,4038.8,4038.26,4038.07,4035.97,4033.17,4031.14,4027.23,4021.85,4015.67,4010.49,4006.54,4003.31,4002.24,3999.56,3997.85,3999.76,4000.8,4003.15,4002.97,4001.28,4000.15,3999.35,4000.56,4001.94,4008.92,4015.81,4018.63,4016.96,4021.48,4022.34,4022.51,4025.7,4022.3,4017.24,4012.04,4005.24,4000.57,3996.3,3993.8,3989.97,3985.67,3981.56,3977.67,3975.66,3975.3,3975.3,3977.2,3970.65,3974.12,3978.95,3991.23,3994.04,4001.11,4011.24,4021.66,4025.51,4025.47,4025.1,4028.94,4034.12,4031.07,4035.63,4042.59,4042.54,4044.83,4045.9,4046.44,4046.13,4047.66,4048.42,4049.27,4048.35,4047.4,4046.82,4046.37,4041.53,4041.48,4040.37,4042.71,4043.99,4052.04,4047.65,4051.78,4058.72,4062.96,4071.8,4077.85,4081.25,4085.09,4087.81,4090.32,4088.41,4085.58,4085.62,4080.58,4081.04,4081.44,4073.18,4069.22,4060.89,4062.15,4062.77,4064.94,4064.92,4064.03,4059.08,4055.07,4056.15,4055.39,4053.06,4052.24,4049.96,4047.04,4044.84,4049.59,4048.67,4047.41,4047.42,4047.62,4049.54,4053.08,4055.75,4062.46,4070.93,4080.6,4089.69,4099.12,4109.97,4118.19,4123.8,4130.4,4132.75,4130.83,4127.62,4122.11,4115.46,4107,4097.79,4088.45,4077.12,4066.46,4054.96,4043.89,4036.35,4029.03,4021.67,4014.63,4008.53,4002.57,3996.74,3993.02,3986.82,3980.18,3971.89,3962.34,3951.24,3936.71,3917.93,3896.67,3873.87,3850.71,3826.61,3801.87,3775.18,3739.25,3707.45,3632.68,3504.41,3356.77,2096.97,2993.32,3035.98,2945.55,2888.92,2858.02,2839.99,2828.48,2820.57,2812.55,2808.74,2806.56,2802.33,2800.14,2800.39,2799.89,2801.86,2807.71,2813.76,2865.64,2937.54,3029.22,1320.13,3242.28,3389.64,3546.39,3709.92,3816.25,3868.15,3896.32,3918.48,3940.33,3957.58,3973.28,3985.98,3995.23,4000.34,4003.95,4005.91,4007.04,4006.62,4007.73,4008.66,4011.28,4015.16,4020.68,4026.33,4029.79,4033.01,4037.15,4040.94,4045.56,4049.88,4052.9,4055.79,4057.78,4061.01,4062.89,4063.48,4063.23,4063.11,4062.44,4062.59,4064.23,4063.62,4063.68,4063.38,4062.6,4061.54,4060.27,4058.88,4055.88,4052.03,4050.09,4048.77,4047.08,4045.67,4045.89,4045.21,4045.84,4045.86,4046.75,4046.34,4045.79,4043.7,4041.46,4039.57,4039.14,4033.45,4028.02,4027.97,4029.07,4025.27,4028,4035.48,4035.44,4044,4048.41,4051.64,4054.35,4065.12,4067.85,4070.59,4074.04,4074.12,4076.1,4077.05,4080.15,4082.9,4086.61,4088.13,4088.69,4082.96,4082.8,4083.9,4079.66,4074.98,4072.05,4074.11,4076.57,4084.29,4086.14,4083.06,4080.99,4075.18,4077.72,4072.66,4073.98,4069.22,4062.08,4064.38,4066.73,4066.65,4065.24,4063.96,4064.16,4060.63,4060.45,4058.52,4056.69,4055.59,4048.64,4047.78,4052.16,4057.23,4059.12,4062.99,4069.83,4079.4,4091.64,4104.6,4119.99,4137.3,4156.21,4171.96,4188.89,4202.78,4215.21,4216.19,4225.64,4232.31,4236.77,4240.77,4245.46,4248.85,4252.34,4255.63,4259.96,4264.14,4268.54,4272.17,4275.05,4274.87,4276.06,4276.1,4276.54,4277.08,4275.36,4270.79,4266.62,4263.34,4260.21,4256.99,4254.63,4251.96,4249.64,4249.76,4253.78,4255.79,4257.66,4258.21,4258.93,4259.64,4261.52,4260.93,4262.83,4262.51,4263.44,4265.39,4268.01,4272.21,4277.48,4279.82,4285.58,4291.01,4297.03,4306.9,4318.35,4330.89,4352.54
4001.99,4004.71,4009.51,4016.41,4021.37,4028.16,4033.49,4037.73,4041.26,4043.97,4044.58,4044.38,4042.92,4041.19,4038.97,4036.03,4031.97,4027.6,4021.68,4017,4013.16,4010.21,4008.66,4006.73,4005.06,4005.43,4006.48,4009.18,4009.99,4008.92,4007.24,4006.47,4006.08,4007.39,4018.16,4018.61,4015.61,4017.07,4021.71,4021.88,4025.62,4024.28,4021.54,4016.57,4012.09,4005.37,4001.08,3997.98,3996.07,3992.88,3989.49,3985.58,3982.92,3981.83,3982.8,3978.84,3976.2,3977.76,3980.35,3984.85,3992.29,3998.35,4004.62,4014.59,4023.88,4027.93,4032.14,4036.56,4030.45,4032.01,4037.6,4039.11,4041.04,4045.56,4048.15,4048.91,4048.66,4047.59,4048.37,4048.77,4047.98,4046.4,4043.71,4041.79,4039.67,4037.78,4032.3,4031.17,4037.68,4039.34,4039.76,4049.75,4054.58,4058.54,4064.19,4070.2,4077.64,4082.62,4086.07,4089.2,4091.87,4089.71,4091.79,4083.01,4085.26,4081.27,4071.63,4075.25,4066.7,4069.13,4060.63,4060.53,4058.49,4057.63,4056.08,4047.25,4041.57,4041.5,4049.9,4049.26,4049.51,4047.68,4045.25,4045.26,4051.06,4050.28,4048.36,4050.17,4051.38,4053.59,4057.09,4060.54,4065.8,4074.11,4083.72,4093.5,4103.3,4113.47,4122.95,4130.34,4137.88,4142.38,4141.29,4139.81,4137.22,4131.44,4124.75,4117.69,4108.43,4099.03,4087.62,4077.44,4066.01,4058,4051.68,4045.08,4038.19,4032.93,4026.78,4021.07,4016.38,4010.58,4004.11,3994.75,3985.71,3974.53,3959.42,3941,3919.5,3896.72,3873.12,3848.62,3823.36,3796.93,3767.04,3729.97,3662.06,3539.99,3392.77,2274.18,2976.39,3061.93,2970.76,2904.4,2866.57,2847.75,2833.97,2824.64,2816.42,2811.75,2809.89,2804.83,2802.08,2802.41,2801.92,2804.19,2809.94,2816.42,2868.59,2941.92,3034.31,2522.72,3262.73,3399.66,3549.34,3707.4,3821.55,3874,3902.33,3923.25,3944.26,3960.25,3975.22,3986.26,3995.17,4001.13,4004.85,4007.28,4010,4010.1,4011.11,4012.22,4014.74,4019.06,4023.1,4028.28,4032,4033.87,4037.74,4041.63,4044.73,4047.37,4050.04,4052.94,4056.18,4058.17,4060,4060.65,4060.05,4060.37,4059.41,4059.81,4061,4061.11,4061.25,4060.63,4059.93,4058.47,4058.13,4056.89,4054.97,4051.39,4049.58,4048.5,4047.09,4046.73,4047.87,4046.87,4048.52,4049.08,4048.34,4046.86,4046.16,4043.16,4038.99,4036.76,4034.21,4026.77,4025.15,4024.63,4025.66,4021.14,4023.78,4027,4029.76,4033.62,4037.92,4049.36,4052.58,4054.86,4058.08,4060.23,4063.52,4064.6,4066.56,4067.72,4070.43,4073.33,4076.31,4079.02,4080.69,4080.24,4081.47,4083.13,4076.31,4076.55,4070.03,4073.42,4078.96,4080.52,4080.7,4077.48,4074.39,4075.53,4069.48,4067.19,4064.53,4056.57,4053.73,4057.51,4060.16,4060.35,4058.45,4058.29,4057.69,4057.56,4052.73,4051.31,4050.11,4048.7,4042.42,4041.32,4049.64,4050.93,4054.29,4059.32,4064.33,4074.32,4086.5,4099.95,4114.96,4132.94,4151.3,4166.67,4181.72,4196.91,4209.52,4214.42,4218.91,4226.68,4231.59,4235.21,4239.82,4243.89,4245.75,4249.37,4254.52,4258.18,4262,4265.17,4268.21,4268.34,4270.44,4270.82,4272.99,4273.34,4272.6,4267.36,4264.16,4259.43,4256.46,4252,4249.42,4246.49,4244.25,4242.57,4245.75,4248.16,4250.01,4250,4251.73,4253.15,4255.07,4256.17,4258.37,4260.3,4263.05,4265.47,4268.54,4273,4278.37,4281.97,4287.48,4292.68,4299.9,4308.52,4319.84,4333.76,4354.85
4001.34,4005.25,4011.33,4019.12,4026.47,4034.23,4040.11,4044.52,4048.91,4051.28,4052.74,4052.77,4050.52,4047.69,4045.45,4043.15,4039.51,4035.76,4029.04,4024.74,4020.26,4017.25,4015.51,4013.99,4012.13,4011.81,4011.91,4014.39,4015.74,4014.74,4013.21,4011.78,4010.43,4014.68,4016.11,4016.16,4016.4,4020.05,4024.73,4024.41,4023.58,4022.36,4020.54,4016.21,4011.56,4005.68,4003.03,4001.11,3999.35,3997.27,3994.92,3993.07,3992.08,3991.96,3993.75,3985.68,3986.9,3988.78,3991.42,3994.86,4000.32,4005.85,4007.56,4020.07,4028.2,4031.23,4035.09,4038.08,4041.29,4042.68,4035.1,4044.86,4046.16,4046.69,4048.06,4047.56,4047.5,4046.14,4046.05,4044.51,4043.76,4040.23,4036.63,4034.05,4032.46,4029.8,4027.85,4026.86,4028.97,4031.48,4036,4043.06,4049.27,4055.21,4061.96,4069.21,4077.31,4083.51,4088.68,4092.21,4091,4088.72,4090.71,4089.54,4082.79,4078.39,4072.68,4075.47,4070.23,4068.28,4059.69,4054.41,4051.92,4050.98,4045.69,4044.49,4045.58,4045.93,4050.33,4048.95,4049.09,4046.94,4046.73,4046.28,4052.54,4050.97,4051,4052.56,4053.5,4055.51,4059.19,4062.67,4068.12,4076.01,4085.77,4095.77,4106.07,4117.58,4127.67,4135.76,4144.66,4151.28,4153.56,4153.66,4152.87,4148.14,4143.43,4137.25,4129.57,4120.78,4109.91,4101.05,4090.41,4083.18,4076.36,4070.15,4063.52,4058.14,4052.52,4045.46,4039.89,4034.03,4026.39,4016.74,4006.61,3994.6,3980.42,3961.91,3940.14,3915.41,3891.69,3867.37,3841.5,3815.1,3785.56,3748,3686.22,3571.75,3436.48,2930.43,2515.75,3071.45,2998.06,2922.97,2878.31,2856.95,2840.35,2829.46,2820.39,2815.1,2812.94,2808.07,2804.72,2804.82,2804.53,2806.62,2812.81,2819.59,2871.78,2945.86,3039.6,3057.8,3255.96,3402.87,3548.48,3703.02,3827.59,3881.36,3908.48,3930.14,3949.79,3964.62,3978.54,3990.4,3998.57,4004.94,4008.6,4012.47,4014.59,4015.08,4016.93,4017.63,4019.65,4022.99,4026.65,4032.17,4033.6,4035.22,4037.58,4039.64,4041.77,4044.44,4046.91,4048.72,4050.07,4052.46,4054.78,4055.49,4055.77,4056.07,4055.38,4055.9,4056.74,4057.13,4057.91,4057.19,4057.28,4056.81,4056.83,4057.11,4054.74,4052.31,4050.98,4049.33,4049.08,4049.25,4049.49,4049.69,4050.71,4050.78,4050.19,4047.6,4045.66,4041.41,4034.74,4032.18,4027.88,4019.46,4013.24,4012.33,4013.18,4012.92,4014.54,4017.47,4020.02,4023.35,4027.55,4038.78,4041.3,4044.03,4047.43,4050.9,4053.87,4056.86,4058.76,4060.18,4062.04,4066.26,4069.06,4072.26,4073.02,4073.29,4074.88,4077.76,4075.6,4073.54,4071.69,4075.79,4076.28,4077.34,4076.01,4070.88,4072.37,4069.11,4060.99,4058.62,4057.13,4049.87,4048.39,4051.48,4053.91,4053.79,4052.56,4050.99,4045.84,4045.01,4044.88,4043.85,4043.42,4042.57,4036.12,4035.91,4044.86,4047.22,4051.34,4055.69,4061.44,4070.51,4083.41,4096.44,4112.1,4128.82,4145.78,4160.44,4175.98,4190.87,4199.34,4203.1,4212.45,4219.66,4224.98,4229.77,4235.14,4238.78,4241.38,4244.37,4249.16,4253.4,4257.18,4260.68,4262.85,4265.75,4266.99,4269.85,4272,4273.01,4271.44,4267.46,4264.93,4260.2,4256.19,4251.95,4248.5,4244.53,4241.08,4238.47,4241.33,4241.58,4242.75,4242.74,4243.95,4245.14,4247.32,4249.27,4252.63,4256.34,4259.73,4263.23,4266.91,4273.52,4279.22,4283.22,4289.89,4295.84,4302.51,4311.87,4323.05,4337.63,4357.8
4003.06,4008.27,4014.81,4024.69,4033.58,4042.49,4049.19,4054.05,4058.55,4060.86,4062.77,4061.3,4058.72,4055.24,4052.22,4049.89,4046.49,4042.17,4035.79,4030.63,4026.63,4023.94,4021.89,4019.58,4017.52,4016.74,4017.31,4019.84,4021.34,4019.85,4021.5,4019.82,4022.8,4017.51,4022.57,4021.72,4019.99,4023.4,4022.18,4021.38,4022.05,4020.81,4018.94,4014.52,4011.87,4007.11,4006.03,4005.74,4005.55,4003.69,4003.03,4002.29,4003.18,4004.64,4006.76,4003.4,4000.28,4001.31,4003.01,4006.22,4012.02,4015.67,4015.58,4026.82,4033.23,4035.95,4037.76,4040.64,4042.64,4042.69,4042.7,4043.23,4043.76,4043.33,4044.54,4043.26,4042.11,4039.79,4038.26,4035.99,4033.74,4031.66,4026.94,4023.84,4017.56,4019.7,4017.95,4017.02,4016.29,4024.51,4029.88,4036.35,4044.16,4051.37,4058.82,4067.31,4076,4082.73,4088.29,4087.96,4091.91,4085.14,4090.55,4089.92,4083.03,4077.7,4072.37,4075.44,4073.75,4067.65,4063.4,4058.35,4052.25,4051.01,4045.88,4045.78,4047.02,4047.31,4051.83,4056.14,4056.08,4054.73,4054.57,4054.04,4053.25,4051.86,4051.05,4052.42,4053.63,4056.18,4059.56,4063.22,4069.12,4077.1,4087.49,4098.09,4109.65,4121.88,4132.99,4144.26,4154.47,4162.2,4165.43,4167.24,4166.87,4164.98,4160.97,4156.39,4149.02,4141.59,4131.78,4123.08,4113.01,4107.29,4099.86,4092.52,4086.14,4080.49,4073.95,4066.11,4058.67,4052.12,4042.88,4032.99,4022.22,4009.77,3994.85,3976.59,3953.99,3929.36,3905.7,3881.05,3854.75,3827.43,3798,3760.35,3703.08,3596.45,3468.78,3212.78,1814.08,3097.21,3021.4,2942.96,2892.3,2867.06,2848.27,2834.76,2824.74,2818.99,2816.28,2811.66,2808.14,2807.86,2807.94,2809.77,2815.83,2822.77,2875.96,2950.17,3042.91,3133.14,3255.35,3399.91,3542.3,3693.57,3829.84,3883.84,3911.31,3932.03,3951.31,3966.64,3981.19,3993.56,4001.54,4008.6,4013.04,4016.78,4020.06,4021.03,4022.37,4023.85,4026.25,4028.39,4032.17,4035.42,4037.05,4038.02,4037.84,4040.19,4041.47,4042.95,4043.3,4045.45,4045.88,4047.81,4049.73,4051.52,4052.16,4051.75,4051.08,4052.32,4054.55,4055.4,4056.18,4057.19,4056.89,4057.73,4058.72,4058.62,4057.1,4055.15,4054.61,4053.71,4053.42,4053.54,4053.74,4054.09,4054.76,4054.13,4051.61,4047.29,4044.41,4038.86,4031.99,4026.25,4016.17,4011.62,4009.41,4003.9,4004.44,4003.5,4005.11,4008.31,4010.71,4014.01,4022.43,4024.97,4031.64,4034.97,4038.21,4041.45,4045.5,4047.86,4050.75,4052.42,4054.57,4058.07,4060.24,4063.54,4065.56,4066.09,4067.12,4070.02,4073.41,4075.56,4075.26,4075,4070.59,4069.99,4069.02,4069.04,4064.49,4055.87,4052.93,4050.18,4048.48,4042.45,4040.6,4039.82,4046.11,4046.06,4044.16,4037.77,4036.6,4035.17,4034.66,4034.21,4033.59,4032.93,4031.74,4036.19,4037.33,4041.11,4045.61,4050.17,4056.83,4066.05,4078.47,4092.43,4107.61,4123.43,4140.57,4155.09,4166.01,4183.75,4192.06,4195.6,4205.64,4213.33,4219.45,4224.61,4229.93,4233.57,4236.54,4240.11,4244.66,4248.12,4252.56,4255.68,4258.79,4261.72,4264.33,4266.7,4270.9,4272.15,4271.74,4268.23,4264.63,4262.08,4258.02,4252.45,4248.43,4241.63,4237.34,4233.09,4232.28,4231.47,4231.01,4230.33,4231.33,4232.22,4235.17,4238.79,4244.03,4248.87,4254.1,4259.07,4263.94,4271.7,4278.75,4283.89,4291.7,4299.12,4307.39,4315.03,4327.03,4341.32,4360.83
4007.47,4013.3,4020.91,4032.52,4042.19,4051.33,4058.83,4063,4067.91,4070.74,4072.27,4070.71,4066.14,4062.76,4058.66,4055.84,4051.98,4048.35,4041.58,4035.47,4031.06,4028.63,4026.68,4024.49,4021.54,4020.07,4020.71,4022.24,4024.55,4031.66,4028.59,4025.62,4027.38,4018.14,4021.8,4020.11,4022.72,4020.65,4019.39,4018.6,4018.45,4017.78,4016.47,4013.86,4012.29,4010.23,4010.01,4011.35,4012.75,4012.79,4013.96,4015.51,4016.83,4020,4023.1,4020.68,4021.45,4017.67,4019.21,4021.29,4025.08,4027.59,4025.11,4034.33,4040.06,4041.01,4042.31,4043.42,4044.33,4042.46,4039.86,4039.53,4038.64,4036.57,4036.05,4033.45,4030.64,4028.04,4026.02,4023.53,4020.81,4017.94,4013.23,4009.22,4003.54,4006.68,4005.93,4006.51,4010.53,4015.1,4021.01,4030.29,4039.62,4046.61,4055.17,4064.7,4074.18,4079.71,4081.99,4086.34,4085.93,4087.87,4089.9,4083.87,4080.97,4076.44,4070.71,4073.47,4072.24,4067.09,4063.18,4055.18,4052.72,4048.05,4047.81,4047.49,4048.95,4054.16,4058.66,4059.35,4058.31,4056.47,4055.27,4054.55,4054.1,4052.56,4050.68,4051.64,4053.53,4055.89,4059.8,4062.55,4068.97,4077.2,4087.78,4099.29,4111.02,4124.63,4137,4149.36,4161.23,4170.57,4175.07,4177.38,4177.56,4177.24,4174.98,4170.98,4164.72,4156.61,4148.52,4140.3,4131.17,4124.28,4116.88,4108.86,4101.69,4096.02,4087.07,4079.22,4071.64,4062.53,4052.46,4041.83,4030.39,4017.89,4001.9,3983.89,3960.18,3935.6,3911.04,3886.77,3860.58,3832.5,3804.29,3766.28,3712.93,3616.62,3492.52,3304.04,1726.98,3115.67,3043.19,2962.62,2905.97,2876.98,2856.12,2839.66,2828.6,2822.12,2819.46,2814.49,2810.71,2810.42,2810.36,2812.77,2818.9,2825.8,2879.24,2952.03,3043.31,3135.48,3246.89,3392.34,3533.32,3681.13,3829.86,3884.5,3912.36,3934.37,3954.37,3971.19,3986.02,3997.35,4006.67,4013.4,4018.73,4023.96,4026.83,4027.31,4029.86,4030.51,4032.5,4035.41,4038.26,4041.46,4041.93,4042.23,4042.58,4043.24,4045.08,4045.49,4045.48,4045.78,4046.04,4047.11,4047.9,4049.19,4048.3,4048.47,4048.91,4049.99,4052.38,4054.16,4054.9,4056.9,4058.22,4059.26,4060.31,4060.84,4060.2,4059.62,4058.2,4056.73,4056.38,4056.51,4057.13,4057.02,4056.98,4055.01,4051.08,4046.44,4042.24,4035.63,4027.03,4019.42,4009.2,3999.07,3996,3994.48,3994.5,3994.08,3994.98,4003.04,4005.04,4009.21,4013.82,4020.58,4023.59,4027.04,4030.39,4033.99,4038.24,4042.14,4044.34,4045.92,4048.66,4051.87,4053.66,4057.54,4059,4059,4060.31,4062.88,4066.97,4069.67,4069.53,4068.78,4068.15,4064.4,4062.8,4061.12,4052.55,4043.88,4040.43,4042.34,4036.41,4034.66,4033.76,4033.06,4039.2,4037.29,4035.33,4032.83,4030.42,4024.12,4023.35,4021.82,4022.67,4021.72,4024.5,4025.4,4027.73,4022.59,4032.57,4043.09,4050.49,4061.06,4074.31,4088.58,4102.82,4119.23,4130.72,4144.4,4162.2,4172.97,4179.59,4189.18,4198.02,4205.92,4212.93,4219.46,4225.05,4228.41,4231.95,4235.2,4239.62,4243.98,4247.64,4250.97,4254.12,4257.64,4261.66,4266.14,4270.94,4272.84,4273.45,4271.34,4268.57,4266.2,4261.89,4254.88,4249,4240.69,4232.8,4227.03,4223.72,4220.96,4218.67,4217.75,4218.45,4220.6,4225.38,4229.9,4236.84,4242.68,4249.6,4256.14,4263.62,4272.47,4280.55,4287.23,4296.22,4303.75,4312.18,4320.05,4332.42,4345.5,4363.04
4012.69,4020.3,4028.04,4041.26,4051.52,4062.09,4069.41,4073.97,4078.42,4080.77,4082.57,4081.49,4076.62,4071.13,4066.91,4062.71,4058.65,4055.11,4048.61,4041.62,4036.18,4032.55,4030.44,4028.06,4025.3,4023.8,4023.44,4024.71,4026.63,4034.11,4030.96,4027.66,4028.81,4027.09,4022.43,4024,4021.29,4019.33,4016.58,4015.9,4016.13,4016.09,4015.44,4013.44,4012.92,4012.02,4013.89,4016.31,4018.99,4020.31,4023.46,4025.9,4029.69,4033.56,4037.96,4035.89,4032.64,4034.31,4035.3,4036.83,4039.11,4040.15,4036.17,4043.75,4048.06,4048.27,4047.81,4047.86,4046.7,4043.02,4040.15,4037.57,4035.4,4031.82,4028.71,4025.2,4021.2,4017.36,4014.59,4011.66,4009.18,4005.82,4001.33,3998.36,3996.35,3995.89,3995.97,3996.98,4001.6,4007.01,4015.51,4024.86,4035.2,4044.35,4052.69,4064.01,4071.7,4074.52,4080.23,4084.79,4088.44,4089.79,4081.82,4080.22,4077.21,4072.66,4071.68,4074.48,4068.83,4064.06,4061.05,4057.81,4052.25,4051.63,4048.59,4049.2,4055.01,4060.65,4060.56,4060.91,4061.06,4058.88,4058.57,4057.92,4055.98,4053.67,4051.55,4051.33,4053.12,4054.88,4058.54,4061.87,4067.31,4076.23,4087.44,4099.21,4111.5,4125.26,4138.76,4152.02,4164.67,4173.78,4179.03,4182.44,4183.61,4183.16,4181.57,4178.91,4173.42,4166.53,4159.73,4152.03,4143.31,4135.99,4128.06,4119.85,4112.03,4104.98,4096.96,4086.9,4077.95,4068.14,4057.12,4046.65,4034.52,4020.92,4004.8,3985.45,3961.86,3936.85,3912.66,3887.26,3861.05,3833.4,3804.6,3767.31,3717.85,3630.23,3507.3,3375.91,1923.92,3122.23,3062.99,2980.83,2919.95,2886.94,2863,2843.73,2831.53,2825.11,2821.62,2817.47,2813.29,2812.25,2812.83,2814.59,2820.09,2828.4,2881.21,2954.03,3044.53,3134.72,3248.97,3378.87,3527.17,3673.25,3829.29,3884.58,3912.98,3935.01,3956.13,3973.39,3988.19,4000.74,4009.9,4016.46,4022,4027.67,4031.28,4032.2,4034.29,4035.12,4036.91,4040.39,4042.76,4044.92,4044.73,4045.39,4045.55,4046.1,4046.77,4046.52,4045.25,4044.99,4043.92,4043.58,4044.07,4044.04,4043.8,4043.89,4044.01,4046.44,4047.81,4051.15,4053.87,4056.03,4058.32,4060.2,4062.77,4063.55,4063.16,4063.8,4062.45,4062.03,4061.48,4061.65,4061.65,4061.12,4059.83,4056.55,4050.53,4044.32,4037.86,4030.48,4019.73,4011.64,3999.17,3988.6,3985.84,3984.46,3984.18,3984.56,3989.49,3993.6,3999.83,4004.33,4009.09,4012.21,4015.83,4020.17,4023.89,4027.64,4032.39,4036.26,4039.46,4040.96,4042.07,4045.04,4046.17,4049.85,4050.64,4050.81,4052.74,4055.29,4058.24,4061.77,4063.32,4062.92,4062.64,4057.58,4056.5,4054.66,4047.18,4038.68,4035.2,4032.92,4036.26,4033.97,4032.91,4032.02,4034.4,4028.4,4025.19,4025.79,4022.74,4019.73,4013.89,4012.35,4011.42,4019.35,4019.04,4015.49,4018.29,4014.55,4024.86,4035.64,4043.65,4054.47,4068.47,4083.14,4098.2,4113.02,4128.02,4136.62,4146.1,4167.53,4170.68,4179.27,4188.92,4197.11,4204.84,4212.56,4218.44,4222.71,4225.32,4228.84,4233.2,4237.92,4242.41,4246.3,4250.44,4254.48,4259.52,4264.31,4270.61,4274.11,4275.77,4276.09,4274.26,4271.96,4266.75,4259.5,4251.63,4241.84,4232.57,4224.53,4217.55,4210.93,4205.93,4203.65,4204.13,4206.85,4211.51,4217.53,4224.23,4230.85,4240.67,4248.33,4256.94,4267.98,4277.49,4285.29,4295.49,4304.33,4313.2,4322.7,4334.08,4345.64,4362.09
4021.16,4028.34,4037.99,4051.36,4062.67,4072.42,4080.65,4085.24,4090.76,4093.27,4094.52,4092.83,4088.49,4081.51,4076.74,4071.29,4067.04,4062.44,4056.24,4047.14,4040.86,4036.16,4033.86,4030.38,4026.82,4024.47,4023.65,4023.42,4025.69,4033.69,4030.93,4027.8,4027.92,4025.13,4024.41,4021.59,4019.52,4016.34,4014.28,4013.5,4014.93,4014.24,4014.15,4012.69,4012.53,4013.28,4016.07,4019.75,4023.27,4025.36,4028.7,4032.96,4037.78,4043.14,4043.41,4042.39,4044.12,4045.91,4042.64,4044.02,4050.06,4050.79,4045.07,4051.97,4055.55,4054.49,4052.32,4051.98,4049.24,4044.48,4040.23,4036.28,4032.54,4027.62,4023.07,4017.02,4011.18,4006.92,4002.86,3999.84,3996.54,3992.72,3988.9,3986.4,3986.55,3983.12,3987.63,3990.68,3996.64,4004.52,4013.83,4024.46,4035.27,4045.07,4054.53,4064.98,4074.38,4081.7,4082.46,4086.59,4093.37,4089.64,4085.21,4079.69,4076.22,4071.01,4077.85,4068.41,4067.21,4063.58,4061.43,4058.93,4058.18,4054.45,4055.31,4060.54,4062.39,4064.3,4065.53,4064.86,4064.78,4062.83,4062.63,4061.69,4059.89,4056.77,4054.18,4054.75,4054.12,4055.93,4058.03,4060.92,4066.56,4075.49,4085.96,4097.54,4109.25,4122.98,4136.8,4150.46,4163.76,4173.37,4177.62,4181.99,4183.45,4184.33,4184.28,4182.76,4177.88,4172.72,4165.95,4159.82,4152.23,4146.15,4137.93,4127.62,4119.72,4112.15,4102.84,4092.49,4082.24,4071.74,4059.73,4048.34,4036.55,4021.4,4004.17,3984.65,3960.53,3935.46,3910.49,3886.28,3859.16,3831.77,3803.73,3766.59,3720.41,3641.86,3528.99,3389.68,2335.19,3061.99,3076.87,2997.98,2934.38,2896.92,2869.29,2847.32,2834.34,2827.78,2824.57,2820.36,2815.88,2814.46,2814.54,2815.83,2821,2829.69,2882.35,2954.73,3043.83,3132.46,3244.09,3368.67,3520.47,3666.95,3825.68,3881.53,3911.13,3934.6,3955.69,3974.3,3990.38,4002.94,4012.84,4019.63,4026.11,4032.5,4036.55,4037.82,4039.4,4040.93,4041.95,4044.23,4046.14,4048.3,4048.21,4047.47,4047.35,4047.95,4047.38,4045.75,4043.51,4041.38,4040.09,4039.03,4038.36,4038.78,4038.38,4038.86,4038.31,4042.4,4045.06,4048.71,4052.54,4055.88,4058.72,4062.7,4065.21,4067.73,4067.22,4068.62,4067.96,4066.89,4065.65,4064.9,4064.28,4062.32,4058.36,4053.03,4045.75,4036.53,4029.11,4020.52,4004.24,3999.22,3990.99,3975.75,3972.07,3970.86,3970.94,3971.07,3977.37,3987.87,3990.57,3996.28,4001.35,4004.8,4008.32,4013.99,4013.94,4022.58,4023.29,4031.19,4034,4035.64,4035.98,4038.29,4038.82,4041.16,4042.23,4041.38,4043.56,4045.42,4049.13,4052.82,4055.77,4055.24,4055.13,4051.01,4050.29,4044.36,4037.88,4034.45,4030.58,4033.89,4032.54,4030.25,4028.69,4028.61,4030.24,4027.8,4014.3,4014.81,4014.75,4011.42,4009.49,4007.7,4002.38,4005.9,4004.35,4011.04,4014.81,4007.09,4014.61,4029.6,4038.38,4049.34,4063.82,4078.88,4093.31,4107.54,4122.01,4133.3,4137.38,4150.82,4161.83,4170.98,4180.16,4188.67,4196.82,4204.13,4210.61,4215.43,4219.15,4223.23,4228.32,4232.57,4237.52,4241.29,4246.69,4253.5,4259.54,4265.17,4271.84,4275.52,4278.9,4281.51,4282.35,4280.66,4274.9,4267.11,4258.25,4245.86,4234.49,4224.91,4214.35,4204.65,4196.66,4192.74,4192.84,4194.68,4200.02,4205.12,4213,4220.61,4231.71,4242.28,4253.03,4264.11,4274.98,4284.13,4295.5,4306.57,4314.94,4323.56,4332.98,4344.6,4358.35
4031.08,4038.67,4049.35,4062.3,4073.58,4083.78,4091.7,4096.82,4101.25,4103.72,4105.35,4103.65,4098.65,4091.32,4085.52,4079.66,4075.7,4070.17,4061.66,4052.8,4044.48,4038.64,4035.01,4031.56,4026.97,4022.94,4021.53,4022.32,4024.27,4032.21,4029.77,4024.98,4024.61,4022.51,4021.42,4018.88,4016.35,4012.58,4010.2,4010.19,4011.51,4010.64,4010.8,4009.57,4009.88,4010.49,4014.57,4019.55,4022.85,4025.88,4030.96,4035.97,4042.32,4043.85,4044.27,4047.87,4050.8,4052.31,4049.64,4050.67,4052.3,4056.88,4054.33,4052.09,4058.47,4056.37,4054.74,4052.79,4050.17,4045.06,4039.3,4035.25,4031.3,4024.58,4018.52,4010.79,4004.76,3999.63,3995.96,3992.25,3989.48,3985.72,3982.69,3981.02,3982.69,3985.69,3986.96,3990.36,3998.57,4006.76,4016.58,4027.86,4039.44,4049.53,4059.36,4070.54,4079.53,4085.91,4092.14,4094.2,4091.91,4092.13,4086.88,4083.79,4080.46,4070.36,4073.97,4072.22,4063.84,4060.3,4062.6,4056.96,4056.69,4057.91,4063.95,4065.59,4067.3,4069.08,4070.79,4070.71,4069.82,4068.87,4067.53,4066.4,4063.22,4059.69,4056.8,4055.7,4053.7,4053.89,4055.08,4056.56,4059.96,4068.54,4078.06,4089.87,4102.43,4116.05,4128.95,4143.16,4155.66,4164.09,4170.79,4174.21,4176.48,4178.57,4180.09,4178.4,4174.89,4171.35,4166.03,4160.95,4154.24,4147.46,4139.37,4129.89,4120.49,4112.97,4103.31,4091.67,4080.93,4068.79,4056.81,4044.73,4031.88,4016.42,3998.57,3978.29,3952.74,3927.81,3902.1,3877.73,3850.8,3823.5,3793.9,3757.92,3712.85,3640.62,3530.33,3408.32,2798.26,2791.55,3095.68,3014.05,2947.73,2905.2,2875.19,2850.78,2837.21,2830.47,2827,2822.68,2818.23,2816.45,2815.85,2816.35,2821.07,2830,2882.58,2955.12,3043.7,3130.71,3236.9,3365.98,3516.66,3661.46,3817.91,3877.57,3907.85,3931.27,3953.12,3972.29,3988.98,4002.28,4012.17,4020.94,4028.97,4035.14,4039.51,4041.14,4042.63,4044.39,4044.43,4046.89,4047.61,4048.63,4047.27,4046.81,4045.97,4045,4043.25,4041.23,4038.42,4035.94,4034.28,4032.04,4032.31,4032.37,4031.97,4032.45,4034.45,4039.18,4043.05,4048.43,4053.83,4058.19,4061.82,4065.61,4069.61,4072.77,4072.74,4072.78,4071.93,4070.01,4067.92,4065.87,4063.8,4059.08,4053.81,4046.97,4037.65,4027.86,4018.32,4009.53,3996.64,3987.66,3978.25,3963.52,3960.79,3959.54,3965.12,3970.28,3972.73,3979.47,3983.52,3989.82,3996.09,3999.9,4004.59,4011.08,4015.92,4011.29,4025.37,4028.95,4030.99,4032.23,4032.3,4033.25,4033.8,4036.1,4035.97,4036,4036.54,4037.5,4040.6,4044.82,4047.52,4048.33,4047.57,4048.03,4042.72,4037.68,4031.64,4029.36,4026.6,4029.17,4028.59,4025.96,4024.98,4024.16,4020.76,4017.77,4016.1,4007.6,4002.97,4004.11,4003.38,4000.9,3995.29,3994.11,3996.97,4005.06,4010.09,4012.09,4011.22,4026.54,4036.16,4046.6,4061.08,4076.69,4089.02,4102.37,4114.96,4126.04,4134.2,4142.24,4153.03,4161.85,4172,4180.79,4189.81,4197.47,4204.55,4210.38,4213.68,4219.17,4225.28,4231.09,4236.71,4242.36,4247.94,4255.78,4264.32,4271.16,4279.15,4282.73,4287.8,4292.48,4295.14,4293.31,4288.71,4279.5,4268.59,4255.29,4243.51,4230,4217.69,4203.64,4192.26,4185.52,4184.53,4185.18,4189.27,4194.13,4201.51,4209.15,4221.74,4233.23,4246.38,4258.51,4269.99,4281.25,4294.03,4306.87,4316.12,4324.65,4341.46,4343.58,4356.35
4040.35,4047.73,4058.78,4070.77,4081.57,4091.61,4100.36,4105.44,4110.06,4111.36,4112.84,4111.69,4107.21,4099.02,4092.34,4087.07,4081.69,4075.09,4066.01,4055.93,4045.75,4039.36,4034.67,4029.79,4024.74,4019.9,4017.43,4017.64,4018.89,4026.68,4023.98,4020.2,4019.7,4016.73,4016,4012.99,4010.32,4006.41,4002.8,4002.81,4003.32,4002.72,4002.73,4001.85,4002.99,4004.54,4009.64,4015.26,4020.1,4019.67,4026.23,4032.03,4038.84,4045.1,4045.65,4050.58,4052.93,4050.66,4052.47,4053.62,4055.07,4059.33,4051.81,4052.76,4054.81,4052.15,4053.81,4050.25,4046.58,4041.15,4035.26,4031.68,4026.83,4019.37,4013.69,4005.96,3998.26,3994.02,3990.36,3987.3,3984.27,3981.75,3980.64,3980.09,3983.73,3987.46,3989.99,3993.19,4001.98,4010.25,4021.86,4033.54,4045.33,4053.58,4064.33,4076.12,4084.31,4090.66,4096.34,4097.1,4093.48,4092.55,4091.38,4088.38,4080.08,4070.84,4065.78,4073.34,4065.17,4063,4061.46,4060.57,4059.91,4066.12,4069.2,4070.73,4072.56,4074.86,4075.98,4076.71,4076.68,4075.08,4073.89,4071.81,4068.4,4064.86,4061.12,4057.31,4053.42,4051.29,4051.04,4050.7,4053.33,4059.8,4068.81,4079.48,4090.41,4102.82,4116.42,4129.33,4141.17,4150.47,4156.64,4161.07,4163.6,4166.76,4169.28,4169.77,4167,4164.6,4161.29,4157.45,4151.69,4146.5,4137.63,4128.06,4118.34,4110.07,4100.94,4088.95,4076.95,4064.97,4051.62,4040.24,4026.73,4010.45,3991.77,3969.69,3943.4,3916.69,3890.81,3865.86,3838.11,3810.9,3781.8,3746.76,3703.51,3635.94,3537.19,3410.26,3043.63,2709.07,3108.73,3027.71,2960.7,2913.24,2880.47,2854.04,2840.29,2833.71,2829.82,2825.27,2821.25,2818.5,2817.56,2817.05,2820.92,2829.66,2881.35,2954.14,3041.04,3124.71,3228.5,3368.35,3505.77,3651.02,3806.45,3869.88,3901.11,3926.77,3949.48,3969.13,3986.62,4000.74,4011.4,4020.36,4028.07,4035.56,4039.12,4041.21,4042.8,4043.02,4043.26,4044.61,4045.31,4046.23,4044.65,4042.45,4040.9,4039.51,4036.25,4033.92,4030.89,4027.9,4025.36,4024.1,4024.87,4026.43,4025.76,4028.09,4030.93,4036.18,4042.92,4048.46,4054.32,4060.11,4064.27,4070.13,4073.24,4075.24,4075.45,4075,4073.87,4070.74,4066.8,4062.96,4058.71,4051.65,4044.85,4036.39,4026.56,4015.63,4006.86,3998.55,3986.06,3978.23,3969.73,3964.65,3962.08,3962.16,3963.96,3965.42,3967.95,3974.89,3979.33,3986.72,3993.91,3999.74,4004.85,4011.9,4016,4020.64,4024.81,4027.66,4030.21,4031.18,4031.65,4031.82,4031.85,4033.73,4033.36,4032.88,4033.19,4033.61,4035.41,4039.58,4041.05,4041.76,4040.45,4036.59,4035.58,4026.99,4026.33,4024.34,4021.14,4023,4018.63,4015.33,4014.2,4012.78,4013.04,4005.52,4003.8,3999.75,3992.06,3990.94,3999.52,3998.48,3998.19,3992.07,3991.81,4001.27,4007.41,4014.42,4022.79,4025.52,4035.44,4045.7,4059.71,4074.09,4086.58,4098.47,4109.71,4119.48,4132.12,4139.98,4145.8,4154.66,4164.35,4173.95,4183.59,4193.43,4200.57,4206.78,4211.49,4217.78,4224.25,4231.83,4237.79,4244.29,4252.28,4262.88,4272.69,4282,4291.26,4296.82,4300.65,4307.86,4311.93,4312.08,4307.09,4296.21,4283.74,4269.09,4255.62,4240.72,4224.53,4206.16,4190.84,4181.38,4177.14,4176.96,4178.4,4181.56,4187.41,4194.87,4207.18,4220.49,4234.7,4249.05,4260.69,4274.12,4288.28,4302.31,4312.35,4321.95,4344.96,4339.92,4350.6
4049.09,4055.52,4066.22,4076.65,4086.8,4096.82,4104.74,4110.16,4114.34,4114.76,4116.61,4115.59,4110.86,4103.55,4097.57,4091.26,4085.39,4078.68,4069.88,4058.12,4048.78,4039.81,4033,4026.76,4020.5,4013.45,4009.3,4008.47,4010.56,4017.56,4014.02,4010.71,4011.28,4009.28,4008.16,4005.37,4002.38,3999.42,3996.48,3995.75,3996,3995.1,3994.51,3994.16,3995.98,3999.35,4004.42,4012.17,4017.91,4018.43,4024.04,4030.78,4034.54,4040.72,4045.8,4050.87,4053.52,4056.19,4053.78,4054.94,4059.46,4059.08,4051.42,4052.9,4049.93,4055.31,4051.2,4048.13,4043.32,4036.86,4031.49,4027.82,4022.67,4015.97,4009.56,4003.09,3996.3,3992.13,3989.88,3988.22,3985.09,3983.79,3983.81,3984.78,3988.99,3993.83,3997.4,4001.48,4009.83,4018.65,4029.6,4041.91,4052.36,4060.76,4070.51,4081.88,4089.29,4094.39,4097.4,4094.12,4093.3,4091.94,4090.67,4087.43,4082.89,4069.4,4064.52,4061.74,4063.08,4061.01,4060.86,4063.78,4067.92,4069.33,4072.61,4073.68,4076.47,4078.06,4079.66,4080.68,4081.65,4080.2,4078.57,4076.69,4073.8,4068.73,4063.71,4058.11,4052.32,4049.48,4046.87,4045.05,4045.1,4050.12,4056.22,4064.78,4073.96,4084.85,4095.1,4106.59,4116.74,4124.92,4131.62,4136.16,4139.97,4144.3,4148.54,4150.35,4149.28,4148.03,4147.98,4144.85,4141.08,4135.62,4127.79,4118.87,4110.51,4102.87,4092.37,4082.6,4069.32,4057.56,4043.47,4031.95,4018.03,4001.03,3979.1,3955.16,3927.8,3901.4,3875.09,3849.33,3821.68,3793.69,3764.25,3731.65,3688.9,3624.58,3514.63,3400.51,3187.88,2618.61,3118.88,3039.82,2970.84,2919.08,2884.26,2855.51,2842.59,2835.84,2831.75,2827.39,2822.82,2820.2,2818.28,2816.79,2820.43,2829.14,2879.28,2952.91,3037.85,3123.43,3215.28,3354.62,3497.26,3642.99,3796.22,3862.17,3894.78,3920.79,3944.59,3966.5,3984.52,3999.28,4010.38,4020.45,4028.07,4035.02,4038.86,4040.38,4041.55,4041.29,4039.16,4039.72,4039.31,4040.06,4038.76,4034.9,4030.53,4027.01,4023.86,4021.11,4017.66,4015.51,4011.78,4010.55,4012.89,4015.97,4018.2,4021.33,4024.83,4031.25,4037.58,4043.07,4049.62,4056.07,4061.67,4065.51,4066.8,4067.96,4065.14,4064.38,4062.56,4057.33,4051.87,4046.53,4041.92,4036.01,4029.17,4022.97,4013.52,4004.39,3996.36,3990.62,3981.04,3974.4,3968.71,3965.04,3964.19,3964.99,3966.14,3968.47,3970.55,3976.63,3980.3,3986.98,3994.16,4000.05,4004.4,4011.19,4016.49,4020.3,4024.51,4027.97,4030.39,4031.74,4031.68,4032.22,4032.37,4033.98,4034.76,4035.05,4035.49,4034.51,4033.67,4034.81,4035.98,4035.94,4034.93,4033.2,4027.04,4022.3,4016.64,4014.72,4011.85,4013.19,4007.76,4002.86,4000.93,3999.05,3995.42,3996,3992,3989.59,3983.56,3988.65,3989.92,3992.83,3994.32,3989.29,3990.58,4001.22,4007.95,4015.56,4023.67,4032.16,4042.12,4047.57,4060.97,4075.03,4085.81,4096.76,4107.93,4118.35,4124.08,4131.47,4141.47,4150.46,4161.07,4170.36,4180.98,4189.88,4198.04,4204.09,4208.72,4215.09,4222.53,4230.11,4237.07,4244.43,4254.18,4267.11,4280.27,4292.27,4304.26,4310.43,4315.85,4325.8,4332.03,4333.2,4327.32,4316.06,4301.15,4285.55,4271.48,4254.94,4234.62,4212.66,4193.91,4180.3,4173.26,4170.52,4169.54,4168.81,4173.53,4180.24,4192.02,4206.32,4221.61,4236.8,4250.92,4264.77,4281.25,4297.67,4308.24,4318.33,4342.12,4343.42,4346.56
4051.45,4058.27,4066.45,4075.85,4085.71,4095.27,4102.95,4108.4,4111.95,4112.68,4115.46,4114.39,4110.47,4103.75,4098.46,4092.46,4087.82,4081.21,4072.95,4061.25,4050.47,4040.47,4032.42,4023.42,4016.17,4007.95,4001.32,3999.4,4000.57,3998.36,4004.04,4000.51,3997.3,3999.81,3999.24,3998.33,3997,3994.29,3991.81,3991.97,3992.67,3993.4,3993.47,3993.23,3995.98,3999.37,4003.73,4011.49,4017.52,4017.89,4019.74,4022.08,4030.02,4036.13,4040.96,4045.85,4048.03,4049.94,4052.75,4053.8,4054.15,4053.16,4049.51,4050.78,4048.08,4053.05,4049.2,4045.24,4039.45,4033.48,4028.17,4025.49,4022.06,4014.72,4009.99,4003.87,3998.95,3996.96,3995.4,3993.82,3991.37,3990.11,3990.82,3993.7,3999.93,4005.59,4008.1,4012.02,4020.37,4030.22,4041.04,4052.24,4060.96,4068.23,4076.69,4082.68,4093.19,4097.2,4095.35,4094.47,4092.1,4090.75,4088.33,4081.35,4077.48,4068.09,4063.46,4060.88,4059.76,4059.2,4059.44,4059.39,4067.96,4075.2,4078.46,4080.51,4082.11,4083.22,4083.83,4084.64,4085.93,4085.42,4085.03,4083.78,4080.28,4075.71,4069.44,4062.9,4054.83,4049.12,4045.26,4041.39,4039.71,4041.86,4045.11,4050.96,4058.33,4065.76,4073.12,4081.9,4089.58,4096.38,4101.75,4107.8,4111.43,4116.7,4122.52,4126.31,4128.45,4128.79,4129.02,4126.98,4124.78,4120.51,4114.03,4104.91,4098.66,4091.33,4083.12,4072.51,4061.72,4050.15,4036.68,4024.77,4010.62,3995,3972.04,3947.02,3920.23,3892.03,3865.28,3838.95,3810.35,3782.53,3752.92,3721.01,3679.78,3608.93,3509.91,3408.43,3197.74,2645.22,3125.03,3050.46,2980.86,2924.96,2887.1,2856.78,2843.63,2837.37,2833.15,2828.89,2823.72,2820.77,2818.23,2815.98,2818.18,2826.46,2874.45,2947.7,3031.96,3122.26,3133.14,3342.5,3480.15,3631.98,3786.52,3855.79,3889.03,3915.84,3941.51,3963.6,3982.97,3998.8,4009.24,4019.52,4027.12,4034.05,4038.39,4038.4,4038.63,4037.5,4034.58,4033.62,4031.11,4030.83,4029.7,4026.02,4019.94,4014.9,4010.28,4008.4,4006.74,4005.29,4001.02,4000.73,4002.89,4007.59,4010.18,4013.43,4018.77,4025.28,4031.59,4038.5,4045.58,4052.54,4058.08,4061.39,4061.52,4060.22,4056.31,4054.88,4051.09,4044.99,4038.28,4032.38,4026.94,4021.91,4017.18,4010.08,4001.7,3993.32,3987.52,3983.6,3976.83,3972.94,3969.16,3968.01,3968.26,3969.74,3971.7,3973.17,3975.23,3980.28,3983.87,3989.71,3996.95,4001.38,4005.52,4011.45,4016.31,4018.94,4022.47,4026,4028.73,4029.39,4030.92,4034.18,4035.01,4037.61,4039.3,4040.14,4041.34,4040.04,4037.06,4036.33,4034.49,4033.32,4030.93,4027.7,4020.1,4018.54,4012.15,4010.49,4007.01,4001.2,3993.88,3988.41,3984.32,3982.8,3979.04,3975.83,3977.95,3977,3977.06,3979.72,3986.97,3988.04,3989.64,3990.69,3992.86,4001.32,4009.34,4017.8,4026.49,4035.64,4045.26,4056.14,4064.22,4077.52,4087.87,4097.84,4107.81,4116.78,4126.85,4129.57,4138.97,4147.9,4157.81,4167.22,4176.91,4187.03,4195.02,4201.81,4206.36,4213.06,4220.49,4228.09,4236.21,4244.77,4255.63,4271.68,4288.37,4303.04,4316.72,4324.81,4331.81,4343.5,4351.99,4353.46,4348.08,4334.56,4319.11,4302.23,4287.66,4270.22,4248.03,4222.27,4199.47,4182.45,4173.68,4168.37,4164.51,4162.18,4163.29,4168.6,4179.65,4193.94,4208.64,4224.07,4237.9,4252.26,4269.58,4285.47,4305.23,4308.48,4331.91,4339.51,4335.67
4050.16,4055.4,4062.99,4071.16,4080.91,4089.62,4097.05,4101.96,4106.65,4108.32,4110.45,4110.98,4108.57,4102.49,4096.9,4092.55,4088.24,4082.72,4074.81,4063.72,4052.64,4042.71,4032.61,4023.24,4014.98,4004.7,3997.92,3994.97,3995.44,3993.6,3991.33,3988.49,3985.84,3985.39,3990.57,3996.3,3991.72,3995.68,3991.27,3988.23,3989.53,3989.93,3989.04,3987.96,3988.96,3995.19,3995.38,4001.12,4004.82,4007.77,4013.89,4020.05,4028.72,4034.22,4038.68,4043.54,4046.49,4048.07,4050.72,4052.4,4052.83,4051.07,4047.89,4045.55,4042.8,4043.61,4039.76,4043.54,4036.89,4030.96,4026.69,4025.07,4022.44,4016.49,4012.47,4008.1,4004.5,4001.24,4001.66,3996.34,3994.69,4002.45,4004.27,4007.51,4015.1,4021.2,4024.28,4027.32,4035.18,4040.25,4045.38,4054.98,4062.22,4067.82,4078.55,4091.03,4088.46,4091.36,4096.36,4093.64,4090.69,4085.34,4084.14,4078.03,4074.33,4069.31,4065.76,4064.09,4063.99,4064.13,4065.56,4065.33,4066.68,4069.84,4074.03,4080.1,4080.69,4082.09,4082.3,4087.01,4092.07,4091.1,4091.59,4090.76,4088.62,4083.54,4077.13,4069.8,4061.48,4053.67,4048.3,4042.61,4037.86,4036.68,4035.79,4039.14,4043.08,4046.9,4052.08,4056.21,4060.74,4066.11,4070.04,4075.36,4080.14,4085.73,4092.17,4097.19,4101.21,4103.28,4105.21,4105.81,4099.35,4096.82,4091.83,4088.76,4083.22,4077.12,4069.58,4056.88,4050.42,4040.27,4028.79,4017.15,4005.04,3989.29,3968.3,3943.96,3918.99,3893.01,3867.7,3843.58,3817.26,3789.51,3761.03,3732.24,3691.66,3633.21,3551.06,3436.39,3285.12,2658.77,3120.34,3063.09,2990.7,2930.62,2889.97,2858.82,2845.69,2840.07,2835.5,2831.55,2826.7,2822.9,2819.43,2816.65,2817.73,2825.37,2870.77,2943.89,3025.35,3102.97,3067.95,3330.1,3463,3612.34,3769.4,3845.04,3878.85,3907.5,3934.3,3957.96,3979.42,3995.27,4007.43,4016.99,4025.36,4031.47,4035.32,4035.04,4034.28,4032.5,4028.22,4024.84,4019.99,4018.73,4015.49,4009.46,4001.09,3995.43,3989.47,3986.81,3985.33,3986.78,3984.56,3986.05,3990.87,3997.32,4001.74,4006.48,4011.68,4018.66,4024.85,4032.17,4038.1,4044.15,4048.19,4050.7,4051.14,4048.15,4044.01,4041.07,4038.53,4033.58,4025.48,4019.95,4015.79,4011.46,4005.97,4000.97,3994.28,3982.89,3983.7,3981.79,3977.99,3975.67,3973.89,3974.7,3975.65,3978.51,3980.76,3982,3984.01,3988.37,3990.98,3995.4,4001.13,4005.43,4008.84,4013.26,4017.34,4020.12,4022.5,4025.27,4027.31,4029.26,4030.93,4033.67,4036.45,4040.34,4042.45,4044.22,4044.86,4043.72,4039.52,4036.1,4033.2,4029.41,4025.1,4020.56,4014.66,4012.09,4004.27,3997.82,3989.04,3982.11,3977.04,3970.12,3962.59,3961.52,3961.82,3959.89,3958.45,3963.85,3962.63,3968.9,3972.89,3980.21,3988.74,3991.45,3995.82,4006.04,4016.28,4025.33,4034.63,4045.24,4054.97,4065.64,4077.54,4085.07,4094.13,4103.69,4113.27,4120.94,4130.79,4136.3,4140.77,4148.83,4158.28,4167.07,4176.33,4185.32,4193.53,4199.31,4204.7,4210.92,4217.98,4226.2,4234.57,4245.16,4258.16,4275.45,4295.17,4311.47,4328.48,4337.78,4346.1,4359.62,4369.78,4372.76,4367.96,4353.87,4337.32,4321.3,4307.24,4289.29,4266.06,4237.25,4213.26,4195.27,4182.95,4174.72,4167.95,4161.93,4161.43,4163.75,4173.62,4185.22,4198.37,4212.87,4225.16,4238.45,4254.9,4270.57,4296.51,4299.53,4315.6,4322.79,4320.03
4045.91,4049.99,4055.89,4062.68,4070.74,4079.21,4086.63,4092.91,4097.06,4099.51,4102.91,4104.06,4102.96,4098.43,4094.76,4090.65,4087.45,4083.86,4077.33,4066.19,4055.79,4044.39,4034.38,4023.45,4013.58,4003.86,3996.14,3992.54,3992.6,3991.19,3989.53,3987.86,3987.29,3988.17,3990.56,3994.77,3997.06,3998.14,3999.43,4001.52,4002.99,4002.88,4001.57,3998.46,3998.62,3998.82,4001.05,4004.17,4005.83,4008.37,4012.64,4019.2,4027.77,4032.97,4036.01,4041.05,4043.35,4045.77,4049.43,4051.25,4051.54,4050.06,4046.86,4044.71,4042.23,4038.05,4034.61,4029.56,4022.78,4017.86,4014.32,4014.02,4012.88,4008.31,4006.37,4004.61,4003.53,4006.55,4008.65,4008.87,4008.06,4008.25,4011.51,4017.3,4025.18,4029.95,4032.54,4036.06,4042.09,4049.73,4057.82,4065.88,4070.1,4072.42,4077.55,4083.45,4087.31,4090.04,4090.2,4086.22,4083.11,4082.99,4082.96,4082.72,4079.46,4075.74,4072.61,4072.92,4073.66,4074.46,4075.73,4076.46,4077.72,4080.39,4084.12,4085.88,4085.54,4085.16,4086.05,4086.45,4087.04,4086.82,4088.26,4087.75,4086.45,4082.29,4080.15,4067.62,4059.24,4050.22,4042.81,4035.33,4027.95,4023.33,4020.43,4024.45,4025.22,4035.06,4035.73,4036.32,4034.81,4033.36,4036.54,4040.51,4045.08,4050.73,4057.8,4064.17,4065.37,4069.62,4072.43,4073.26,4072.7,4069.99,4066.95,4061.07,4056.35,4052.28,4045.44,4037.52,4028.82,4019.22,4009.31,4002.87,3991.64,3976.79,3952.8,3931,3912.32,3885.4,3862.85,3840.3,3825.32,3802.99,3776.4,3748.44,3701.61,3653.63,3574.57,3469.92,3329.23,2788.91,2973.29,3066.67,3000.64,2935.35,2890.92,2860.16,2847.83,2842.21,2838.45,2834.47,2829.18,2825.36,2821.09,2817.99,2818.03,2824.98,2867.9,2941,3020.24,3099.34,3135.57,3312.26,3447.79,3599.04,3757.81,3837.5,3871.75,3902.39,3929.95,3954.06,3977.32,3994.12,4006.32,4016.13,4023.99,4029.84,4032.84,4032.96,4029.6,4026.26,4019.92,4015.29,4008.61,4004.51,3999.22,3991.85,3981.17,3974.65,3967.37,3965.95,3966.26,3968.72,3968.72,3971.88,3978.21,3987.75,3993.05,3999.55,4004.57,4011.16,4016.5,4021.97,4025.93,4031.58,4034.17,4036.46,4035.85,4033.17,4028.77,4025.78,4023.05,4018.08,4012.45,4007.51,4003.62,4000.1,3996.91,3993.14,3988.05,3983.87,3981.4,3981.82,3980.6,3980.55,3980.99,3983.59,3985.75,3988.31,3991.27,3992.15,3992.64,3996.03,3997.8,4001.37,4005.58,4009.35,4011.17,4014.22,4017.41,4019.84,4021.77,4024.15,4026.06,4027.33,4029.85,4034.11,4037.59,4042,4046.61,4049.12,4049.85,4048.66,4042.83,4037.67,4032.19,4027.37,4020.4,4012.47,3999.42,3991.2,3986.41,3983,3973.64,3969.69,3955.08,3947.31,3943.83,3942.29,3943.68,3942.65,3948.58,3951.67,3957.02,3956.58,3963.97,3969.25,3975.17,3984.88,3986.29,4008.99,4025.7,4036.17,4045.92,4055.92,4066.73,4076.99,4088.97,4096.07,4104.33,4112.21,4116.45,4124.32,4133.21,4142.66,4144.71,4152.32,4159.76,4168.67,4177.11,4185.69,4192.78,4199.13,4204.07,4209.99,4217.35,4225.24,4234.85,4246.19,4261.32,4281.24,4302.68,4322.44,4341.22,4352.5,4362.59,4377.32,4390.28,4394.36,4389.18,4376.06,4360.67,4345.32,4332.45,4315.55,4291.09,4261.53,4235.6,4215.4,4200.44,4190.7,4180.42,4171.56,4167.35,4167.56,4174.52,4183.87,4194.08,4205.95,4216.56,4227.1,4242.75,4263.23,4282.07,4290.57,4299.13,4306.17,4309.73
4039.02,4040.8,4045.24,4050.4,4058.69,4065.74,4073.06,4079.72,4084.45,4087.08,4091.82,4094.35,4095.09,4091.85,4089.02,4086.22,4085,4082.84,4078.59,4068.91,4058.64,4047.77,4037.71,4026.62,4016.46,4006.17,3998.25,3993.74,3993.91,3992.99,3992.22,3991.74,3993.57,3996.19,3999.28,4004.51,4007.89,4010.4,4013.12,4016.6,4018.6,4017.56,4015.05,4010.61,4009.16,4008.86,4008.63,4009.67,4009.41,4011.21,4014.19,4019.45,4028.32,4032.47,4035.72,4040.86,4043.09,4045.7,4048.9,4051.05,4050.96,4050.07,4047.42,4046.28,4044.28,4040.44,4036.26,4031.09,4025.72,4021.47,4018.51,4019.47,4020.54,4018.55,4018.2,4018.6,4020.6,4025.59,4029.28,4031.79,4031.65,4032.26,4035.49,4042.81,4050.18,4055.72,4057.26,4058.99,4063.08,4068.14,4073.77,4080.13,4081.76,4082.68,4083.77,4087.51,4090.88,4091.58,4090.9,4087.97,4084.3,4084.82,4087.36,4088.16,4086.95,4084.89,4082.67,4082.91,4085.65,4087.48,4088.2,4088.58,4088.54,4091.04,4094.9,4095.95,4094.22,4093.36,4092.65,4093.27,4094.03,4094.04,4096.4,4097.63,4097.19,4094.98,4089.02,4080.83,4071.37,4062.25,4053.39,4044.07,4035.38,4028.24,4021.67,4019.03,4017.87,4019.82,4018.04,4016.13,4015.65,4012.84,4014.43,4022.62,4027,4032.56,4035.45,4042.22,4048.31,4053.12,4056.08,4058.4,4057.11,4055.17,4051.86,4047.06,4042.68,4039.6,4033.8,4027.86,4021.1,4013.48,4004.32,3995.6,3985.92,3972.59,3955.11,3935.81,3916.39,3895.43,3863.27,3855,3834.1,3816.59,3795.74,3764.9,3720.61,3670,3593.72,3489.05,3366.91,3067.94,2999.23,3075.56,3009.64,2940.03,2891.94,2860.77,2849.41,2844.55,2840.98,2836.85,2831.94,2827.88,2823.27,2819.64,2818.67,2824.72,2864.83,2939.01,3017.73,3096.01,2829.13,3302.1,3431.01,3586.65,3750.98,3836.43,3870.53,3901.97,3930.15,3954.67,3977.3,3994.33,4005.08,4016.14,4022.78,4027.11,4030.05,4027.41,4024.03,4019.26,4011,4004.26,3994.61,3989.4,3982.03,3972.52,3961.64,3953.94,3945.12,3944.79,3946.62,3950.58,3953.23,3958.55,3967.03,3978.04,3985.54,3992.67,3996.98,4003.9,4009.09,4013.17,4015.45,4019.61,4020.8,4022.96,4022.25,4017.6,4012.58,4009.23,4008.13,4004.57,3999.19,3995.18,3992.63,3990.27,3988.49,3986.63,3982.75,3981.38,3981.16,3983.87,3984.77,3986.95,3989.87,3993.61,3996.36,4000.36,4003.46,4003.94,4003.49,4005.78,4006.64,4008.07,4011.22,4012.82,4014.1,4015.59,4018,4019.89,4020.63,4022.15,4023.58,4025.1,4028.35,4034,4038.65,4043.79,4049.3,4053.19,4055.32,4053.46,4046.92,4040.69,4034.93,4027.86,4019.45,4009.02,3999.05,3993.7,3987.69,3974.1,3971.96,3957.84,3942.38,3934.04,3930.4,3929.22,3929.63,3939.27,3941.16,3942.39,3951.13,3962.32,3967.38,3975.02,3988.51,3996.6,4005.6,4019.73,4037.5,4048.43,4058.71,4069.67,4080.8,4091.28,4101.97,4113.67,4115.49,4123.54,4132.07,4139.63,4142.55,4151.44,4157.54,4158.65,4165.18,4172.91,4179.9,4188.64,4194.8,4200.75,4205.26,4209.97,4217.12,4225.81,4234.1,4247.06,4264.29,4285.23,4309.06,4331.64,4351.95,4366.12,4378.03,4394.3,4409.07,4413.52,4414.17,4403.14,4384.28,4370.73,4358.93,4343.35,4319.13,4287.91,4261.73,4239.23,4221.54,4208.95,4195.66,4184.08,4176.89,4174.12,4176.96,4183.31,4190.35,4199.68,4206.18,4215.24,4228.18,4253.94,4262.81,4272.56,4279.88,4286.84,4296.8
4030.14,4029.55,4032.02,4034.95,4041.28,4048.69,4055.76,4062.41,4067.46,4071.43,4076.72,4080.55,4082.04,4081.05,4079.27,4078.92,4079.11,4080.05,4076.77,4069.58,4060.03,4050.41,4040.45,4028.78,4018.71,4008.29,3999.94,3995.65,3996.38,3995.4,3994.02,3994.89,3997.36,4001.59,4005.35,4010.32,4014,4018.53,4022.86,4027,4028.99,4027.6,4024.09,4020.68,4018.9,4017.45,4015.64,4015.56,4013.64,4014.13,4017.68,4022.46,4030.54,4034.85,4038.09,4042.92,4045.77,4048.86,4052.84,4054.59,4055.45,4054.14,4052.5,4051.51,4050.13,4046.25,4043.29,4038.01,4032.81,4029.45,4026.88,4029.77,4032.54,4032.79,4033.69,4035.84,4039.04,4045.7,4050.19,4053.59,4053.35,4054.86,4059.17,4065.96,4073.42,4078.21,4079.16,4079.59,4082.36,4085.4,4088.95,4091.96,4092.25,4089.41,4089.61,4091.26,4092.52,4092.51,4090.99,4087.56,4085.74,4087.13,4091.42,4094,4094.78,4093.75,4092.34,4093.78,4096.74,4099.03,4099.07,4099.81,4099.88,4100.84,4103.19,4103.44,4102,4099.88,4098.22,4098.85,4098.52,4098.75,4101.65,4103.84,4105.47,4104.75,4100.07,4093.31,4083.35,4073.76,4064.48,4054.76,4044.35,4034.9,4026.09,4021.08,4018.17,4014.63,4012.27,4007.39,4005.86,4004.9,4007.1,4010.12,4014.48,4020.38,4025.7,4032.11,4038.75,4043.28,4045.97,4046.64,4045.5,4043.28,4041.24,4037.29,4033.3,4030.28,4025.73,4021.27,4016.32,4010.55,4003.55,3985.02,3987.88,3977.77,3962.94,3941.27,3929.58,3911.42,3894.33,3876.37,3850.87,3827.57,3808.72,3778.52,3743.27,3694.81,3622.03,3518.03,3391.25,3158.6,2977.16,3069.56,3019.98,2945.8,2893.17,2862.41,2850.87,2846.27,2842.58,2838.93,2833.84,2829.85,2824.81,2821.08,2819.17,2824.62,2861.72,2936.28,3014.22,3095.24,2522.57,3289.94,3436.8,3590.61,3751.17,3837.96,3874.29,3904.66,3932.87,3958.24,3981.01,3997.77,4008.13,4017.98,4024.1,4028.04,4029.05,4026.16,4019.95,4012.5,4003.15,3994.47,3983.47,3975.82,3967.56,3956.88,3944.97,3935.76,3913.96,3914.75,3918.03,3937.27,3942.25,3949.76,3959.18,3970.92,3980.09,3988.78,3993.56,3999.4,4003.32,4005.99,4006.7,4009.53,4010.15,4010.73,4003.4,3998.68,3998.39,3995.68,3994.52,3991.54,3987.8,3985.5,3984.24,3982.48,3982.6,3982.7,3982.71,3982.97,3985.52,3990.19,3993.89,3998.23,4003.15,4008.55,4011.96,4015.37,4017.57,4016.48,4015.52,4015.65,4014.74,4015.53,4016.66,4016.71,4016.41,4016.59,4017.93,4019.23,4018.85,4019.54,4020.4,4022.06,4026.96,4033.3,4038.68,4045.09,4051.58,4056.92,4060.04,4058.32,4051.54,4044.32,4036.35,4028.1,4018.87,4006.75,3994.9,3988.3,3981.8,3970.92,3958.92,3948.07,3936.1,3922.07,3918.27,3917.03,3917.72,3927.4,3931.21,3934.07,3940.73,3954.67,3966.53,3971.06,3986.74,3996.48,4002.95,4028.48,4047.56,4059.04,4069.14,4080.46,4092.31,4103.85,4114.77,4126.49,4133.76,4136.07,4144.39,4150.8,4153.82,4156.7,4162.11,4167.11,4173,4178.93,4186.75,4192.5,4198.54,4203.25,4206.59,4210.78,4216.62,4224.19,4232.71,4246.32,4263.78,4285.68,4311.84,4336.12,4359.02,4375.22,4388.38,4406.19,4421.21,4431.67,4424.86,4414.15,4401.52,4389.32,4378.58,4363.56,4340.48,4310.75,4283.56,4260,4240.08,4225.42,4210.26,4196.5,4187.39,4182.55,4181.7,4183.93,4189.04,4193.59,4198.71,4204.03,4214.28,4237.56,4244.81,4252.32,4259.76,4266,4275.93
4018.48,4016.66,4016.52,4018.05,4024.09,4030.16,4036.9,4043.07,4048.5,4052.62,4058.89,4064.17,4068.1,4067.91,4068.54,4069.42,4070.94,4074.02,4073.52,4067.77,4059.68,4051.48,4041.39,4030.29,4020.01,4011.15,4002.38,3997.7,3997.72,3997.13,3997.17,3998,4002.35,4006.6,4010.88,4016.71,4020.95,4025.58,4031.05,4035.76,4037.56,4036.61,4032.65,4028.35,4026.4,4024.29,4021.28,4019.67,4017.96,4018.59,4021.32,4026.87,4034.21,4039.24,4042.1,4047.34,4050.81,4055.24,4058.43,4061.72,4063.02,4062.12,4061.8,4061.42,4059.51,4056.2,4053.55,4048.72,4042.8,4039.03,4037.68,4041.14,4045.7,4046.9,4049.78,4053.28,4058.18,4065.04,4070.56,4074.67,4076.67,4078.61,4082.34,4089.04,4094.94,4099.1,4100.05,4099.37,4099.57,4099.7,4101.78,4102.88,4100.36,4095.23,4092.8,4092.67,4091.43,4090.93,4089.2,4085.63,4083.55,4085.46,4089.97,4094.51,4097.37,4097.39,4097.55,4098.93,4102.49,4104.16,4104.28,4103.93,4103.82,4104.14,4105.8,4106.13,4102.67,4100.3,4098.41,4098.73,4098.71,4100.14,4103.64,4106.88,4110.55,4110.71,4106.86,4100.94,4093.57,4083.74,4074.89,4064.56,4053.41,4042.36,4032.16,4025.91,4021.92,4017.79,4013.37,4008.31,4005.74,4006.41,4006.73,4009.69,4012.68,4016.22,4021.99,4027.09,4032.03,4036.8,4037.95,4037.21,4035.26,4031.93,4029.71,4026.62,4023.85,4022.31,4018.29,4014.95,4011.64,4007.77,4003.8,3998.02,3991.51,3984.27,3972,3959.37,3945.63,3929.69,3914.08,3898.02,3880.24,3856.94,3834.43,3810.13,3776.73,3726.26,3654.84,3553.65,3425.73,3230.57,2848.16,3044.34,3031.44,2952.1,2894.93,2862.55,2850.93,2846.73,2843.08,2838.93,2834.39,2830.85,2825.37,2820.95,2818.65,2823.87,2858.43,2933.82,3012.52,3094.42,2495.62,3287.91,3430.95,3585.7,3751.68,3845.68,3881.81,3917.47,3944.54,3968,3989.53,4004.7,4013.45,4023.76,4027.85,4029.3,4030.06,4023.88,4017.31,4008.85,3997.88,3988.12,3975.77,3967.35,3958.39,3946.04,3934.26,3925.8,3917.96,3905.87,3919.44,3930.91,3937.83,3945.46,3956.16,3968.45,3978.36,3986.48,3991.22,3996.4,3998.58,3999.57,3998.75,4000.35,4000.37,3999.54,3996.42,3982.41,3986.83,3983.4,3982.6,3981.77,3978.61,3977.63,3978.44,3979.41,3982.2,3984.78,3986.68,3990.45,3995.37,4002.49,4008.47,4014.08,4020.32,4025.87,4029.21,4032.54,4033.32,4031.24,4028.14,4026.42,4024.06,4023.09,4022.04,4020.64,4018.27,4016.17,4017.16,4017.41,4016.88,4015.94,4016.38,4020.22,4025.36,4032.61,4039.19,4045.58,4053.3,4059.72,4057.79,4061.1,4049.61,4041.31,4027.32,4018.12,4007,3993.97,3981.17,3968.99,3961.23,3955.43,3946.52,3935.55,3923.82,3914.21,3910.44,3908.85,3906.45,3907.47,3911.78,3919.89,3933.97,3949.64,3962.89,3973.17,3984.48,3996.31,4008.59,4024.61,4038.99,4051.4,4061.99,4075.02,4087.54,4099.07,4111.28,4123.3,4131.91,4140.01,4147.79,4155.16,4161.78,4168.78,4173.66,4178.62,4183.14,4188.31,4193.81,4199.32,4203.54,4206.8,4208.97,4211.38,4215.47,4221.4,4230.25,4243.23,4260.91,4282.9,4310.29,4335.34,4360.69,4378.84,4394.34,4413.12,4429.32,4436.14,4434.75,4426.28,4414.99,4403.27,4392.79,4379.72,4357.52,4329.47,4302.67,4278.55,4258.49,4241.71,4225.88,4210.38,4199.2,4191.87,4188.87,4187.88,4188.52,4190.13,4192.12,4194.17,4202.14,4222.54,4228,4235.07,4241.65,4246.38,4255.8
4006.59,4002.18,3999.92,4001.18,4005.41,4010.97,4017.23,4023.19,4028.96,4034.15,4040.65,4047.35,4052.63,4054.14,4056.85,4059.54,4062.53,4066.39,4068.75,4065.56,4058.98,4051.84,4043.19,4032.91,4023.16,4014.72,4006.19,4001.64,4000.91,4000.99,4001.6,4003.43,4008.07,4013.41,4017.59,4023.74,4029.2,4033.86,4039.58,4045.14,4047.53,4045.99,4041.53,4037.11,4034.41,4031.56,4027.81,4025.32,4022.79,4022.82,4025.21,4031,4038.96,4044.13,4047.87,4053.09,4057.48,4062.53,4067.86,4071.47,4074.43,4074.7,4074.9,4075.48,4074.62,4071.4,4067.94,4063.4,4058.5,4054.29,4053.59,4057.63,4061.21,4063.76,4067.87,4071.53,4076.29,4083.61,4089.45,4093.98,4095.65,4097.38,4101.55,4107.2,4112.96,4116.15,4116.78,4114.62,4112.94,4110.71,4109.87,4109.48,4104.74,4098.86,4094.05,4091.37,4087.77,4087.07,4083.72,4079.75,4078.19,4080.37,4086.11,4091.08,4095.36,4097.72,4097.59,4099.87,4103.73,4105.94,4104.83,4104.65,4103.96,4103.5,4104.87,4104.29,4101.23,4097.13,4095.03,4095.47,4095.39,4097.42,4101.23,4106.16,4110.89,4112.61,4112.23,4106.64,4100.53,4092.28,4084.73,4073.81,4063.58,4052.33,4041.8,4034.67,4029.82,4023.89,4018.87,4013.19,4010.66,4009.25,4009,4011,4012.71,4015.19,4018.97,4023.36,4027.35,4030.45,4030.18,4027.94,4025.33,4020.61,4019.82,4016.68,4014.07,4012.36,4009.96,4008.58,4006.83,4006.06,4003.66,3998.9,3995.99,3991.13,3982.47,3972.29,3963.15,3949.35,3936.62,3921.71,3906.26,3883.64,3863.3,3840.52,3808.99,3760.07,3691.91,3592.61,3459.86,3286.67,2544.25,2960.34,3044.47,2959.93,2897.69,2863.61,2851.33,2847.38,2843.38,2839.75,2834.66,2831.28,2825.31,2821.19,2818.09,2822.72,2854.48,2929.85,3008.82,3092.05,2982.58,3295.36,3430.16,3587.73,3752.81,3858.26,3898.89,3930.67,3956.76,3979.48,3999.95,4013.84,4021.3,4028.68,4031.55,4031.53,4031.16,4025.06,4015.31,4006.42,3994.6,3983.36,3971.16,3961.57,3952.06,3940.34,3924.27,3920.78,3910.37,3917.84,3922.73,3930.01,3937.67,3946.69,3956.78,3968.71,3978.45,3986.42,3989.55,3993.47,3996.27,3995.9,3993.6,3989.31,3988.51,3991.19,3983.59,3978.81,3973.72,3975.71,3975.87,3975.93,3974.23,3975.06,3976.86,3980.18,3983.94,3989.71,3994.11,3999.83,4006.68,4015.14,4022.33,4029.96,4037.2,4043.37,4046.59,4048.68,4048.17,4044.61,4040.31,4036.25,4032.41,4029.55,4027.08,4023.62,4019.28,4016.45,4015.52,4014.58,4013.5,4012.28,4013.52,4016.31,4021.18,4028.56,4035.6,4042.06,4050.42,4057.28,4060.08,4058.75,4047.17,4038.72,4029.24,4014.54,4008.02,3994.64,3981,3967.82,3955.62,3949.01,3945.39,3929.26,3918.77,3910.4,3906.99,3906.12,3903.61,3905.81,3910.99,3921.24,3936.65,3952.98,3966.08,3977.27,3989.82,4001.5,4013.55,4030.5,4044.17,4057.04,4067.61,4081.62,4094.96,4107.97,4120.49,4133.15,4141.92,4151.33,4159.26,4165.93,4173.09,4179.61,4183.47,4187.58,4192.48,4195.96,4200.39,4204.96,4207.82,4210.98,4211.33,4211.21,4212.89,4217.98,4225.26,4237.59,4256.34,4277.17,4303.04,4330.81,4355.92,4377.13,4394.02,4413.72,4429.1,4436.45,4436.42,4430.81,4420.91,4411.17,4402.74,4390.31,4370.61,4342.21,4316.84,4294.78,4272.27,4256.23,4239.61,4222.84,4210.16,4201.13,4194.52,4190.76,4187.6,4185.74,4183.93,4183.82,4187.69,4205.37,4208.14,4212.88,4218.48,4224.33,4232.46
3993.43,3987.7,3983.92,3984.04,3987.09,3991.9,3998.41,4004.74,4010.09,4015.51,4022.23,4029.85,4036.07,4039.76,4044.27,4047.95,4053.94,4059.69,4063.74,4061.5,4057.32,4051.38,4043.75,4034.88,4025.95,4017.17,4010.5,4005.29,4005.33,4005.69,4006.93,4008.56,4013.34,4019.25,4024.27,4030.61,4035.97,4042.8,4049.54,4055.49,4057.93,4056.38,4052.96,4047.5,4043.62,4040.32,4035.65,4032.02,4027.57,4027.12,4029.85,4035.82,4043.63,4049.21,4053.23,4059.83,4065.03,4071.02,4077.03,4081.41,4085.97,4087.84,4089.02,4090.2,4090.33,4087.36,4084.56,4080.5,4074.78,4071.85,4071.37,4075.13,4078.76,4081.73,4084.74,4089.22,4093.82,4100.17,4104.98,4108.1,4110.77,4112.23,4115.63,4120.78,4125.35,4128.4,4127.94,4125.41,4121.79,4119.29,4117.06,4114.58,4108.78,4102.08,4095.67,4090.47,4085.86,4083.25,4080.1,4076.31,4074.37,4077,4081.77,4087.39,4092.32,4095.37,4096.42,4097.34,4101.05,4102.48,4102.29,4101.68,4100.51,4099.59,4100.33,4099.32,4095.26,4091.59,4089.79,4090.22,4089.82,4092.24,4097.27,4101.78,4108.13,4111.7,4112.89,4109.33,4104.87,4098.96,4092.05,4083.14,4072.67,4062.49,4052.26,4044.95,4040.36,4034.29,4029.89,4023.48,4019.8,4018.14,4017.33,4017.2,4018.6,4018.81,4020.49,4023.9,4025.52,4027.21,4026.55,4023.82,4019.93,4014.47,4012.56,4009.33,4007.09,4006,4004.31,4003.67,4003.52,4003.46,4002.47,4000.81,3999.9,3997.12,3990.54,3985.11,3978.59,3968.05,3958.46,3945.52,3932.22,3911.18,3891.46,3868.96,3838.4,3793.49,3726.94,3632.57,3492.96,3315.56,2608.26,2889.02,3056.8,2968.07,2900.77,2865.19,2852,2847.81,2843.49,2839.48,2834.58,2831.42,2825.4,2821.42,2817.62,2821.96,2851.72,2926.3,3006.26,3091.45,3157.23,3302.23,3438.34,3596.94,3763.33,3875.05,3905.72,3942.82,3968.11,3990.57,4009.09,4021.87,4028.81,4035.92,4037.09,4036.28,4035.14,4028.5,4018.24,4008.5,3995.39,3984.1,3970.5,3960.55,3951,3940.45,3924.86,3922.58,3912.71,3921.06,3926.88,3935.05,3938.55,3951.83,3960.54,3971.97,3980.93,3987.59,3990.06,3992.15,3993.15,3991.49,3989.32,3989.3,3986.03,3983.94,3979.4,3975.79,3967.2,3969.89,3970.58,3971.21,3972.14,3974.26,3978.42,3983.66,3990.14,3996.48,4002.16,4010.06,4017.55,4026.47,4034.58,4041.79,4049.4,4055,4057.87,4059.08,4057.92,4052.86,4047.86,4042.47,4038.81,4033.14,4028.79,4024.15,4019.02,4014.81,4012.97,4011.31,4010.18,4008.4,4009.8,4011.52,4015.86,4022.5,4029.26,4036.33,4043.38,4049.08,4051.91,4051.15,4044.96,4037.36,4027.95,4018.44,4007.39,3994.55,3981.07,3973.2,3966.15,3961.29,3949.64,3941.08,3932.73,3927.29,3924.41,3924.09,3928.44,3931.53,3938.2,3948.14,3961.96,3978.48,3990.05,4001.44,4013.06,4024.45,4036.6,4051.95,4065.11,4078.19,4089.86,4103.57,4118.02,4131.61,4145.28,4158.3,4168.7,4177.91,4185.81,4193.01,4200.58,4207.24,4200.19,4197.24,4206.14,4203.41,4205.91,4209.7,4211.72,4212.88,4212.19,4210.28,4209.99,4213.67,4220.87,4232.34,4248.15,4269.74,4295.15,4320.03,4345.3,4369.17,4387.29,4406.47,4422.56,4430.17,4431.75,4427.96,4421.89,4413.43,4404.13,4393.38,4374.52,4350.23,4327.33,4305.85,4285.18,4268.37,4251.74,4234.71,4221.74,4212.58,4203.95,4195.97,4189.27,4184.37,4180.23,4176.39,4177.62,4191.59,4191.74,4194.33,4199.24,4204.08,4211.58
