3800.92,3794.05,3787.86,3782.86,3779.8,3775.5,3772.84,3772.76,3772.75,3773.9,3777.88,3782.56,3784.53,3784.23,3784.3,3783.33,3781.71,3781.59,3781.82,3782.65,3784.65,3785.89,3784.47,3783.93,3782.66,3781.16,3779.96,3778.98,3777.46,3775.88,3774.36,3772.74,3768.82,3763.9,3757.64,3751.33,3745.89,3740.73,3735.79,3730.17,3726.2,3724.96,3725.67,3729.26,3734.2,3741.98,3753.62,3766.52,3783.37,3800.87,3822.34,3844.71,3866.92,3881.41,3898.72,3911.83,3920.32,3927.51,3931.87,3931.11,3926.32,3919.75,3912.18,3905.15,3902.75,3896.12,3888.35,3879.3,3870.18,3863.25,3856.08,3845.22,3832.9,3835.5,3826.06,3825.73,3820.59,3814.03,3808.01,3798.5,3793.46,3788.33,3781.99,3775.31,3768.12,3764.76,3762.72,3761.9,3765.92,3766.9,3763.86,3764.65,3768.18,3773.95,3780.11,3790.36,3799.46,3807.47,3815.03,3823.38,3830.49,3834.63,3837.03,3837.47,3829.32,3827.33,3824.13,3820.37,3816.57,3812.81,3810.32,3811.64,3812.36,3817.05,3821,3826.04,3826.53,3828.35,3829.83,3833.38,3834.48,3832.82,3828.85,3830.28,3833.38,3829.24,3826.64,3825.08,3825.33,3823,3822.47,3822.31,3818.38,3824.01,3832.38,3832.24,3832.77,3832.1,3833.95,3826.83,3822.7,3818.17,3814.13,3811.62,3811.39,3812.53,3808.75,3808.91,3799.76,3804.85,3806.55,3813.43,3816.25,3818.62,3823.46,3828,3830.11,3834.3,3843.14,3838.73,3836.97,3836.68,3828.22,3826.02,3812.36,3809.4,3801.64,3801.02,3800.96,3801.14,3796.35,3792.87,3789.15,3786.54,3784.53,3781.24,3777.69,3774.46,3770.84,3769.07,3767.79,3767.02,3764.41,3764.14,3765.59,3769.94,3778.47,3787.5,3799.54,3811.66,3823.23,3835.03,3845.09,3855.8,3861.36,3863.46,3864.86,3862.87,3859.01,3851.47,3845.28,3836.62,3829,3821.19,3814.46,3807.87,3802.41,3798.39,3798.15,3797.22,3797.39,3795.71,3795.21,3795.51,3795.72,3793.44,3793.09,3791.8,3789.48,3786.88,3785.67,3782.83,3781.23,3777.99,3776,3771.96,3769.14,3765.22,3762.31,3759.65,3754.85,3751.63,3750.2,3748.92,3748.68,3749.02,3751.85,3755.24,3757.55,3761.68,3764.57,3764.94,3766.12,3769.48,3771.25,3773.34,3775.32,3776.78,3777.2,3778.63,3781.19,3782.26,3780.36,3780.59,3779.11,3776.2,3774.02,3774.54,3775.65,3775.97,3775.67,3775.07,3772.72,3770.99,3769.79,3768.87,3768.66,3767.77,3768.06,3769.77,3770.07,3773.16,3775.35,3778.85,3782.78,3785.39,3788.53,3789.19,3782.83,3774.42,3761.7,3745.53,3726.08,3705.54,3683.35,3659.06,3635.33,3616.27,3598.38,3576.32,3554.72,3532.47,3507.71,3482.9,3460.23,3438.92,3418.64,3402.34,3393.36,3390.35,3394.97,3406.42,3421.45,3439.02,3458.65,3479.12,3500.8,3523.71,3546.07,3566.5,3583.5,3600.41,3618.68,3637.11,3653.86,3668.82,3682.96,3693.58,3699.01,3704.18,3708.52,3710.4,3711.27,3711.4,3711.14,3709.83,3707.6,3706.74,3706.65,3705.91,3704.64,3705.09,3707.67,3712.15,3714.92,3719.09,3723.21,3726.77,3731.96,3736.46,3741.3,3746.31,3749.04,3751.47,3752.85,3752.48,3751.47,3750.05,3747.92,3747.19,3745.19,3744.82,3746.48,3750.54,3754.11,3756.87,3761.35,3765.65,3768.76,3775.37,3781.33,3785.74,3788.6,3789.62,3791.59,3792.28,3792.43,3791.94,3790.46,3787.74,3783.73,3778.37,3773.24,3768.1,3762.37,3756.4,3751.24,3746.28,3741.96,3738.27,3735.56,3733.86,3731.7,3728.74,3727.46,3728.96,3731,3734.16,3737.5,3742.26,3749.49,3757.57,3767.5,3775.67,3781.07,3784.24,3785.65,3785.61,3782.08,3776.18,3769.87,3760.96,3752.68,3744.73
3770.34,3764.94,3760.08,3755.26,3752.19,3748.65,3746.47,3747.19,3747.92,3749.27,3752.96,3756.84,3758.63,3759.4,3760.56,3761.02,3760.34,3761.39,3762.11,3762.86,3765.03,3766.71,3764.2,3762.22,3760.6,3757.75,3754.92,3752.22,3748.92,3744.91,3748.27,3746.28,3740.71,3736.07,3729.72,3723.46,3718.16,3712.76,3708.51,3700.72,3693.18,3691.85,3692.61,3695.66,3700.82,3708.56,3719.63,3732.92,3748.83,3766.03,3787.21,3809.51,3831.29,3850.81,3867.58,3877.18,3886.53,3895.4,3902.19,3904.62,3902.68,3898.87,3893.55,3887.99,3886.81,3882.32,3874.77,3867.32,3859.73,3852.98,3846.57,3841.08,3835.14,3824.15,3817.95,3812.5,3806.1,3799.22,3793.02,3787.45,3781.23,3775.83,3768.8,3762.73,3754.96,3751.46,3749.32,3747.29,3745.59,3745.98,3745.41,3745.46,3746.54,3749.88,3753.29,3758.66,3766.24,3774.57,3780.28,3784.93,3788.7,3791.22,3792.22,3791.64,3787.62,3781.17,3776.98,3773.78,3772.08,3770.79,3770.48,3773.09,3778.49,3784.03,3788.2,3790.25,3791.17,3792.73,3794.36,3798.64,3800.27,3798.48,3799.64,3801.64,3802.01,3801.98,3800.64,3798.64,3794.89,3792.44,3791.51,3791.29,3791.3,3795.54,3799.42,3801.55,3802.01,3800.97,3799,3796.15,3791.07,3786.69,3782.58,3780.36,3781.01,3781.92,3781.86,3780.59,3778.27,3779.86,3781.7,3783.93,3785.68,3787.14,3790.63,3794.26,3797.61,3803,3804.41,3803.74,3801.83,3798.78,3795.33,3790.85,3787.12,3784.56,3780.96,3777.39,3773.46,3769.97,3765.8,3762.01,3758.66,3755.57,3753.78,3750.69,3748,3744.68,3740.55,3737.75,3736.31,3735.21,3732.44,3730.87,3731.95,3736.59,3743.51,3751.95,3763.19,3772.24,3781.92,3792.8,3802.36,3812.16,3818.45,3822.28,3824.53,3823.27,3821.17,3814.55,3809.1,3801.68,3794.39,3786.33,3778.61,3771.63,3766.71,3762.76,3762.73,3762.25,3762.93,3761.97,3762.8,3763.5,3764.3,3762.99,3762.53,3761.72,3759,3756.93,3755.57,3752.91,3750.97,3749.02,3747.43,3743.42,3740.81,3737.23,3735.43,3732.92,3729.33,3726.81,3725.76,3725.42,3726.3,3726.27,3729.17,3732,3733.97,3738.27,3739.48,3740.26,3741.57,3745.25,3748.42,3751.03,3753.28,3755.2,3756.06,3757.91,3759.92,3761.52,3759.76,3759.05,3757.26,3755.24,3753.09,3752.61,3752.91,3752.56,3750.98,3748.84,3746.61,3744.97,3743.62,3743.17,3742.95,3741.6,3740.7,3742.75,3743.31,3744.15,3744.08,3746.22,3748.81,3750.39,3752.43,3752.12,3747.21,3740.03,3728.58,3714.46,3696.27,3677.32,3656.54,3634.26,3612.85,3595.35,3577.87,3557.1,3536.75,3516.55,3493.83,3470.28,3448.38,3428.32,3408.73,3392.79,3383.29,3380.08,3383.73,3394.07,3408.17,3424.39,3442.2,3462.19,3482.74,3503.68,3524.14,3542.23,3557.6,3573.48,3590.47,3607.01,3622.78,3636.99,3649.17,3659.43,3666.54,3673.11,3679.41,3683.65,3685.54,3685.43,3684.32,3683.16,3681.66,3681.2,3681.45,3680.5,3680.01,3680.14,3682.3,3687.17,3691.03,3696.66,3702.87,3709.13,3715.69,3722.04,3728.03,3733.43,3737.22,3740.42,3742.11,3742.24,3741.37,3740.04,3738.04,3737.23,3735,3734.08,3734.53,3737.54,3740.39,3743.07,3747.61,3751.06,3754.18,3759.98,3764.83,3768.64,3771.7,3771.94,3773.22,3773.44,3773.02,3772.49,3769.99,3766.1,3761.93,3756.79,3751.79,3746.88,3742.06,3737.41,3733.17,3728.13,3724.35,3721.45,3718.86,3717.6,3715.57,3712.83,3711.83,3713.12,3715.68,3718.31,3721.56,3726.58,3735.14,3743.94,3754.26,3763.31,3768.63,3772.33,3774.51,3774.7,3772,3766.4,3760.05,3751.8,3744.8,3736.67
3743.83,3740.33,3736.35,3731.6,3728.66,3725.9,3725.06,3726.12,3726.77,3727.2,3729.48,3733.54,3734.62,3735.7,3737.22,3737.08,3736.74,3737.02,3738.89,3739.87,3742.63,3744.4,3741.83,3740.26,3737.1,3733.47,3729.57,3725.42,3720.35,3714.56,3716.68,3712.54,3706.18,3700.86,3694.6,3688.68,3683.27,3678.64,3675.54,3668.98,3662.69,3662.21,3662.63,3664.22,3668.58,3675.62,3686.41,3699.63,3716.12,3732.72,3752.72,3775.38,3796.07,3815.4,3832.97,3843.89,3854.84,3865.26,3874.71,3879.4,3880.51,3879.95,3876.16,3870.47,3870.06,3865.27,3857.58,3848.68,3839.9,3831.4,3824.42,3819.48,3814.11,3803.3,3798.18,3793.85,3788.24,3781.77,3776.7,3771.2,3764.44,3758.12,3752.46,3746.85,3740.22,3736.97,3734.28,3731.68,3729.73,3729.5,3727.45,3725.37,3724.87,3726,3727.04,3729.55,3736.16,3741.82,3745,3747.33,3748.28,3748.77,3748.38,3746.92,3742.98,3736.48,3733.29,3729.94,3730.05,3731.19,3732.84,3738.15,3744.91,3751.13,3756.43,3759.26,3760.1,3761.97,3762.93,3766.25,3766.57,3763.45,3764.4,3766.7,3766.29,3766.68,3766,3764.07,3761.04,3759.17,3758.38,3758.33,3758.05,3761.48,3765.15,3766.4,3766.93,3765.93,3763.19,3760.36,3755.3,3751.45,3747.81,3745.82,3746.89,3747.96,3746.99,3745.96,3743.78,3745.02,3745.96,3747.46,3748.52,3747.92,3750.23,3753.89,3756.34,3760.9,3761.76,3761.7,3759.98,3757.65,3755.76,3752.27,3749.09,3747.42,3744.02,3741.6,3737.9,3735.84,3731.81,3728.39,3725.61,3723.06,3721.31,3718.23,3714.92,3711.47,3706.82,3704.39,3701.83,3700.25,3697.6,3695.65,3695.25,3698.85,3704.84,3711.61,3720.8,3727.4,3735.32,3743.67,3753.73,3762.51,3768.8,3772.76,3775.75,3775.98,3774.77,3770.13,3766.38,3760.02,3753.67,3745.96,3737.76,3730.57,3725.88,3723.02,3722.8,3722.38,3723.27,3722.26,3723.56,3725.4,3727.07,3726.11,3726.45,3725.63,3723.99,3721.13,3719.8,3717.03,3714.66,3712.43,3710.24,3706.42,3703.48,3700.36,3699.18,3697.63,3694.15,3692.03,3691.41,3691.52,3692.25,3692.47,3694.34,3696.77,3698.84,3702.84,3703.39,3704.02,3705.39,3709.38,3712.45,3715.08,3716.43,3717.75,3717.38,3719.61,3721.16,3721.94,3720.48,3719.11,3718.18,3717.35,3716.42,3716.46,3716.95,3716.86,3715.73,3713.42,3712.48,3712.23,3711.68,3712.35,3712.69,3712.18,3711.04,3712.62,3712.32,3712.77,3711.21,3712.51,3713.51,3713.41,3714.49,3712.79,3706.9,3700.26,3689.76,3677.08,3660.64,3643.68,3625.43,3605.46,3587.03,3570.96,3555.14,3536.08,3517.03,3498.14,3477.67,3455.86,3435.31,3416.57,3398.02,3382,3373.05,3369.71,3372.87,3382.05,3394.28,3409.71,3426.96,3444.9,3463.79,3482.99,3500.8,3516.19,3530.83,3545.62,3560.82,3575.58,3589.15,3602.55,3614.94,3626.83,3636.97,3645.65,3652.98,3656.7,3657.87,3657.44,3657.84,3657.78,3657.8,3657.93,3657.81,3656.82,3657.11,3658.07,3660.31,3664.4,3668.83,3674.46,3681.66,3690.43,3698.86,3706.93,3714.64,3720.28,3725.39,3729.12,3731.72,3732.45,3732.01,3730.89,3729.51,3728.22,3725.71,3723.76,3723.38,3725.3,3727.73,3730.15,3733.28,3735.64,3737.88,3741.78,3745.53,3748.35,3749.75,3749.01,3749.07,3748.13,3747.37,3746.16,3743.71,3740.53,3736.35,3732.01,3728.1,3724.07,3719.28,3715.32,3711.9,3708.5,3706.05,3704.45,3702.99,3702.18,3701.13,3699.24,3698.44,3700,3702.33,3705.11,3708.38,3712.67,3719.48,3728.61,3739.45,3747.9,3754.95,3759.01,3761.18,3761.53,3759.33,3754.41,3748.56,3742.4,3735.17,3728.13
3712.95,3711.05,3708.08,3704.76,3702.39,3701.15,3700.88,3702.31,3703.5,3703.47,3704.87,3706.92,3707.81,3709.69,3710.82,3709.66,3709.96,3710.59,3711.85,3713.95,3718.3,3721.03,3719.72,3717.77,3714.88,3710.41,3706.67,3700.67,3694.26,3686.75,3685.75,3679.58,3672.01,3665.15,3659.63,3653.3,3649.05,3645.09,3642.05,3637.52,3631.55,3632.21,3633.28,3634.95,3638.94,3644.97,3654.2,3666.42,3682.01,3699.59,3717.67,3738.64,3758.67,3777.27,3794.89,3805.91,3816.31,3826.21,3834.79,3841.49,3842.25,3841.04,3837.6,3832.86,3832.97,3828.65,3822.69,3815.25,3808.05,3801.23,3794.8,3791.37,3786.4,3776.12,3772.65,3769.95,3766.57,3761.46,3757.61,3752.58,3745.79,3740.73,3734.22,3727.92,3721.5,3717.65,3714.47,3711.47,3709.05,3708.08,3704.74,3702.66,3701.02,3699.97,3699.33,3700.03,3704,3707.59,3708.16,3707.82,3705.91,3704.16,3701.7,3699.4,3694.83,3689.25,3686.1,3683.64,3686.61,3690.75,3693.47,3699.77,3707.78,3714.18,3718.9,3722.57,3723.48,3723.85,3724.37,3726.61,3726.97,3723.58,3724.79,3727.09,3727.44,3727.83,3727.46,3726.15,3723.83,3721.98,3721.73,3722.1,3721.66,3724.94,3728.07,3728.87,3729.6,3728.01,3724.91,3721.95,3717.01,3713.57,3709.53,3707.82,3708.53,3708.23,3706.73,3706.57,3704.77,3705.67,3705.53,3706.64,3707.22,3706.06,3707.85,3711.3,3712.91,3716.91,3718.03,3718.42,3717.05,3714.93,3713.62,3711.75,3709.39,3708.34,3705.77,3703.57,3700.85,3698.99,3696.02,3694.05,3691.03,3688.32,3686.91,3684.21,3681.27,3677.61,3672.77,3668.98,3666.3,3664.48,3661.77,3658.31,3656.83,3658.89,3662.46,3667.97,3674.92,3680.79,3686.74,3693.9,3702.84,3711.3,3718.8,3724.45,3728.6,3729.85,3730.31,3727.68,3725.97,3720.87,3715.69,3708.58,3702.16,3695.68,3690.73,3687.57,3686.73,3686.18,3686.89,3685.4,3686.51,3688.25,3690.16,3689.98,3689.97,3689.14,3687.9,3685.65,3685.06,3683.32,3680.95,3679,3677.25,3674.04,3670.52,3668.33,3667.24,3665.82,3662.97,3660.89,3660.55,3660.36,3660.49,3660.57,3661.88,3663.31,3657.1,3664.26,3661.07,3657.9,3659.47,3661.94,3664.31,3662.28,3676.87,3676.72,3674.9,3675.86,3676.27,3676.68,3676.61,3676.57,3676.89,3677.43,3677.62,3677.97,3679.4,3680.45,3680.54,3680.4,3680.57,3681.82,3681.54,3682.59,3685.14,3684.96,3683.75,3684.33,3683.61,3682.87,3680.28,3680.72,3681.17,3679.94,3679.47,3677.05,3671.7,3664.42,3655.53,3643.66,3628.95,3613.37,3596.79,3579.02,3562.53,3547.44,3532.47,3514.11,3496.57,3479.02,3459.45,3439.51,3420.37,3403.12,3385.8,3371.72,3362.77,3359.51,3361.91,3370.11,3381.61,3395.86,3411.85,3428.34,3445.58,3462.42,3477.26,3490.74,3504.33,3517.74,3531.82,3544.46,3558,3569,3581.83,3594.59,3605.19,3613.59,3620.5,3623.75,3625.45,3626.45,3627.43,3629.4,3630.7,3631.2,3630.37,3628.76,3629.2,3631.77,3635.85,3640.22,3645.21,3650.87,3658.56,3668.64,3679.85,3688.86,3696.69,3702.49,3708.09,3712.35,3714.93,3715.47,3714.97,3714.07,3711.79,3710.35,3706.97,3703.67,3702.06,3702.44,3704.36,3705.27,3707.27,3708.3,3708.97,3711.81,3714.97,3716.78,3716.81,3714.81,3713.47,3711.48,3709.98,3707.93,3705.42,3701.94,3698.11,3694.92,3692.17,3689.65,3687.1,3685.52,3684.89,3683.89,3683.89,3684.38,3684.04,3684.34,3684.08,3682.61,3682.13,3683.36,3684.96,3686.28,3689.46,3694.85,3701.55,3710.42,3720.37,3729.23,3735.02,3739.85,3742.67,3743.68,3742.34,3739.42,3734.44,3728.92,3722.93,3716.88
3681.37,3680.21,3677.99,3675.81,3675.02,3673.69,3673.81,3675.2,3676.31,3676.78,3677.13,3678.16,3678.94,3681.13,3682.13,3681.57,3681.97,3682.03,3683.77,3685.46,3690.71,3694.23,3693.55,3692.62,3690.83,3686.99,3683.81,3676.64,3669.2,3659.19,3656.63,3648.06,3637.9,3629.74,3619.63,3617.45,3613.67,3610.67,3608.19,3604.65,3600.69,3601.6,3602.56,3603.75,3606.94,3612.6,3620.82,3631.63,3646.52,3662.87,3680.62,3699.02,3717.73,3735.45,3752.11,3763.12,3773.03,3781.49,3789.44,3796.46,3797.59,3796.1,3792.77,3788.78,3787.94,3784.78,3780.89,3773.94,3767.66,3761.16,3756.74,3754.64,3750.79,3741.95,3739.58,3738.63,3735.81,3731.85,3729.34,3726.39,3720.85,3715.45,3709.51,3704.37,3697.54,3694.02,3691.8,3687.79,3682.93,3681.19,3677.67,3675.52,3673.48,3672.65,3670.31,3669.35,3672.33,3674.25,3672.04,3669.52,3665.53,3661.15,3657.01,3653.59,3648.78,3643.36,3639.76,3639.81,3644.79,3650.55,3654.53,3660.53,3668.23,3674.17,3678.56,3682.23,3682.42,3681.77,3680.48,3682.15,3682.5,3680.3,3686.52,3690.02,3691.33,3693.16,3693.41,3692.86,3691.7,3691.11,3691.07,3686.59,3686.37,3688.8,3690.51,3690.83,3691.03,3689.51,3685.69,3682.02,3677.41,3673.75,3670.06,3667.5,3667.75,3666.5,3665.42,3664.94,3664.01,3665,3665.06,3665.32,3666.25,3665.57,3666.85,3669.88,3671.75,3675.48,3677.69,3678.19,3677.13,3676.2,3675.84,3674.82,3673.38,3672.14,3669.46,3667.25,3665.12,3664.46,3662.88,3660.04,3657.46,3655.28,3653.66,3650.76,3647.52,3643.31,3638.02,3632.87,3629.16,3626.51,3623.1,3618.95,3616.67,3617.15,3619.09,3623.11,3629.03,3634.17,3639.01,3645.73,3653.64,3663.45,3670.33,3676.94,3682.31,3684.8,3685.96,3685.35,3684.92,3682.17,3679.22,3673.74,3667.51,3660.98,3657.06,3655.03,3654.76,3654.16,3653.55,3651.72,3651,3652.54,3654.25,3654.09,3654.47,3653.31,3652.04,3650.34,3650.06,3649.05,3648.06,3646.65,3644.53,3641.85,3639.06,3637.03,3636.07,3634.99,3632.6,3631.19,3630.77,3630.96,3630.77,3630.98,3631.74,3632.58,3625.03,3631.37,3627.63,3624.04,3625.28,3626.02,3626.82,3627.27,3636.87,3635.13,3633.06,3632.77,3632.25,3632.01,3631.78,3632.71,3634.23,3636.73,3638.39,3640.53,3643.15,3646.05,3647.55,3648.49,3650.15,3651.9,3652.75,3654.75,3656.98,3656.93,3655.69,3656.23,3654.33,3652.68,3649.83,3649.11,3647.83,3645.92,3645.67,3642.23,3637.04,3630.13,3622.23,3612.07,3598.05,3584.03,3569.22,3553.06,3537.62,3523.91,3509.41,3492.05,3475.27,3458.69,3440.45,3422.38,3405,3389.18,3374.03,3361.06,3353.31,3350.04,3351.94,3358.67,3369.35,3382.66,3397.59,3413.36,3428.36,3443.93,3457.7,3470.64,3482.64,3495.22,3507.74,3519.82,3531.4,3542.27,3553.17,3563.86,3573.2,3580.99,3587.73,3590.62,3592.06,3593.57,3595.61,3597.56,3598.25,3598.14,3596.75,3594.46,3596.01,3599.51,3604.33,3611.15,3617.5,3625.28,3633.05,3644.95,3657.84,3666.83,3674.6,3680.86,3686.85,3690.47,3693.13,3693.61,3692.68,3690.96,3688.29,3685.97,3682.07,3677.12,3673.62,3672.06,3672.28,3672.38,3673.27,3673.46,3672.84,3674.08,3675.61,3676.49,3675.86,3672.67,3670.49,3667.64,3664.34,3661.87,3659,3655.73,3652.89,3651.28,3650.72,3650.42,3650.3,3651.33,3652.44,3653.97,3656.52,3658.82,3660.62,3661.62,3662.17,3661.52,3661.48,3662.5,3663.88,3665.34,3667.78,3672.47,3678.08,3685.54,3694.81,3702.45,3707.34,3712.25,3715.63,3716.51,3715.36,3712.63,3709.45,3704.83,3700.34,3696.31
3648.27,3648.09,3646.42,3645.02,3645.21,3645.49,3645.26,3645.58,3645.99,3645.19,3645.33,3646.38,3647.38,3649.96,3651.48,3652.19,3652.82,3653.36,3654.96,3657.89,3662.47,3665.55,3665.38,3665.58,3664.52,3661.56,3658.14,3651.08,3643.71,3632.49,3627.28,3618.18,3606.86,3597.27,3591.14,3584.48,3581.31,3579.03,3576.9,3574.1,3569.47,3570.31,3571.94,3572.96,3575.41,3580.61,3587.28,3596.86,3610.58,3624.82,3640.76,3657.65,3674.15,3689.85,3705.54,3716.61,3726.23,3734.7,3742.82,3751.56,3752.76,3751.25,3748.8,3745.43,3744.96,3742.21,3738.39,3732.01,3726.44,3720.92,3717.7,3717,3714.18,3706.26,3704.66,3703.78,3702.77,3699.25,3697.48,3695.45,3690.69,3686.68,3681.71,3677.16,3671.54,3669.24,3667.16,3661.87,3655.99,3653.8,3650,3647.01,3644.58,3642.82,3640.17,3638.89,3640.78,3641.58,3638.06,3632.88,3626.23,3619.64,3614.53,3610.05,3604.42,3599.48,3595.08,3598.14,3605.31,3612.73,3618.53,3623.81,3630.49,3636.05,3639.46,3643.39,3642.04,3639.69,3637.71,3639.58,3640.56,3639.87,3647.21,3651.88,3654.6,3657.57,3658.9,3659.78,3659.1,3659.04,3658.94,3654.9,3653.79,3654.22,3655.31,3654.64,3654.69,3653,3649.04,3644.83,3638.73,3634.72,3630.85,3627.53,3627.38,3625.99,3623.83,3622.88,3622.12,3622.92,3623.74,3624.26,3626.01,3625.11,3626.24,3629.24,3630.93,3634.98,3637.27,3637.75,3636.25,3635.01,3636.01,3635.51,3634.3,3633.4,3631.77,3630.54,3629.08,3629.35,3628.5,3627.04,3624.47,3622,3619.88,3616.84,3613.47,3608.65,3602.66,3596.03,3592.29,3589.27,3585.67,3580.71,3577.61,3577.23,3578.36,3581.34,3582.46,3591,3594.72,3600.22,3608.52,3617.56,3625.15,3631.83,3637.56,3640.48,3641.58,3641.74,3643.07,3642.23,3640.58,3636.23,3631.39,3625.51,3622.32,3621.59,3621.54,3621.27,3621.11,3618.56,3617.69,3618.64,3620.73,3620.32,3620.21,3619.07,3618,3617.1,3617.85,3617.34,3616.97,3616.02,3614.22,3611.63,3609.06,3606.7,3605.81,3605.1,3603.55,3602.45,3602.48,3602.89,3603.05,3603.75,3604.8,3605.53,3605.7,3607.7,3607.67,3606.64,3606.24,3606.07,3605.14,3603.23,3599.93,3596.48,3593.12,3591.48,3589.88,3589.17,3588.78,3590.21,3592.47,3596.41,3599.04,3602.61,3606.01,3609.65,3612.25,3614.96,3617.47,3620.38,3621.67,3623.89,3626.55,3626.92,3625.86,3626.3,3624.74,3622.43,3618.19,3616.67,3614.71,3612.34,3609.8,3605.64,3600.38,3594.89,3587.65,3578.56,3566.24,3553.88,3540.46,3526.56,3512.34,3499.4,3486.18,3469.64,3453.86,3437.82,3421.44,3405.49,3389.8,3375.46,3361.99,3350.5,3343.51,3340.52,3341.67,3347.78,3356.82,3369.49,3382.72,3396.91,3410.62,3424.76,3438.05,3450.56,3462.11,3473.04,3483.58,3493.9,3503.08,3511.83,3521.43,3530.35,3538.23,3544.97,3550.62,3554.01,3555.92,3558.08,3560.11,3561.32,3561.2,3560.08,3558.23,3555.35,3557.08,3560.83,3566.25,3573.67,3581.71,3590.34,3600.25,3611.73,3625.11,3635.29,3644.41,3651.98,3657.93,3662.17,3665.35,3665.92,3664.72,3662.42,3659.94,3657.18,3652.44,3646.31,3640.25,3636.19,3634.1,3632.78,3632,3630.71,3629.39,3628.66,3628.82,3628.88,3627.53,3624.43,3620.97,3617.2,3613.2,3610.31,3607.83,3604.86,3603.19,3602.65,3603.6,3605.43,3607.47,3610.97,3614.86,3618.8,3623.78,3628.73,3631.41,3633.89,3635.08,3635.82,3635.75,3636.9,3637.77,3638.65,3641.18,3645.01,3650.67,3657.58,3665.27,3672.28,3676.05,3680.46,3683.22,3684.21,3682.97,3681.58,3678.7,3675.25,3672.39,3669.08
3613.99,3614.37,3614,3613.46,3614.51,3614.07,3614.4,3614.02,3614.13,3613.64,3613.3,3614.75,3615.98,3618.63,3620.51,3622.39,3623.95,3624.55,3626.54,3628.76,3632.82,3635.42,3634.33,3634.23,3633.57,3630.24,3627.09,3619.95,3613.34,3603.03,3597,3587.58,3576.16,3566.34,3558.98,3552.38,3548.02,3544.7,3542.68,3539.79,3536.13,3537.55,3540.01,3541.73,3544.77,3549.7,3556.01,3564.72,3577.62,3589.26,3602.12,3615.66,3630.31,3643.53,3657.28,3667.61,3676.84,3685.33,3695.44,3705.77,3708.43,3707.89,3705.79,3701.9,3701.05,3698.67,3695.47,3690.21,3684.94,3680.03,3677.95,3677.99,3676.6,3669.37,3668.3,3668.21,3667.75,3665.11,3665.41,3665.63,3661.14,3657.85,3653.41,3649.5,3644.66,3642.29,3640.91,3635.02,3628.1,3625.16,3621.26,3618.25,3616.46,3614.01,3610.65,3608.84,3610.41,3611.05,3604.94,3597.84,3589.4,3580.8,3574.08,3568.48,3560.97,3556.48,3551.73,3555.34,3564.05,3572.94,3579.77,3585.11,3590.37,3596.27,3597.75,3602.06,3600.7,3598.07,3597.18,3599.34,3600.68,3601.13,3610.88,3616.7,3621.7,3625.84,3628.41,3629.87,3629.61,3630.62,3631.02,3628.54,3626.42,3625.21,3623.41,3621.36,3620.37,3618.39,3613.63,3608.44,3600.72,3595.21,3591.77,3590.02,3589.6,3587.99,3586.26,3585.1,3584.42,3585.25,3586.71,3587.78,3588.61,3588.01,3588.48,3590.78,3592.76,3595.62,3596.89,3596.7,3594.28,3593.35,3593.95,3593.31,3592.44,3591.71,3590.38,3589.55,3589.56,3591.61,3592.04,3591.24,3589.98,3587.68,3585.76,3583.34,3580.33,3575.16,3569.78,3562.59,3558.64,3554.78,3550.05,3544.83,3540.48,3539.28,3539.66,3537.8,3545.57,3549.26,3553,3557.52,3564.76,3573.39,3580.85,3587.56,3592.75,3596.08,3597.07,3596.09,3596.96,3596.5,3595.72,3591.21,3585.66,3579.52,3575.52,3575.69,3576.41,3577.13,3577.24,3575.22,3575.24,3576.32,3579.5,3581.19,3582.46,3583.68,3583.31,3583.26,3584.5,3584.76,3585.12,3585.38,3583.42,3581.54,3579.26,3577,3576.12,3575.14,3574.04,3573.51,3573.47,3574.37,3575.48,3577,3578.61,3579.53,3579.2,3580.98,3580.18,3578.96,3577.87,3575.67,3571.85,3568.16,3563.51,3558.76,3553.49,3550.31,3548.11,3546.76,3546.86,3549.6,3552.43,3556.72,3560.45,3564.62,3568.62,3573.15,3577.14,3580.64,3584.58,3588.66,3590.99,3594.54,3597.29,3597.72,3597.7,3598.01,3596.44,3592.91,3588.4,3585.64,3581.21,3577.07,3573.64,3568.23,3562.24,3557.07,3551.62,3543.85,3533.84,3523.32,3511.36,3499.83,3487.69,3476.03,3462.93,3447.46,3432,3417.21,3402.47,3388.39,3374.35,3361.69,3349.65,3339.99,3333.56,3330.92,3331.44,3336.79,3345.07,3355.69,3367.91,3380.16,3392.69,3405.48,3417.93,3430.01,3440.84,3450.75,3458.83,3466.69,3473.74,3480.02,3486.8,3494.21,3500.27,3505.07,3509.3,3513.29,3515.25,3518.19,3519.65,3520.56,3520.04,3518.95,3516.12,3513.12,3514.18,3517.86,3523.2,3531.34,3539.93,3549.61,3560.58,3573.16,3586.55,3597.85,3607.82,3615.87,3622.11,3627.29,3630.67,3631.76,3631.05,3629.09,3626.05,3621.37,3615.52,3610.11,3604.37,3599.57,3596.37,3593.13,3591.31,3589.02,3585.96,3583.29,3581.23,3578.83,3575.7,3571.58,3567.19,3563.06,3558.67,3555.3,3553.65,3551.39,3551.12,3552.6,3556.37,3560.23,3564.96,3571.12,3577.31,3583.45,3590.93,3597.73,3601.87,3605.19,3607.56,3609.14,3609.24,3611.08,3611.52,3611.43,3612.8,3616.19,3621.07,3626.53,3632.83,3638.08,3641.98,3645.61,3647.7,3647.92,3646.23,3644.55,3641.68,3638.28,3635.66,3631.4
3582.6,3582.83,3581.77,3581.7,3583.44,3583.01,3582.88,3582.81,3583.1,3582.83,3582.9,3583.94,3585.6,3588.14,3590.83,3593.1,3595.07,3595.44,3597.68,3599.7,3602.31,3604.02,3602.28,3602.2,3601.38,3598.34,3594.65,3587.65,3581.19,3572.76,3565.61,3555.71,3544.64,3533.62,3525.68,3518.36,3513.48,3509.24,3506.14,3503.35,3500.33,3502.46,3505.76,3508.52,3513.04,3518.17,3524.69,3532.82,3544.23,3553.55,3565.13,3574.97,3585.74,3595.98,3607.02,3616.34,3625.42,3632.6,3643.27,3655.47,3659.7,3661.17,3659.71,3654.78,3651,3648.14,3646.16,3641.72,3636.31,3630.86,3629.59,3630.72,3632.01,3628.79,3629.86,3630.28,3632.56,3631.84,3633.37,3633.64,3629.69,3626.75,3623.28,3619.74,3615.91,3612.69,3611.94,3606,3599.55,3597.22,3594.1,3591.27,3588.83,3583.43,3577.89,3574.5,3575.06,3573.55,3566.43,3557.61,3548.5,3539.02,3534.46,3530.2,3522.82,3518.74,3514.67,3519.71,3529.36,3538.63,3546.57,3551.76,3555.45,3559.56,3560.62,3565.16,3564.03,3561.13,3560.31,3562.65,3564.77,3566.64,3576.3,3580.24,3585.54,3589.27,3592.1,3593.69,3592.81,3593.15,3593.01,3591.67,3590.97,3589.6,3587.32,3584.39,3583.24,3581.3,3577.19,3573.36,3567.55,3563.03,3560.22,3558.14,3557.21,3555.25,3553.08,3551.62,3550.62,3551.37,3552.26,3553.22,3554.5,3553.7,3553.13,3554.44,3554.67,3555.93,3556.52,3555.56,3551.89,3550.02,3549.58,3548.75,3547.79,3547.64,3546.53,3546.06,3547.34,3551.24,3555.18,3556.57,3557.65,3556.84,3556.13,3554.77,3552.78,3547.4,3541.49,3533.76,3528.35,3522.74,3517.51,3510.88,3506.13,3503.16,3502.82,3504.39,3507.88,3510.64,3513.15,3517.23,3524.06,3530.23,3537.59,3543.71,3547.82,3550.33,3550.69,3549.18,3549.79,3549.19,3548.23,3543.57,3538.65,3533.21,3530.63,3531.1,3532.49,3533.36,3533.26,3532.17,3533.15,3535.5,3539,3540.74,3541.66,3544.57,3546.91,3548.43,3549.83,3551.03,3553.11,3554.13,3552.06,3549.54,3547.43,3545.26,3543.15,3541.98,3540.03,3538.42,3537.73,3537.98,3537.87,3538.85,3540.16,3541.32,3540.82,3542.37,3541.67,3540.12,3539.53,3537.07,3532.41,3528.3,3522.65,3517.22,3511.91,3508.17,3505.23,3503.42,3503.52,3506.89,3510.38,3515.99,3520.26,3524.97,3529.56,3534.68,3539.1,3543.65,3549.03,3553.83,3556.86,3560.75,3563.63,3564.93,3565.71,3566.33,3563.77,3559.95,3554.6,3550.71,3544.11,3538.45,3533.21,3527.05,3521.15,3516.64,3512.2,3506.77,3499.4,3491.48,3482.25,3473.37,3462.81,3452.36,3440.18,3425.4,3410.28,3396,3382.04,3369.61,3356.92,3345.93,3335.7,3327.46,3322.29,3320.19,3320.59,3325.5,3333.13,3342.87,3353.77,3364.85,3375.89,3387.3,3398.53,3410.22,3419.92,3427.95,3433.82,3438.78,3443.32,3447.15,3451.45,3455.61,3459.33,3462.51,3465.58,3469.3,3472.01,3474.25,3476.28,3477.22,3476.94,3475.03,3472.39,3469.23,3469.55,3473.07,3477.75,3485.38,3494.33,3504.95,3516.22,3529.09,3542.72,3553.79,3564.54,3573.29,3580.28,3584.75,3587.69,3589.63,3589.68,3588.01,3584.76,3580.48,3574.77,3570.23,3565.1,3559.41,3555.91,3552.03,3548.54,3545.02,3540.72,3536.43,3533.41,3528.85,3524.23,3519.01,3514.28,3509.68,3505.76,3503.19,3501.64,3500.69,3501.95,3505.59,3511.3,3517.32,3524.01,3532.62,3540.36,3548.82,3557.54,3565.59,3571.16,3574.73,3577.17,3579,3579.57,3580.78,3581.04,3580.64,3581.6,3584.15,3587.54,3591.54,3595.6,3599.88,3602.7,3605.34,3606.41,3605.46,3603.19,3600.44,3596.68,3593.11,3588.94,3583.98
3547.43,3546.52,3545.25,3544.6,3545.07,3543.54,3542.36,3541.89,3543.93,3544.99,3546.12,3547.39,3550.37,3554.39,3558.01,3562.83,3566.2,3566.63,3568.38,3570.26,3572.34,3572.9,3571.31,3569.74,3568.14,3564.93,3561,3554.37,3548.48,3540.31,3534.28,3523.84,3513.16,3501.17,3491.64,3484.36,3479.68,3474.03,3470.12,3468.07,3465.23,3466.73,3471.37,3474.96,3480.12,3485.46,3491.27,3499.1,3509.35,3517.37,3526.58,3533.77,3542.07,3549.33,3558.86,3567.49,3575.57,3583.02,3592.64,3604.85,3609.63,3610.79,3608.57,3601.76,3592.96,3588.14,3585.01,3579.86,3575.5,3570.26,3571.1,3574.67,3579.49,3580.1,3584.92,3589.28,3596.9,3597.86,3601.76,3602.29,3599.31,3597.23,3593.97,3590.15,3586.75,3581.22,3580.23,3575.12,3569.46,3573.24,3569.95,3567.17,3563.33,3555.23,3547.19,3541.93,3539.21,3534.41,3522.69,3513.47,3504.95,3498.16,3496.04,3494.75,3489.53,3488.08,3486.25,3492.87,3503.14,3511.04,3517.9,3521.6,3523.94,3528.17,3528.49,3531.8,3531.01,3528.43,3527.7,3529.5,3531.29,3534.31,3542.35,3546.15,3550.28,3553.64,3555.53,3555.93,3555.04,3554.68,3552.66,3551.82,3552.7,3551.97,3550.81,3548.51,3548.66,3546.91,3544.48,3542.98,3539.08,3534.52,3532.04,3530.01,3530.07,3528.2,3526.86,3525.57,3525.73,3526.39,3527.5,3529.05,3529.78,3528,3526.39,3526.15,3524.51,3522.91,3520.67,3517.53,3512.09,3507.82,3506.12,3504.44,3502.77,3501.98,3501.22,3500.75,3504.1,3509.96,3515.73,3519.66,3523.42,3524.95,3526,3526.28,3526.08,3521.26,3515.33,3506.61,3499.64,3493.37,3486.6,3480.63,3475.92,3472.47,3471.12,3471.63,3473.48,3475.18,3476.55,3478.96,3484.32,3487.84,3493.37,3498.68,3501.35,3502.9,3501.44,3499.09,3498.95,3499.01,3497.75,3492.91,3487.81,3483.35,3480.97,3483.46,3485.29,3486.08,3485.19,3484.64,3485.74,3488.82,3492.7,3496.58,3498.2,3502.07,3506.51,3510.36,3513.07,3516.06,3519.55,3522.77,3520.96,3517.81,3514.14,3511.67,3509.34,3506.99,3504.15,3501.15,3499.41,3498.76,3498.67,3499.35,3500.16,3500.47,3499.24,3499.8,3498.22,3496.88,3495.64,3491.69,3485.45,3479.62,3473.03,3467.47,3463.14,3459.61,3455.89,3453.86,3455.34,3459.04,3463.82,3471.84,3478.22,3483.83,3488.8,3494.25,3498.74,3504.8,3510.14,3514.65,3517.78,3520.26,3521.55,3522.43,3523.07,3523.46,3521.76,3517.35,3512.68,3507.26,3500.69,3494.39,3487.73,3480.91,3475.06,3471.13,3469.13,3466.03,3461.27,3456.06,3449.78,3443.67,3435.44,3426.39,3414.92,3400.51,3385.49,3372.12,3359.04,3347.3,3335.01,3325.55,3317.46,3311.81,3308.28,3307.16,3308.6,3313.65,3320.58,3330.55,3340.67,3350.92,3360.08,3370.12,3381.13,3390.72,3399.53,3405.41,3407.91,3410,3410.66,3411.29,3412.21,3413.72,3415.15,3416.37,3418.49,3422.88,3426.81,3429.56,3432.05,3433.84,3434.17,3432.44,3429.96,3427.09,3427.05,3429.72,3433.61,3440.44,3449.06,3459.32,3470.27,3482.42,3496.37,3507.39,3517.21,3525.64,3532.33,3536.43,3539.53,3541.16,3541.85,3540.83,3537.77,3533.11,3528.25,3523.03,3517.45,3513.03,3508.72,3503.94,3499.99,3494.53,3489.63,3485.08,3480.19,3474.83,3469.03,3463.92,3458.44,3454.18,3450.54,3449.08,3448.9,3449.16,3452.13,3457.96,3465.59,3474.2,3483.3,3493.59,3503.24,3513.46,3524.07,3532.9,3538.52,3542.34,3545.64,3546.66,3546.76,3547.33,3546.76,3545.31,3545.27,3546.39,3547.98,3549.86,3552.36,3554.62,3555.64,3556.75,3556.63,3554.22,3551.35,3547.77,3543.33,3538.54,3533.67,3528.16
3508.41,3506.31,3504.73,3502.8,3503.18,3501.8,3501.33,3501.28,3504.39,3513.42,3516.63,3518.96,3522.72,3526.62,3530.77,3535.94,3538.89,3538.57,3532.63,3533.29,3534.05,3534.62,3533.88,3531.98,3530.25,3528.29,3524.64,3517.77,3512.73,3505.55,3500.18,3489.93,3480.53,3468.47,3458.43,3450.98,3445.51,3439.84,3435.66,3434.2,3432.28,3433.11,3437.77,3442.54,3447.91,3453.56,3458.89,3466.23,3475.3,3482.77,3490.24,3495.74,3502.56,3509.23,3516.95,3529.39,3537.65,3543.82,3551.57,3559.24,3562.26,3561.23,3557.26,3548.51,3537.92,3531.96,3527.94,3523.17,3519.57,3515.09,3517.97,3523.33,3530.58,3534.95,3546.42,3554.22,3561.13,3564.56,3570.83,3572.42,3570.75,3568.74,3566,3562.46,3557.71,3550.94,3554.11,3547.5,3542.21,3540.07,3536.42,3532.01,3526.45,3517.68,3508.08,3499.06,3495.15,3488.61,3475.12,3466.04,3459.18,3455.28,3456.58,3457.18,3454.17,3454.87,3455.46,3464.05,3474.93,3483.2,3489.17,3492.15,3494.38,3498.57,3498.08,3501.11,3499.39,3496.46,3495.54,3496.4,3498.6,3502.24,3508.64,3511.22,3514.4,3516.67,3517.5,3517.58,3516.35,3515.07,3511.22,3511.12,3513.56,3513.76,3512.87,3511.43,3512.86,3512.92,3511.69,3511.96,3510.46,3506.7,3504.99,3503.88,3504.32,3502.23,3500.83,3500.21,3500.71,3501.37,3502.46,3504.01,3505.31,3503.86,3500.4,3497.53,3493.63,3489.8,3485.34,3480.05,3473.25,3468.13,3465.51,3462.8,3461.18,3459.94,3459.27,3459.27,3463.94,3471.16,3478.84,3485.35,3491.05,3495.67,3499.43,3502.66,3504.13,3499.87,3493.36,3484.03,3474.77,3466.14,3458.39,3450.69,3445.12,3440.67,3437.5,3436.22,3437.15,3438.65,3439.11,3440.18,3443.13,3444.67,3448.17,3452.16,3453.35,3453.34,3451.29,3448.23,3448.35,3447.96,3446.74,3441.86,3436.35,3433.21,3431.06,3433.4,3435.18,3435.12,3433.74,3433.28,3434.9,3438.51,3443.11,3449.77,3454.31,3460.09,3466.51,3472.15,3477.53,3482.65,3487.73,3491.41,3490.39,3486.68,3482.58,3479.54,3475.1,3472.11,3468.24,3463.75,3460.21,3457.72,3455.94,3454.61,3452.7,3451.57,3448.92,3447.56,3446.37,3446.72,3446.48,3440.83,3433.99,3427.89,3419.96,3414.5,3411.47,3408.83,3403.73,3401.59,3404.45,3410.35,3416.92,3426.43,3434.7,3440.87,3446.84,3451.89,3456.35,3461.74,3466.67,3470.62,3472.58,3472.79,3471.47,3469.46,3469.73,3469.48,3466.98,3462.98,3458.09,3453.2,3446.9,3440.78,3434.77,3428.91,3423.64,3421.01,3420.93,3420.06,3418.21,3416.11,3413.13,3410.01,3404.72,3397.23,3386.31,3372.55,3357.34,3343.58,3330.93,3318.37,3305.71,3295.36,3287.61,3281.56,3278.61,3277.02,3278.1,3284.73,3292.6,3302.96,3314.81,3325.77,3336.06,3346.03,3358.31,3367.72,3374.2,3378.2,3378.65,3377.39,3375.28,3372.7,3371.04,3370.37,3369.9,3369.79,3371.53,3375.07,3379,3382.72,3386.17,3388.72,3389.06,3387.55,3384.84,3382.46,3383.21,3385.57,3389.02,3394.88,3402.35,3412.43,3422.85,3435.07,3447.65,3457.99,3468.19,3475.89,3482.33,3486.87,3489.51,3490.44,3490.77,3489.97,3487.14,3482.35,3477.68,3471.84,3466.67,3460.82,3456.78,3451.51,3446.25,3440.61,3435.22,3429.59,3424.32,3418.46,3413.08,3406.82,3401.28,3397.57,3394.55,3393.55,3394.35,3396.29,3400.82,3408.4,3417.94,3428.8,3439.92,3451.99,3463.64,3475.12,3486.36,3495.71,3501.39,3505.15,3507.49,3508.29,3507.48,3507.38,3505.61,3503.11,3501.89,3501.18,3500.92,3500.82,3500.98,3501.72,3501.57,3501.61,3500.27,3496.73,3492.34,3487.82,3482.73,3477.6,3471.6,3464.6
3468.85,3465.56,3463.88,3460.98,3461.34,3460.2,3460.74,3461.84,3466.75,3477.53,3481.98,3484.9,3488.81,3492.03,3496.52,3501.78,3502.82,3501.04,3493.81,3492.49,3492.25,3492.46,3492.55,3491.24,3492.61,3493.26,3491.13,3485.9,3482.06,3475.69,3465.64,3455.63,3447.3,3433.28,3423.5,3415.76,3410.83,3405.02,3401.14,3400.97,3401.9,3403.06,3408.26,3413.49,3419.35,3424.71,3430.21,3437.65,3445.88,3452.5,3460.14,3465.31,3471.01,3477.31,3484.14,3497.69,3503.97,3508,3513.1,3516.72,3516.88,3513.47,3509.51,3500.41,3489.79,3482.36,3476.61,3471.7,3469.6,3467.12,3470.91,3477.22,3485.92,3493.91,3503.75,3512.88,3521.34,3527.57,3535.33,3537.41,3535.75,3534.63,3532.18,3528.49,3523.93,3516.48,3519.39,3511.28,3504.91,3501.76,3496.61,3491.29,3484.28,3474.26,3464.24,3453.01,3449.18,3441.26,3429.1,3421.01,3416.83,3416.11,3419.51,3423.93,3423.37,3426.04,3428.08,3438.09,3450.31,3458.57,3463.65,3465.76,3466.44,3470.24,3469.42,3472.03,3469.26,3464.73,3462.86,3463.16,3463.63,3467.19,3472.59,3474.33,3476.37,3479.05,3479.6,3478.98,3477,3475.11,3471.85,3471.19,3474.66,3475.68,3474.8,3473.85,3477.24,3478.86,3479.31,3481.26,3482,3481.14,3481.84,3484.06,3485.89,3484.13,3484.12,3482.99,3481.53,3481.42,3482.32,3483.65,3483.8,3479.45,3474.69,3466,3461.94,3457.24,3452.6,3446.06,3436.93,3431.31,3428.39,3425.08,3422.49,3420.81,3420.47,3420.28,3427.18,3437.65,3446.78,3455.01,3463.76,3471.69,3478.5,3484.75,3489.2,3485.49,3477.93,3467.19,3456.07,3445.47,3435.62,3426.1,3419.48,3412.84,3408.65,3407.44,3409.57,3412.32,3413.79,3415.88,3418.78,3418.54,3419.25,3420.52,3418.51,3416.3,3411.17,3405.8,3403.31,3401.79,3399.76,3394.73,3390.41,3387.58,3384.54,3386.44,3387.83,3386.58,3385.2,3384.57,3387.16,3390.55,3396.48,3405.38,3413.3,3421.85,3431.77,3440.65,3448.71,3456.48,3464.09,3469.3,3467.53,3463.01,3457.96,3453.13,3446.08,3441.06,3434.61,3427.07,3419.86,3413.8,3410.68,3408.93,3405.81,3403.95,3400.75,3398,3396.47,3398.77,3398.36,3391.63,3382.91,3376.24,3368.51,3363.65,3361.18,3359.41,3353.53,3351.2,3356.09,3363.53,3370.9,3381.32,3390.69,3398.15,3404.83,3409.58,3414.34,3419.87,3424.05,3427.06,3427.4,3426.73,3424.72,3422.48,3422.02,3421.32,3419.34,3416.43,3413.29,3409.3,3403.43,3398.18,3392.86,3387.73,3382.19,3380.48,3380.57,3380.81,3379.71,3378.54,3375.67,3373.23,3368.49,3362.73,3353.79,3339.47,3324.65,3310.94,3298.53,3286.66,3274.64,3264.22,3256.89,3251.3,3248.15,3246.91,3248.12,3253.71,3260.43,3271.32,3283.35,3294.99,3303.68,3312.95,3323.66,3332.03,3338.42,3341.66,3340.3,3336.39,3331.99,3329.05,3326.88,3326.13,3325.31,3325.44,3326.23,3329.47,3332.75,3336.32,3339.86,3341.83,3342,3339.63,3336.51,3333.9,3335.33,3338.09,3341.6,3347.48,3355.22,3365.64,3376.13,3387.67,3399.47,3409.92,3419.18,3426.67,3433.09,3436.68,3438.27,3439.36,3439.38,3437.98,3434.68,3429.75,3424.15,3418.16,3411.98,3405.51,3400.34,3394.37,3388.51,3382.06,3376.45,3370.33,3365.13,3359.12,3353.12,3347.11,3342.12,3339.13,3336.92,3336.8,3338.7,3341.45,3348.04,3357.14,3368.77,3381.43,3394.43,3408.25,3421.35,3433.25,3445.12,3455.2,3460.28,3462.94,3464.78,3464.41,3461.91,3459.72,3456.69,3452.5,3449.37,3446.54,3444.24,3441.69,3439.64,3438.14,3436.17,3434.54,3432.17,3427.26,3422.08,3416.49,3410.48,3403.88,3397.49,3389.92
3429.48,3425.46,3423.29,3419.64,3419.58,3419.86,3421.3,3423.32,3428.88,3440.31,3444.31,3447.25,3450.95,3454.68,3459.42,3464.03,3464.63,3462.44,3455.68,3455.01,3454.9,3456.18,3455.77,3454.7,3458.28,3459.81,3457.33,3452.95,3449.88,3444.16,3434.45,3425.71,3417.58,3404.04,3393.93,3386.36,3380.93,3375.78,3372.48,3372.39,3374.37,3376.14,3381.58,3386.79,3393.28,3399.42,3404.85,3411.97,3420,3426.03,3433.46,3437.68,3438.01,3446.69,3452.83,3462.89,3466.85,3469.56,3471.65,3472.37,3472.75,3469.31,3464.98,3457.08,3445.68,3437.48,3432.34,3428.8,3425.39,3421.14,3426.64,3433.88,3442.24,3452.53,3463.46,3473.43,3482.34,3488.96,3497.64,3500.93,3500.7,3500.58,3498.32,3494.21,3489.08,3481.25,3482.16,3472.38,3464.03,3458.98,3451.73,3444.62,3437.41,3426.58,3416.3,3405.8,3401.92,3395.63,3384.47,3377.29,3375.08,3377.69,3384.25,3390.3,3391.58,3394.77,3398.69,3409.42,3422.35,3429.9,3433.47,3434.26,3434.13,3437.51,3436.6,3438.01,3433.06,3428.12,3426.46,3426.14,3425.93,3428.39,3432.37,3432.72,3434.59,3437.47,3437.87,3436.58,3434.74,3433.8,3431.05,3431.22,3435.1,3436.03,3436.02,3434.75,3439.5,3442.31,3444.46,3448.48,3451.33,3452.16,3454.65,3458.38,3461.81,3461.4,3461.77,3459.09,3455.17,3453.44,3453.94,3455.18,3455.06,3451.39,3445.68,3437.92,3434.29,3430.12,3424.35,3413.87,3403.75,3395.87,3391.12,3386.52,3383.2,3380.63,3379.5,3379.75,3390.25,3402,3414.69,3425.76,3438.25,3449.73,3460.77,3470.98,3478.13,3474.78,3467.85,3455.85,3441.93,3428.34,3414.31,3403.72,3394.79,3387.3,3382.2,3380.69,3383.1,3387.4,3390.31,3393.81,3397.08,3395.49,3394.53,3393.88,3389.01,3384.92,3378.2,3369.38,3364.09,3360.29,3357.18,3351.91,3347.59,3344.97,3341.92,3342.85,3344.3,3342.9,3341.14,3340.91,3343.18,3347.19,3354.37,3365.89,3376.45,3388.81,3401.2,3413.44,3424.99,3434.84,3444.87,3450.59,3448.92,3444.01,3437.26,3429.56,3419.65,3410.65,3402.08,3391.53,3382.08,3375.08,3370.18,3366.13,3363.11,3361.28,3357.65,3354.82,3352.93,3354.12,3352.15,3345.09,3336.02,3330.21,3322.93,3319.12,3318.34,3317.26,3313.15,3313.04,3318.15,3326.69,3334.23,3344.25,3353.07,3360.33,3367.54,3372.02,3376.16,3380.14,3382.92,3385.28,3386.45,3385.67,3381.51,3377.61,3376.05,3375.45,3372.97,3371.05,3368.45,3364.56,3360.12,3355.14,3350.3,3346.38,3341.03,3339.73,3340.54,3340.58,3340.09,3338.95,3336.85,3334.13,3329.66,3324.52,3315.86,3303.81,3289.78,3276.96,3265.34,3254.7,3243.95,3234.27,3227.71,3222.12,3219.55,3218.4,3219.37,3224.03,3230,3239.52,3251.41,3262.01,3269.91,3277.18,3285.77,3293.2,3297.73,3300.66,3297.89,3292.64,3287.24,3283.35,3281.65,3280.2,3279.93,3279.83,3279.82,3282.31,3285.12,3287.77,3290.08,3290.78,3289.92,3287.21,3283.57,3280.64,3281.58,3284.71,3288.91,3295.93,3304.25,3316.08,3327.52,3339.2,3352.22,3362,3370.53,3377.99,3383.34,3386.32,3386.7,3386.77,3386.47,3384.44,3380.66,3375.41,3368.82,3361.64,3354.64,3347.15,3340.87,3333.76,3326.75,3320.74,3314.68,3308.4,3302.55,3296.93,3291.56,3286.49,3282.23,3279.86,3277.95,3279.16,3282.27,3286.3,3293.6,3304.95,3317.38,3331.49,3345.87,3361.01,3374.68,3386.98,3398.81,3407.82,3412.15,3413.71,3413.81,3411.88,3408.45,3404.31,3399.37,3393.53,3388.71,3383.74,3379.28,3375.19,3371.49,3368.67,3364.66,3362.01,3358.65,3353.08,3346.87,3340.54,3334.09,3327.44,3319.88,3311.42
3388.82,3385.06,3383.89,3380.9,3381.22,3381.11,3381.76,3382.22,3386.51,3396.1,3399.07,3401.62,3405.96,3410.43,3416.72,3422.35,3424.47,3424.25,3420.06,3420.24,3420.11,3421.28,3421.25,3419.92,3423.2,3426,3424.09,3419.79,3418.03,3413.29,3405.89,3397.35,3389.38,3375.76,3366.09,3358.28,3353.09,3347.7,3344.87,3344.91,3346.45,3348.92,3354.85,3360.68,3368.03,3374.47,3380.47,3387.54,3395.06,3400.09,3407,3410.02,3414.1,3418.07,3422.4,3431.65,3434.11,3435.45,3436.74,3436.39,3435.29,3432.42,3427.54,3419.58,3406,3397.75,3392.35,3388.31,3384.39,3379.28,3385.18,3394.1,3402.99,3414.61,3424.8,3434.26,3443.1,3450.91,3461.43,3464.26,3463.94,3464.4,3463.83,3460.45,3454.88,3447.08,3447.22,3435.72,3425.99,3418.62,3409.8,3400.06,3390.52,3379.7,3368.88,3358.62,3354.8,3349.75,3339.51,3334.59,3334.01,3338.63,3348.11,3356.5,3358.25,3362.56,3366.84,3377.69,3390.18,3397.21,3400.03,3399.81,3398.54,3402.76,3402.78,3405.69,3400.74,3396.84,3395.77,3395.49,3395.47,3397.21,3397.26,3396.28,3395.76,3398.72,3398.69,3397.05,3395.23,3394.35,3392.14,3393.46,3396.58,3397.46,3397.3,3397.36,3401.83,3405.28,3408.69,3414.11,3418.19,3420.47,3423.52,3427.93,3432.6,3432.33,3433.54,3430.37,3425.17,3421.58,3422.69,3424.18,3425.38,3422.74,3417.17,3409.36,3406.39,3402.98,3398.01,3387.13,3376.83,3367.5,3361.49,3355.44,3351.28,3347.88,3346.41,3348.85,3357.77,3368.49,3380.47,3394.03,3408.94,3423.24,3437.36,3451.03,3460.13,3458.41,3451.47,3438,3422.6,3407.79,3392.4,3379.68,3369.8,3360.26,3353.83,3352.44,3355.52,3361.39,3366.17,3370.9,3374.35,3373.08,3370.7,3367.06,3360.98,3353.78,3344.99,3333.66,3326.33,3319.97,3314.61,3308.72,3304.19,3301.53,3298.96,3298.64,3299.94,3298.5,3296.62,3296.7,3299.31,3303.32,3311.17,3324.44,3337.04,3351.93,3367.03,3381.9,3395.64,3408.53,3421.61,3428.95,3427.36,3422.43,3413.01,3402.55,3389.4,3376.7,3364.04,3350.91,3338.7,3329.81,3323.19,3317.97,3314.62,3312.22,3308.32,3305.99,3304.12,3305.08,3302.94,3295.62,3288.17,3282.63,3277.42,3274.83,3275.69,3276.53,3274.49,3275.42,3281.77,3289.48,3297.35,3306.66,3314.52,3320.76,3326.95,3330.58,3333.38,3336.17,3337.7,3338.75,3338.89,3336.6,3333.33,3329.6,3327.41,3326.97,3325.17,3323.38,3321.13,3317.55,3313.33,3309.09,3304.73,3300.56,3296.17,3295.16,3296.07,3295.97,3296.42,3295.58,3293.3,3291.12,3287.79,3282.91,3275.37,3264.65,3252.5,3241.23,3231.16,3221.63,3212.39,3203.83,3198.48,3193.62,3191.14,3190.14,3190.06,3194.69,3199.73,3208.37,3218.78,3227.81,3234.22,3240.37,3247.11,3252.94,3256.58,3257.91,3254.35,3248.53,3242.7,3238.92,3236.91,3235.39,3234.88,3234.36,3234.19,3236.72,3238.94,3240.81,3242.3,3241.61,3240.14,3237.29,3233.16,3231.1,3231.81,3234.31,3237.73,3244.03,3253.31,3266.38,3278.56,3290.99,3303.28,3313.44,3322.32,3329.87,3335.72,3338.71,3337.56,3336.97,3336.02,3333.36,3329.06,3322.67,3314.62,3307.3,3299.51,3291.52,3283.78,3275.7,3268.64,3261.56,3254.92,3248.62,3243.55,3237.36,3232.81,3228.6,3225.43,3224.31,3224.73,3226.73,3230.53,3235.82,3243.97,3255.77,3268.79,3283.64,3297.74,3312.31,3325.19,3337.33,3348.93,3357.92,3361,3361.26,3359.56,3355.74,3350.34,3344.69,3338,3329.94,3322.23,3315.19,3309.78,3304.07,3299.34,3294.64,3290.18,3286.51,3282.27,3276.85,3270.73,3264.09,3257.35,3250.28,3242.01,3233.53
3352.3,3349.98,3349.81,3346.18,3345.17,3343.97,3344.47,3343.85,3346.73,3353.6,3355.64,3357.56,3362.14,3368.02,3376.17,3382.57,3386.63,3389.05,3394.16,3394.63,3395.43,3396.83,3394.53,3391.87,3392.42,3393.2,3391.16,3382.91,3382.67,3378.64,3372.52,3366.13,3360.2,3348.93,3340.59,3332.66,3326.91,3321.37,3317.97,3317.25,3319.03,3321.15,3326.56,3332.59,3341.4,3349.44,3356.25,3364.52,3372.2,3376.97,3382.73,3385.93,3387.73,3389.38,3391.94,3397.71,3399.21,3400.55,3401.17,3400.16,3398.64,3396.27,3392.6,3383.82,3370.94,3362.3,3356.61,3352.84,3349.15,3343.96,3350.4,3359.08,3368.93,3381.54,3392.66,3401.51,3410.5,3419.73,3431.79,3434.3,3434.74,3435.98,3435.51,3431.65,3424.9,3416.39,3413.21,3399.89,3388.01,3378.33,3366.92,3354.98,3344.48,3333.44,3323.09,3313.52,3309.86,3305.58,3297.77,3293.99,3295.37,3303.11,3314.84,3324.7,3327.89,3333.29,3339.05,3349.84,3362.1,3367.68,3369.9,3368.84,3368.52,3372.92,3375.5,3377.97,3372.17,3367.94,3367.59,3366.56,3365.29,3365.51,3362.99,3359.03,3356.71,3359.27,3359.91,3357.14,3354.75,3353.75,3352.49,3354.47,3358.23,3359.8,3359.98,3360.72,3365.92,3369.55,3373.5,3379.18,3383.83,3386.66,3389.57,3393.37,3397.27,3397.67,3398.7,3395.94,3389.47,3385.51,3386.13,3388.63,3391.36,3390.43,3386.18,3380.28,3376.8,3374.63,3371.45,3358.92,3347.57,3337.24,3329.66,3323.3,3318.51,3314.51,3312.11,3314.01,3323.03,3334.24,3347.49,3362.11,3378.5,3394.15,3410.62,3427.69,3439.05,3438.35,3431.52,3416.39,3399.25,3382.97,3366.66,3352.78,3341.61,3331.17,3324.17,3321.79,3325.45,3332.58,3339.09,3344.62,3349.51,3348.47,3345.57,3340.1,3332.32,3323.36,3312.08,3297.83,3290.75,3282.21,3276,3268.78,3263.79,3261.25,3258.24,3259.02,3260.11,3256.9,3255.05,3254.47,3256.15,3259.69,3269.14,3283.48,3297.69,3314.34,3333.19,3349.58,3365.76,3381.83,3397.37,3407.04,3406.23,3400.62,3389.1,3375.17,3359.39,3343.58,3327.57,3311.59,3295.92,3284.64,3275.99,3270.23,3265.58,3262.15,3258.66,3255.48,3253.28,3254.11,3252.31,3246.38,3240.48,3236.37,3232.58,3231.82,3234.61,3236.55,3236.58,3238.43,3245.58,3253.2,3260.11,3269.24,3276.79,3282.04,3286.67,3289.34,3290.72,3291.73,3291.59,3291.13,3290.51,3287.92,3284.24,3280,3278.08,3277.56,3276.61,3275.36,3274.48,3271.3,3267.41,3264.2,3260.44,3256.65,3251.73,3251.61,3251.85,3251.44,3251.59,3250.8,3249.27,3248.23,3245.52,3241.9,3235.03,3225.46,3215.32,3205.91,3196.89,3188.44,3179.87,3172.8,3168.23,3164.16,3161.92,3160.51,3160.92,3164.73,3168.86,3176.35,3185.05,3192.59,3197.29,3202.15,3207.41,3211.77,3214.11,3214.37,3209.64,3203.34,3197.87,3193.82,3191.52,3189.94,3188.87,3188.25,3187.71,3189.99,3192.59,3193.64,3194.62,3193.58,3191.67,3189.27,3185.65,3183.78,3183.99,3186.02,3188.18,3193.76,3202.88,3215.49,3227.75,3239.64,3251.1,3261.71,3270.9,3279.34,3285.87,3288.88,3287.76,3286.87,3286.08,3283.31,3278.5,3272.09,3263.97,3256.15,3247.69,3238.62,3230.17,3221.61,3213.82,3206.17,3199.15,3192.77,3187.08,3181.52,3177.38,3174.44,3172.31,3172.07,3173.4,3176.88,3181.86,3187.93,3196.82,3208.1,3221.17,3235.24,3248.87,3262.41,3274.77,3286.12,3298.13,3306.74,3309.76,3309.03,3305.96,3301.03,3293.89,3286.17,3276.49,3265.15,3254.14,3245.03,3237.41,3230.42,3224.82,3219.81,3215.47,3211.92,3207.72,3202.56,3197.09,3191.05,3184.49,3177.23,3169.7,3161.2
3316.25,3315.63,3315.57,3310.87,3309.48,3306.62,3306.53,3305.31,3306.92,3313.5,3314.07,3316.37,3322.05,3328.83,3337.15,3344.82,3349.25,3353.28,3359.36,3360.31,3360.79,3361.43,3358.67,3351.59,3355.02,3355.24,3351.22,3344.56,3345.22,3342.98,3339.67,3335.73,3331.42,3323.26,3316.99,3309.92,3303.41,3297.84,3294.43,3292.44,3293.52,3296.01,3300.97,3308.07,3317.98,3327.17,3335.55,3343.37,3351.45,3355.52,3360.1,3362.61,3362.5,3361.92,3361.42,3362.86,3362.49,3362.79,3363.15,3361.04,3360.07,3358.96,3356.32,3348.64,3336.5,3327.89,3326.25,3321.76,3318.05,3312.87,3316.55,3321.74,3331.56,3345.29,3356.74,3365.46,3375.11,3386.72,3400.77,3405.14,3406.81,3408.37,3407.34,3401.85,3392.55,3380.49,3372.41,3356.78,3343.31,3331.8,3318.58,3304.98,3293.87,3283.33,3274.98,3267.17,3264.89,3261.44,3255.74,3253.02,3256.23,3267.46,3281.38,3292.91,3298.49,3305.21,3311.86,3322.65,3334.24,3339.42,3341.02,3339.64,3338.91,3343.88,3349.2,3351.7,3346.02,3341.92,3340.82,3338.27,3335.4,3334.14,3327.94,3323.35,3317.2,3319.26,3318.78,3316.38,3313.67,3312.07,3311.45,3313.88,3317.42,3320.27,3321.9,3323.54,3328.4,3332.68,3337.16,3343.32,3349.07,3352.76,3355.63,3359.28,3363.12,3363.08,3363.64,3360.63,3353.69,3347.74,3348.53,3351.23,3354.8,3355.52,3352.25,3348.23,3347.06,3346.83,3345.86,3336.88,3325.95,3316.53,3307.25,3299.56,3293.06,3288.4,3282.74,3281.74,3289.24,3300.04,3313.2,3329.29,3348.09,3366.11,3385.36,3405.26,3418.39,3418.53,3411.58,3395.35,3376.52,3358.28,3340.95,3324.88,3312.92,3301.96,3293.53,3290.6,3294.1,3301.76,3308.79,3314.82,3321.83,3320.52,3317.21,3309.75,3300.05,3290,3277.05,3261.13,3252.41,3243.77,3236.67,3228.49,3223.8,3220.59,3218.37,3218.44,3220.93,3217.58,3215,3214.13,3215.47,3219.16,3227.97,3240.85,3256.2,3273.16,3293.37,3312.85,3330.98,3349.13,3367.53,3380.8,3382.73,3376.9,3363.99,3347.67,3329.86,3311.07,3291.37,3272.2,3253.13,3239.33,3228.99,3221.82,3216.4,3212.42,3208.56,3205.78,3203.2,3204.46,3203.55,3198.48,3194.32,3191.79,3189.32,3189.77,3193.62,3197.39,3198.61,3201.6,3208.78,3216.6,3223.95,3232,3239.27,3243.91,3247.38,3248.81,3249.42,3248.91,3246.94,3245.55,3244.56,3240.58,3235.87,3232.28,3230.17,3229.57,3228.97,3228.28,3227.85,3225.23,3222.45,3220.04,3216.19,3212.99,3208.67,3208.5,3208.97,3208.06,3208.36,3207.57,3206.3,3206.03,3204.11,3201.04,3195.04,3187.24,3178.48,3170.25,3162.23,3154.8,3147.16,3140.59,3133.46,3130.33,3128.38,3130.49,3127.5,3130.79,3137.9,3141.88,3152.51,3154.88,3158.63,3165.05,3169.17,3172.2,3172.83,3172.12,3167.39,3161.21,3155.67,3152.05,3149.57,3147.7,3146.16,3145.44,3144.22,3145.41,3146.84,3147.91,3148.06,3147.39,3145.91,3143.97,3140.83,3139.83,3140.07,3141.08,3143.98,3148.69,3157.15,3167.95,3178.68,3190.22,3200.98,3210.28,3219.86,3227.52,3234.01,3236.91,3235.73,3234.94,3234.2,3231.04,3226.09,3219.35,3211.52,3203.39,3195.32,3186.15,3177.07,3168.69,3160.43,3152.08,3145.49,3139.25,3133.63,3128.18,3125.11,3122.74,3121.81,3122.99,3125.42,3129.66,3135.37,3141.42,3150.98,3161.8,3174.07,3186.69,3198.87,3210.99,3221.23,3231.61,3242.21,3250.34,3253.15,3250.96,3246.7,3240.65,3232.53,3223.12,3211.48,3197.91,3185.52,3174.58,3165.43,3157.61,3151.75,3146.76,3142.65,3139.33,3136.03,3131.22,3126.94,3121.6,3115.97,3109,3102.05,3094.21
3281.34,3280.75,3280.09,3274.96,3273.04,3269.95,3269.56,3267.7,3268.26,3273.43,3274.21,3276.48,3281.96,3288.79,3297.16,3304,3308.95,3314.26,3319.72,3320.81,3321.02,3322.11,3319.46,3316.42,3315.3,3314.62,3310.1,3305.39,3308.13,3307.24,3305.14,3302.77,3300.35,3293.66,3290.28,3285.31,3279.51,3274.87,3271.76,3269.88,3271.43,3274.48,3279.71,3286.4,3296.82,3305.9,3313.76,3321.99,3329.68,3333.15,3336.93,3337.39,3335.63,3332.39,3329.9,3328.66,3325.82,3325.44,3325.51,3322.2,3320.46,3320.5,3319.48,3313.01,3301.72,3297.53,3294.03,3290.07,3286.47,3280.03,3281.74,3284.86,3294.35,3308.26,3318.99,3327.3,3336.86,3350.64,3367.1,3374.39,3377.35,3379.07,3377.42,3371.03,3360.04,3347.27,3333.55,3314.99,3298.36,3284.76,3269.2,3254.93,3242.82,3233.17,3226.21,3221.54,3219.41,3216.52,3212.3,3210.76,3216.19,3230.32,3247.12,3260.13,3268.49,3276.77,3285.45,3297.39,3310.06,3315.08,3315.27,3314.68,3314.53,3317.28,3322.2,3324.59,3317.19,3311.58,3308.75,3304.73,3300.65,3298.15,3292.03,3285.05,3276.54,3277.05,3276.6,3274.12,3271.95,3269.1,3269.51,3271.46,3275.79,3278.45,3282.63,3285.28,3290.35,3294.9,3300,3307.6,3314.49,3318.77,3322.31,3325.45,3328.46,3327.53,3327.49,3324.46,3316.47,3308.78,3309.58,3312.38,3316.8,3319.03,3317.67,3316.45,3316.01,3319.23,3321.25,3315.07,3304.36,3292.07,3279.15,3269.1,3261.22,3253.67,3247.12,3245.38,3253.19,3264.06,3279.51,3298.65,3319.6,3340.54,3361.98,3383.21,3398.1,3399.19,3392.32,3374.15,3352.8,3333.2,3314.05,3296.02,3281.77,3269.66,3259.46,3255.11,3259.45,3267.25,3274.44,3280.99,3287.24,3287.19,3283.13,3274.92,3263.99,3252.49,3239.07,3223.95,3216.86,3208.61,3202.57,3195.85,3192.58,3190.5,3189.73,3190.5,3192.38,3187.01,3182.09,3179.25,3179.2,3181.47,3187.7,3197.74,3210.71,3227.43,3246.98,3265.99,3285.29,3303.82,3321.75,3335.27,3338.97,3334.29,3320.72,3304.25,3285.27,3265.82,3245.5,3224.94,3206.1,3191.39,3180.29,3171.58,3165.73,3161.93,3157.55,3154.19,3152.9,3153.96,3154.12,3150.86,3148.13,3146.86,3145.58,3146.88,3152.44,3157.23,3159.26,3163.05,3170.34,3177.88,3185.45,3193.05,3200.02,3204,3207.07,3207.74,3207.07,3204.78,3201.6,3198.72,3196.37,3191.39,3186.53,3182.67,3179.59,3179.11,3178.91,3179.01,3178.51,3176.2,3174.49,3172.66,3169.72,3166.85,3163.68,3163.59,3164,3163.46,3164.15,3164.37,3164,3164.35,3163.16,3161.11,3155.74,3148.88,3142.45,3135.08,3128.33,3121.39,3114.77,3109.06,3105.36,3102.24,3100.38,3099.29,3099.38,3102.06,3105.64,3112.38,3119.15,3123.9,3126.81,3129.2,3131.66,3132.89,3131.56,3130.45,3125.38,3120.55,3115.5,3112.11,3110.35,3107.94,3106.2,3105.7,3105.1,3105.29,3105.27,3105.61,3104.81,3103.82,3102.44,3100.97,3098.69,3098.06,3098.94,3100.72,3103.08,3107.14,3114.92,3125.23,3134.11,3144.19,3153.39,3161.37,3170.12,3177.38,3182.48,3184.57,3183.39,3183.86,3182.34,3178.64,3173.99,3166.58,3157.51,3150.21,3141.8,3132.57,3123.04,3114.82,3107.34,3099.51,3093.01,3088.97,3084.31,3080.53,3077.75,3076.34,3076.67,3078.49,3081.69,3086.6,3092.32,3099.09,3107.35,3118.12,3129.63,3140.6,3150.96,3160.74,3168.93,3175.25,3181.87,3185.93,3186.22,3182.27,3177,3169.51,3160.84,3150.2,3138.56,3126.08,3114.11,3103.43,3094.93,3086.84,3080.99,3076.12,3072.87,3070.03,3067.64,3064.38,3060.91,3057.03,3052.83,3047.22,3040.92,3035.17
3243.59,3242.69,3242.31,3237.46,3235.7,3233.05,3233.1,3231.32,3231.27,3235.36,3235.96,3238.19,3242.69,3248.46,3255.68,3261.78,3265.27,3269.69,3274.37,3275.43,3275.9,3277.15,3275.26,3272.42,3271.82,3272.19,3269.04,3266.71,3270.95,3269.93,3268.77,3267.48,3265.98,3261.85,3260.31,3256.4,3251.96,3248.32,3246.8,3245.94,3247.46,3251.22,3256.15,3262.82,3274.08,3282.18,3289.32,3297.45,3304.95,3306.56,3308.29,3308,3305.51,3301.49,3296.16,3293.19,3288.86,3286.86,3286.28,3282.19,3281.26,3281.02,3282.18,3277.75,3271.21,3267.04,3262.36,3257.98,3254.65,3248.29,3248.74,3249.66,3257.66,3270.07,3278.94,3286.34,3294.49,3308.4,3326.4,3334.85,3338.49,3340.15,3338.03,3330.72,3318.55,3304.31,3288.29,3267.34,3249.26,3235.07,3219.11,3204.21,3192.62,3184.94,3181.6,3180.19,3179.38,3177.43,3176.67,3177.07,3185.75,3202,3218.56,3231.85,3242.02,3251.72,3262.24,3274.14,3286.45,3292.4,3292.15,3291.15,3289.78,3289.4,3294.26,3295.07,3286.76,3279.95,3275.29,3270.44,3265.59,3262.44,3258.24,3252.69,3246.65,3245.66,3245.59,3243.77,3241.27,3237.61,3237.42,3237.42,3239.68,3241.32,3245.27,3247.72,3252.49,3256.39,3262.87,3270.9,3277.77,3283.07,3287.58,3290.27,3292.15,3290.67,3289.33,3285.19,3276.46,3267.51,3266.77,3270.98,3274.82,3277.75,3278.57,3279.35,3282.4,3287.71,3293.94,3289.77,3280,3268.07,3253.18,3241.19,3230.46,3221.22,3214.74,3212.62,3220.02,3230.78,3245.47,3266.67,3289.79,3312.65,3336.68,3359.15,3373.47,3375.7,3368.02,3348.19,3324.49,3303.48,3283.01,3263.4,3248.12,3234.54,3223.48,3217.77,3221.53,3229.65,3236.07,3242.47,3249.18,3249.2,3245.73,3236.95,3225.5,3213.05,3200.01,3185.77,3180.35,3173.46,3169.27,3163.51,3160.53,3160.14,3160.03,3161.85,3164.47,3158.03,3152.09,3146.3,3145.95,3147.46,3150.28,3156.97,3166.68,3179.95,3196.6,3212.9,3231.31,3247.62,3263.91,3276.69,3280.76,3277.48,3266.24,3251.49,3234.77,3217.03,3198.66,3178.67,3161.48,3147.57,3136.69,3128.54,3122.76,3118.23,3113.99,3109.69,3108.98,3109.71,3110.24,3107.04,3105.45,3104.35,3103.87,3105.44,3110.46,3115.46,3118.25,3122.06,3128.99,3136.27,3142.95,3150.11,3156.28,3160.28,3162.35,3162.77,3161.25,3157.78,3153.74,3149.84,3146.87,3141.6,3136.54,3132.46,3129.54,3128.88,3129.55,3129.96,3130.62,3128.57,3126.72,3124.75,3121.81,3119.66,3117,3116.66,3116.38,3115.46,3116.42,3117.39,3118.32,3120.14,3120.3,3119.43,3115.97,3110.78,3106.18,3100.89,3094.94,3088.81,3082.86,3076.8,3072.53,3069.44,3067.51,3066.19,3066.21,3068.97,3072.35,3077.46,3083.49,3088.46,3090.24,3091.62,3092.68,3092.41,3090.23,3087.47,3082.74,3078.39,3073.99,3071.77,3070.38,3069.73,3069.3,3069.49,3069.08,3069.08,3067.99,3067.48,3066.13,3064.22,3062.27,3060.41,3057.91,3057.43,3058.66,3060.73,3063.87,3068.14,3075.69,3085.78,3094.9,3104.45,3112.97,3119.6,3127.34,3132.91,3138.43,3144.39,3145.7,3146.71,3145.43,3143.25,3139.29,3131.69,3121.97,3113.65,3104.15,3093.36,3082.79,3068.87,3059.46,3051.82,3045.34,3042.4,3037.33,3033.99,3031.83,3031.09,3031.8,3034.11,3037.56,3042.3,3048.59,3054.85,3063.22,3073.11,3083.53,3093.51,3102.31,3109.86,3114.97,3118.53,3121.2,3122.24,3119.12,3113.24,3105.67,3096.25,3087.14,3076.7,3065.2,3053.72,3042.7,3032.91,3025.06,3017.47,3011.77,3007.65,3005.12,3003.23,3001.92,2999.94,2998.07,2996.04,2993.47,2989.54,2985.39,2981.08
3207.24,3206.33,3206.55,3202.61,3201.56,3200.12,3199.79,3198.05,3196.97,3200.29,3200.45,3201.97,3204.75,3208.74,3214.38,3218.45,3220.91,3224.34,3227.47,3227.82,3228.99,3231.23,3229.8,3228.52,3229.17,3230.01,3228.59,3228.62,3232.95,3233.02,3232.49,3233.08,3233.01,3231.87,3231.61,3229.15,3224.85,3223.11,3223.01,3222.17,3223.84,3226.94,3230.82,3235.02,3246.03,3254.2,3259.71,3266.43,3271.58,3271.67,3271.65,3270.42,3267.93,3262.51,3254.82,3250.55,3246.03,3244.15,3242.74,3237.67,3235.2,3235.76,3239.78,3237.42,3232.47,3228.36,3222.56,3218.75,3216.28,3211.78,3211.65,3210.39,3215.68,3225.27,3232.74,3239.28,3247.2,3260.58,3277.83,3285.98,3289.91,3291.79,3289.08,3282.04,3270.24,3256.52,3238.01,3216.17,3198.38,3185.03,3168.89,3154.81,3144.99,3140.01,3140.01,3138.34,3139.44,3139.96,3144.04,3147.41,3158.45,3175.31,3192.15,3204.85,3214.25,3223.27,3232.53,3242.85,3253.06,3257.18,3255.94,3254.14,3251.17,3249.22,3253.84,3254.95,3246.61,3240.08,3236.43,3232.51,3228.52,3227.13,3225.85,3221.75,3217.45,3217.71,3218.53,3217.81,3215.58,3211.76,3210.7,3209.81,3210.69,3211.18,3214.47,3215.35,3219.41,3222.66,3228.2,3235.35,3241.43,3246.26,3249.22,3250.1,3250.68,3248.16,3245.66,3240.93,3232.05,3223.19,3222.24,3225.68,3230.4,3233.49,3234.28,3235.78,3239.58,3247.29,3254.63,3253.38,3245.91,3235.55,3221.91,3208.77,3198.74,3189.53,3181.32,3180.14,3187.37,3198.46,3212.94,3234.13,3257.9,3281.91,3306.65,3331.16,3344.98,3346.49,3338.81,3317.15,3292.53,3270.46,3249.71,3228.76,3212.43,3197.97,3185.83,3179.25,3182.88,3190.53,3195.99,3202.09,3208.38,3208.48,3204.54,3195.86,3184.84,3172.85,3160.46,3147.17,3142.56,3137.25,3134.27,3130.03,3127.95,3128.41,3130.29,3132.21,3134.58,3128.89,3122.38,3115.71,3114.71,3115.2,3116.03,3118.64,3126.06,3136.86,3150.51,3164.19,3180.8,3195.33,3208.51,3220.18,3224.89,3222.26,3212.59,3199.6,3184.35,3169.32,3153.5,3135.32,3118.88,3105.77,3095.68,3089.63,3085.58,3081.68,3077.2,3073.87,3074.45,3075.38,3076.4,3074.33,3073.87,3073.38,3073.01,3073.87,3076.53,3080.58,3083.99,3087.43,3093.6,3097.51,3102.45,3107.9,3112.42,3115.88,3116.47,3116.4,3114.08,3110.54,3106.09,3102.68,3099.74,3095.78,3092.61,3089.83,3087.32,3086.68,3087.9,3089.64,3089.99,3087.9,3086.31,3083.13,3079.33,3077.17,3075.11,3074.61,3074.17,3073.12,3074.43,3075.97,3077.28,3080.16,3081.53,3081.58,3079.89,3076.86,3073.53,3069.94,3064.9,3059.87,3054.13,3048,3042.82,3037.78,3034.49,3032.95,3032.13,3034.32,3037.03,3041.43,3046.9,3051.35,3052.94,3053.34,3052.54,3051.08,3048.03,3045.26,3039.8,3035.4,3032.32,3031.01,3031.49,3032.27,3033.53,3035.21,3035.6,3036.19,3035.03,3034.14,3032.36,3029.46,3026.16,3022.96,3019.27,3017.58,3018.18,3020.48,3023.96,3028.89,3036.87,3047.04,3056.33,3066.79,3075.44,3082.01,3088.67,3095.22,3103.83,3107.99,3109.06,3110.35,3109.85,3108.92,3105.84,3098.48,3087.35,3077.62,3066.22,3054.94,3043.04,3028.59,3017.52,3008.35,3002.29,2999.02,2993.68,2990.38,2988.95,2988.03,2989.16,2991.17,2995.23,2999.9,3005.37,3011.33,3018.94,3027.48,3035.97,3044.5,3051.97,3056.97,3059.35,3060.1,3060.35,3058.59,3053.37,3045.37,3036.54,3026.55,3017.15,3006.23,2995.71,2985.16,2975.09,2966.53,2959.26,2953.23,2948.18,2944.55,2943.21,2942.43,2941.93,2941.59,2940.89,2940.05,2939.05,2936.56,2933.35,2930.36
3171.52,3171.17,3170.65,3167.56,3167.59,3166.58,3166.12,3164.46,3162.58,3162.89,3163.21,3164.16,3165.49,3168.57,3172.47,3175.93,3177.97,3181.31,3184.69,3185.56,3186.68,3189.07,3188.23,3187.71,3188.45,3189.31,3188.47,3191.1,3196.42,3197.9,3199.06,3201.21,3201.76,3201.25,3202.68,3200.7,3196.87,3195.19,3195.22,3194.23,3195.39,3198.08,3200.97,3203.57,3214.69,3220.77,3224.71,3228.92,3232.25,3231.18,3229.51,3227.63,3225.42,3218.75,3210.92,3207.08,3203.29,3201.91,3201.3,3197.04,3197.66,3200.82,3204.21,3202.19,3197.49,3191.44,3184.84,3181.06,3178.82,3173.33,3170.15,3165.55,3169.97,3178,3185.65,3190.93,3198.45,3210.19,3228.29,3235.21,3239.73,3241.66,3239.43,3231.66,3220.42,3207.94,3190,3169.46,3152.41,3139.54,3124.38,3112.57,3105.05,3100.81,3102.01,3103.24,3105.23,3108.26,3113.28,3118.93,3130.46,3146.13,3161.45,3171.73,3179.46,3186.6,3194.47,3201.93,3209.75,3210.47,3208.2,3205.31,3201.06,3198.06,3202.52,3203.26,3196.39,3192.1,3190.36,3188.58,3186.93,3187.61,3189.39,3188.33,3185.29,3186.74,3188.47,3188.05,3187,3189.48,3185.8,3184.26,3182.93,3182.15,3182.81,3182.62,3184.14,3185.22,3188.36,3193.66,3196.99,3200.12,3200.84,3199.69,3197.73,3194.55,3191.75,3187.55,3180.69,3172.68,3171.72,3175.85,3180.46,3185.31,3187.98,3190.6,3195.77,3204.45,3213.03,3213.94,3206.86,3197.74,3182.19,3169.15,3159.32,3150.31,3140.86,3138.49,3143.92,3152.72,3164.89,3183.98,3203.71,3222.87,3243.01,3263.02,3274.54,3276.05,3270.02,3252.51,3232.3,3214.95,3197.88,3180.9,3166.88,3154.44,3144.19,3138.98,3142.11,3149.68,3154.8,3159.71,3165.79,3166.4,3163.09,3154.48,3144.16,3132.31,3121.14,3108.46,3103.65,3097.89,3095.23,3091.26,3090.12,3091.29,3093.23,3095.38,3097.7,3094.13,3088.27,3081.13,3079.96,3079.18,3078.78,3079.64,3085.74,3093.27,3104.78,3116.32,3130.69,3142.24,3153.58,3163.26,3167.98,3166.31,3158.67,3146.75,3133.94,3120.91,3107.41,3091.3,3077.23,3065.19,3056.64,3051.64,3049.8,3047.33,3045.31,3044.18,3046.19,3046.25,3047.93,3047.08,3047.44,3046.49,3045.91,3046.02,3046.61,3049.47,3053.13,3055.62,3059.22,3060.82,3064.13,3067.09,3070.25,3072.85,3072.87,3072.17,3070.31,3067.25,3063.63,3061.73,3059.79,3057.09,3055.92,3055.04,3053.21,3053.42,3054.69,3056.16,3056.11,3053.73,3051.49,3047.03,3042.51,3039.68,3038.24,3037.52,3036.8,3036.01,3036.86,3038.15,3040.15,3043.28,3044.9,3044.82,3043.76,3042.09,3040.56,3039.09,3035.96,3031.95,3027.59,3023.16,3018.39,3014.02,3010.7,3009.48,3008.51,3010.23,3012.36,3015.21,3018.74,3021.47,3021.92,3021.24,3019.08,3015.68,3011.36,3007.65,3002.23,2997.94,2993.98,2991.63,2992.25,2993.69,2995.67,2998.53,3000.4,3001.78,3001.06,3000.12,2998.61,2995.11,2991.3,2986.64,2981.32,2978.14,2976.7,2977.9,2981.34,2987.12,2995.94,3006.43,3016.58,3027.8,3036.89,3044.56,3052.18,3059.46,3068.33,3073.03,3074.31,3075.69,3075.6,3076.44,3073.77,3066.63,3054.86,3045,3032.67,3020.92,3008.16,2992.57,2979.79,2970.89,2963.86,2960.67,2954.99,2951.41,2949.52,2948.53,2949.13,2951.48,2954.87,2959.31,2963.56,2968.56,2974.68,2982.07,2988.45,2994.17,2999.27,3001.86,3001.99,3000.88,2998.95,2995.35,2988.9,2980.62,2971.69,2961.45,2951.82,2941.26,2932.01,2922.25,2913.46,2905.61,2899.54,2893.96,2890.09,2887.42,2886.59,2886.78,2887.44,2888.46,2888.82,2889.61,2889.65,2888.51,2886.82,2885.2
3131.92,3132.09,3133.04,3131.83,3133.12,3132.48,3131.87,3129.84,3127.88,3127.49,3127.02,3127.53,3128.16,3129.56,3132.18,3134.74,3136.98,3139.95,3143.48,3144.66,3146.89,3149.07,3148.44,3148.59,3149.95,3150.43,3150.76,3155.18,3160.44,3163.1,3165.41,3168.54,3169.76,3170.58,3172.56,3170.63,3165.94,3164.65,3164.58,3163.02,3163.91,3166.67,3168.84,3170.21,3180.39,3184.75,3186.77,3189.84,3191.52,3189.17,3186.69,3184.29,3180.84,3173.34,3165.34,3161.22,3158.56,3158.05,3157.95,3153.2,3158.72,3162.37,3166.69,3165.49,3159.82,3153.25,3146.81,3142.39,3139.65,3132.94,3128.12,3123.62,3126.2,3132.99,3139.33,3142.17,3147.06,3157.59,3175.67,3183.08,3187.83,3190.05,3187.39,3180.15,3170.93,3160.5,3144.11,3124.64,3108.36,3096.77,3083.39,3073.68,3067.4,3064.38,3065.96,3073.4,3076.32,3080.88,3084.59,3090.74,3101.45,3115.69,3129.32,3137.89,3141.78,3147.22,3152.5,3157.83,3163.33,3162.86,3159.46,3155.35,3149.81,3146.92,3151.65,3152.84,3148.42,3146.18,3146.48,3146.38,3147.78,3150.53,3154.71,3155.49,3153.64,3155.6,3157.15,3156.18,3156.98,3156.5,3152.65,3149.2,3146.01,3144.81,3144.88,3143.56,3144.17,3144.2,3145.31,3149.56,3151.42,3153.52,3152.97,3150.34,3148.07,3144.64,3142.36,3140.1,3135.35,3130.09,3128.76,3133.07,3137.02,3142.48,3147.04,3147.69,3150.08,3158.15,3169.83,3170.35,3163.62,3153.25,3134.25,3120.93,3111.83,3105.64,3099.23,3095.93,3100.04,3107.77,3118.22,3134.79,3150.57,3164.5,3179.47,3195.76,3204.41,3206.14,3201.68,3187.95,3171.86,3159.04,3146.07,3132.52,3120.71,3111.03,3103.09,3099.42,3103.28,3110.03,3114.46,3119.18,3124.39,3125.72,3123,3115.51,3105.23,3093.86,3084.12,3072.29,3067.37,3061.21,3057.77,3054.03,3053.16,3054.62,3057.14,3058.43,3060.74,3057.95,3053.21,3047.73,3046.23,3045.39,3043.73,3043.69,3047.79,3053.9,3063.22,3072.8,3084.86,3093.53,3102.78,3111.15,3116.54,3116.16,3110.84,3100.33,3089.94,3078.27,3065.55,3051.47,3038.05,3026.72,3017.35,3012.38,3012.29,3011.15,3011.23,3012.71,3015.16,3015.61,3018.67,3020.88,3022.87,3021.86,3020.75,3019.83,3019.23,3020.74,3023.86,3025.01,3025.77,3026.01,3027.95,3029.62,3031.65,3033.85,3033.67,3034.01,3032.62,3030.56,3027.87,3026.16,3025.02,3024.15,3024.03,3024.15,3023.29,3023.35,3024.49,3025.56,3025.23,3022.49,3019.41,3015.37,3010.42,3007.68,3006.32,3005.19,3003.8,3002.45,3003.45,3005.05,3006.6,3009.55,3011.37,3011.32,3010.52,3009.84,3009.33,3008.73,3006.65,3003.58,3000.54,2996.49,2992.24,2988.48,2984.75,2982.96,2981.92,2984.11,2987.9,2990.73,2993.31,2995.4,2995.65,2994.25,2990.68,2986.69,2980.47,2974.62,2967.77,2963.73,2958.71,2954.38,2953.26,2953.18,2954.87,2957.36,2960.32,2962.29,2960.95,2960.26,2959.15,2956.39,2952.55,2948.52,2942.3,2938.04,2935.21,2935.73,2937.92,2942.42,2951.96,2962.87,2973.03,2984.47,2994.98,3003.72,3013.1,3022.93,3033.27,3038.97,3041.01,3043.59,3043.92,3044,3039.79,3031.09,3018.9,3008.82,2997.03,2984.45,2971.49,2956.6,2944.7,2936.61,2930.71,2926.1,2919.4,2915.57,2912.95,2911.46,2911.19,2912.54,2915.57,2919.59,2923.09,2926.94,2932.2,2937.66,2941.75,2944.81,2946.84,2946.69,2944.1,2940.81,2937.4,2932.5,2925.42,2917.75,2909,2899.92,2891.19,2881.78,2873.15,2865.38,2857.86,2852.24,2847.27,2843.08,2840.38,2838.92,2839.25,2840.53,2842.09,2843.65,2844.93,2846.42,2847.7,2847.35,2846.29,2845.49
3092.03,3093.41,3095.06,3095.29,3097.61,3097.51,3096.4,3094.34,3091.96,3091.52,3092.4,3093.15,3093.59,3094.36,3096.03,3098.24,3099.72,3102.53,3101.21,3104.97,3105.33,3106.47,3107.38,3108.54,3109.92,3110.35,3111.55,3118.05,3123.67,3127.33,3131.19,3134.84,3135.33,3137.03,3139.84,3138.66,3134.59,3133.07,3133.31,3131.66,3131.21,3133.25,3135.06,3136.2,3144.56,3147.43,3148.3,3149.99,3151.06,3148.05,3144.49,3141.18,3136.53,3128.03,3120.09,3115.44,3111.59,3110.42,3110.33,3105.25,3112.71,3117.08,3121.27,3121.25,3117.07,3111.56,3104.98,3101.09,3099.39,3092.29,3087.07,3082.75,3084.73,3088.92,3094.34,3094.9,3098.35,3108.3,3125.18,3132.67,3137.17,3139.04,3136.83,3131.41,3123.86,3115.11,3100.91,3084.09,3070.1,3059.37,3047.88,3040.04,3035.57,3033.14,3035.81,3043.13,3047.24,3051.91,3055.77,3061.79,3071.41,3083.99,3096.53,3103.73,3105.24,3109.22,3114.12,3116.54,3119.86,3117.74,3114.22,3109.82,3103.78,3101.09,3105.65,3106.18,3103.98,3104.27,3105.59,3107.54,3110.95,3116.53,3122.26,3124.83,3123.72,3125.26,3126.29,3125.04,3124.46,3123.9,3117.94,3113.79,3109.28,3106.89,3106.37,3104.53,3105.25,3104.66,3104.38,3107,3108.4,3109.5,3107.72,3104.29,3100.74,3097.47,3096.25,3096.46,3093.66,3090.22,3089.72,3094.47,3098.65,3104.63,3109.98,3114.39,3119.26,3126.48,3133.72,3133.45,3122.7,3115.36,3099.76,3087.24,3078.4,3070.97,3061.9,3057.93,3061.25,3067.22,3076.82,3090.42,3102.73,3112.99,3123.25,3133.85,3140.28,3142.05,3138.24,3126.99,3113.91,3105.04,3095.38,3085.5,3076.48,3070.01,3063.85,3062,3066.72,3073.2,3077.19,3081.23,3085.84,3087.43,3084.88,3077.79,3068.02,3057.42,3048.2,3037.59,3033.48,3027.49,3023.29,3019.78,3019.56,3021.34,3023.41,3024.6,3026.84,3024.5,3020.95,3016.24,3014.81,3013.85,3011.55,3009.47,3012.35,3016.11,3023.64,3030.93,3040.37,3046.95,3053.88,3061.63,3066.85,3067.96,3065.1,3057.8,3049.81,3040.05,3028.53,3015.46,3003.15,2991.59,2982.78,2977.53,2976.66,2975.05,2975.7,2978.21,2981.88,2984.31,2989.34,2993.75,2996.86,2995.73,2995.19,2994.18,2992.29,2992.99,2993.9,2993.14,2993.24,2992.77,2994.87,2996.42,2998.57,3000.46,3000.34,3001.85,3001.62,3000.02,2997.58,2995.83,2995.05,2994.13,2994.4,2995.89,2995.15,2995.6,2996.86,2998.17,2997.61,2994.96,2991.81,2987.83,2982.54,2979.43,2978.16,2977.23,2976.03,2974.59,2975.49,2976.56,2978.24,2981.04,2982.91,2982.41,2981.73,2981.16,2980.82,2980.35,2978.28,2975.72,2972.93,2968.93,2964.75,2960.98,2957.02,2954.83,2953.28,2954.94,2958.06,2959.58,2960.6,2961.44,2961.51,2960.11,2956.75,2952.72,2946.76,2940.67,2934.18,2930.97,2926.31,2921.44,2919.31,2918.36,2918.66,2920.73,2923.28,2925.26,2924.06,2923.27,2922.82,2920.41,2917.08,2913.11,2908.07,2903.7,2900.36,2899.42,2900.21,2902.83,2910.76,2919.6,2929.89,2941.56,2952.46,2961.71,2973.17,2985.04,2998.26,3005.91,3011.11,3014.25,3013.92,3012.53,3006.93,2995.49,2981.57,2969.89,2956.03,2942.88,2929.38,2915.06,2904.36,2897.74,2892.67,2889.02,2882.68,2878.62,2876.4,2874.14,2873.14,2873.36,2875.59,2878.36,2880.75,2883.87,2887.99,2891.65,2894.18,2895.88,2896.12,2894.23,2890.37,2885.16,2880.46,2874.55,2867.32,2859.61,2851.62,2843.53,2835.74,2827.76,2821.03,2814.48,2808.99,2804.87,2801.85,2798.98,2797.75,2797.23,2798.41,2800.23,2802.24,2803.92,2805.36,2807.02,2808.41,2808.83,2809.19,2809.18
3057.69,3058.81,3060.17,3061.36,3063.54,3064.28,3063.4,3062.39,3060.94,3061.42,3063.08,3064.29,3064.45,3064.04,3063.92,3064.82,3064.48,3065.92,3067.11,3066.57,3065.61,3066.05,3066.32,3067.95,3069.05,3070.34,3071.95,3077.87,3083.79,3088.77,3093.48,3098.34,3099.85,3103.19,3106.42,3105.8,3101.56,3103.73,3103.7,3102.17,3100.99,3100.98,3100.62,3100.35,3104.36,3106.04,3106.07,3106.03,3105.92,3102.11,3097.42,3094.15,3089.89,3082.87,3074.27,3069.29,3065.53,3064.49,3064.97,3061.07,3068.94,3073.35,3077.95,3079.24,3076.67,3072.21,3065.75,3062.17,3060.78,3053.99,3047.93,3042.77,3043.14,3046.29,3051.72,3054.34,3058.65,3066.74,3079.8,3087.63,3092.85,3095.95,3093.9,3088.64,3082.16,3074.17,3062.3,3047.2,3035.67,3027.14,3018.44,3012.43,3008.94,3006.48,3010.07,3017.57,3020.91,3024.89,3028.17,3033.07,3042.1,3053.67,3064.38,3069.21,3069.59,3072.7,3076.2,3077.26,3079.49,3076.9,3073.36,3069.38,3064.83,3061.78,3066.03,3067.24,3066.89,3068.22,3070.73,3072.99,3077.86,3085.53,3092.34,3094.71,3093.35,3094.14,3093.39,3090.65,3088.08,3085.83,3078.76,3073.54,3068.69,3067.3,3066.62,3065.94,3067.97,3068.59,3067.8,3070.09,3071.47,3072.35,3070.38,3067.21,3063.04,3058.71,3057.18,3058.85,3056.41,3054.06,3053.82,3058.38,3061.75,3066.06,3071.99,3077.16,3077.47,3082.31,3087.94,3086.42,3078.68,3068.32,3053.38,3042.31,3037.64,3031.08,3024.3,3021.04,3024.44,3030.57,3040.03,3051.09,3060.16,3067.69,3074.91,3082.15,3086.01,3086.39,3082.38,3072.61,3062.97,3055.22,3048.27,3041.3,3035.6,3030.36,3026.48,3025.81,3030.38,3035.7,3039.5,3042.63,3046.42,3047.29,3045.07,3038.45,3029.54,3019.87,3011.26,3002.18,2998.08,2993.08,2989.42,2986.27,2985.85,2988.06,2990.13,2991.07,2993.28,2991.97,2988.46,2984.6,2983.72,2983.45,2980.57,2977.95,2979.01,2981.06,2987.38,2992.42,2999.42,3003.83,3008.25,3014.88,3020.77,3022.49,3021.89,3016.34,3010.82,3003.57,2994.97,2983.68,2972.52,2960.88,2952.47,2947.32,2945.34,2943.3,2944.91,2947.83,2951.94,2956.21,2963.07,2968.47,2971.99,2972.21,2972.97,2970.82,2967.92,2967.41,2966.53,2963.97,2962.69,2962.09,2963.63,2964.6,2966.67,2969.18,2970.06,2972.55,2973.22,2972.72,2970.67,2969.53,2969.19,2968.57,2969.46,2970.86,2970.7,2971.14,2972.15,2972.9,2972.21,2969.04,2965.12,2961.16,2956.04,2952.88,2951.32,2950.29,2949.29,2948.41,2949.38,2950.67,2951.95,2954.59,2956.11,2955.35,2954.73,2953.56,2952.92,2952.32,2949.95,2947.61,2944.24,2940.47,2936.2,2931.97,2927.91,2925.3,2923.73,2924.99,2927.34,2928.42,2928.77,2929.69,2929.55,2928.22,2924.91,2921.27,2916.02,2909.56,2903.53,2900.31,2895.83,2890.51,2887.75,2886.6,2886.14,2887.21,2889.1,2890.76,2889.53,2889.06,2889.2,2886.97,2883.68,2879.68,2874.89,2870.71,2866.56,2864.83,2864.61,2866.08,2872.2,2878.76,2886.85,2897.08,2907.34,2917.45,2929.39,2941.56,2954.72,2963.92,2971.2,2975.95,2976.42,2974.78,2967.83,2955.52,2940.48,2929,2915.4,2902.26,2888.42,2874.91,2864.94,2859.04,2854.83,2851.78,2845.94,2841.98,2839.48,2837.41,2835.76,2834.65,2835.09,2836.19,2837.63,2839.5,2841.85,2844.76,2846.21,2846.67,2845.56,2842.65,2838.52,2832.96,2827.17,2820.82,2813.15,2806.14,2799.36,2792.33,2785.78,2779.41,2774.45,2769.51,2766.18,2763.3,2761.33,2759.7,2759.11,2759.3,2760.73,2763.25,2765.38,2766.94,2768.33,2769.52,2771.19,2771.53,2771.67,2771.54
3025.32,3025.72,3026.57,3029.05,3031.78,3033.07,3032.93,3032.12,3031.06,3033.15,3035.57,3037.35,3036.17,3035.4,3034.32,3033.35,3031.61,3031.14,3029.25,3027.56,3025.83,3025.4,3027.92,3030.02,3032.83,3035.72,3037.83,3043.59,3049.16,3055.54,3061.71,3067.05,3069.03,3071.68,3074.45,3073.95,3070.81,3074.31,3074.27,3072.46,3070.06,3067.96,3065.72,3063.57,3063.77,3063.52,3061.3,3059.91,3058.34,3054.13,3051.11,3048.56,3045.14,3039.72,3032.59,3027.72,3023.84,3023.49,3024.53,3021.46,3029.66,3034.11,3038.03,3039.77,3038.98,3035.06,3025.28,3024.21,3022.56,3015.91,3008.94,3003.95,3003.01,3005.22,3010.47,3014.78,3018.49,3025.01,3034.5,3042.81,3049.54,3052.69,3049.87,3045.78,3041.03,3034.52,3024.34,3013.08,3004.04,2997.34,2990.65,2987.04,2983.82,2981.76,2985.07,2991.56,2993.14,2995.55,2997.43,3001.15,3008.54,3017.56,3026.25,3029.45,3028.69,3030.91,3033.02,3033.08,3034.4,3031.53,3028.6,3026.34,3021.97,3020.24,3025.95,3027.14,3029.09,3031.71,3035.28,3038.02,3043.29,3051.85,3059.4,3062.28,3061.59,3060.14,3058.05,3055.33,3052.71,3050.07,3041.66,3035.97,3030.91,3028.99,3028.75,3029.29,3031.87,3032.53,3032.26,3034.42,3035.84,3036.37,3034.26,3031.31,3027.04,3022.62,3020.59,3022.05,3020.65,3018.73,3018.5,3022.08,3023.76,3026.64,3031.37,3035.63,3038.26,3041.21,3044.25,3042.4,3035.23,3025.07,3011.76,3001.68,2995.11,2990.04,2984.76,2982.15,2985.52,2990.6,2999.21,3008.98,3016.61,3022.3,3026.52,3031.53,3034.14,3033.95,3030.17,3022.68,3014.96,3009.22,3004.75,3000.01,2995.74,2991.66,2989.61,2989.74,2993.17,2997.5,3000.06,3002.43,3004.1,3004.37,3002.29,2996.16,2988.02,2979.59,2972.84,2965.03,2961.46,2957.42,2954.24,2951.63,2951.23,2953.98,2956.03,2957.02,2959.02,2957.97,2956.2,2952.58,2952.88,2952.77,2949.41,2945.93,2946.16,2947.39,2951.77,2954.88,2960.02,2962,2964.75,2970.16,2975.99,2978.63,2979.36,2976.6,2973.15,2968.17,2960.84,2951.1,2940.82,2930.19,2922.35,2917.19,2914.55,2912.21,2914.29,2918.35,2923.27,2928.42,2936.85,2942.72,2946.36,2947.35,2948.88,2945.92,2942.03,2940.31,2937.68,2933.68,2931.46,2930.1,2931.16,2930.95,2932.91,2935.9,2937.67,2940.92,2942.6,2943.29,2942.82,2942.83,2943.43,2944.07,2945.19,2946.8,2946.57,2946.92,2947.43,2947.99,2946.7,2943.26,2938.84,2934.46,2929.89,2926.62,2924.97,2923.51,2922.5,2922.12,2922.97,2924.83,2926.02,2928.06,2929.32,2927.94,2927.13,2926.1,2924.23,2922.59,2919.73,2917.31,2914.05,2910.2,2905.98,2901.2,2896.93,2894.48,2892.91,2894.21,2896.37,2896.41,2896.73,2897.89,2897.76,2896.34,2893.1,2890,2884.13,2878.18,2872.97,2869.9,2865,2859.8,2856.99,2855.27,2854.72,2855.8,2856.92,2858.3,2856.94,2856.68,2856.68,2854.65,2850.79,2847.03,2842.16,2837.32,2833.37,2831.09,2830.28,2830.93,2835.36,2840.29,2847.02,2855.23,2864.74,2874.29,2885.03,2896.31,2908.78,2918.12,2925.27,2929.66,2930.57,2929.89,2924.25,2913.04,2898.72,2886.45,2872.77,2860.35,2848.09,2835.25,2825.76,2820.41,2816.89,2814.41,2808.82,2805.05,2802.49,2799.92,2798.02,2796.18,2795.28,2794.87,2794.92,2795.61,2796.69,2798.48,2798.58,2797.89,2796.47,2793.16,2788.99,2782.68,2776.31,2769.36,2762.7,2755.68,2749.87,2744.36,2739.21,2734.48,2731.45,2728.92,2727.79,2727.16,2726.57,2726.12,2726.41,2726.66,2728.57,2730.83,2733.08,2734.29,2735.05,2736.17,2737.18,2737.18,2736.63,2735.99
2994.51,2994.9,2996.28,2999.92,3003.36,3004.87,3005.77,3005.66,3005.44,3007.19,3009.84,3009.7,3007.9,3006.26,3004.15,3001.73,2998.74,2996.26,2992.76,2989.93,2988.1,2987.56,2989.89,2991.96,2995.95,3000.77,3004.45,3010.54,3016.31,3022.7,3029.57,3034.53,3037,3039.18,3041.52,3041.01,3037.56,3040.61,3040.08,3037.62,3033.39,3028.83,3024.81,3020.07,3016.85,3014.86,3012.47,3010.37,3008.22,3005.12,3004,3003.65,3002.76,2999.43,2991.54,2987.82,2984.7,2984.9,2986.62,2985.51,2992.7,2995.11,2998.48,3000.6,2997.07,2994.35,2988.79,2988.02,2986.91,2981.5,2975.59,2971.1,2969.16,2971.25,2975.98,2980.47,2982.81,2987.46,2993.85,3001.11,3007.81,3011.96,3009.59,3006.84,3004.09,3000.95,2995.09,2987.6,2981.5,2976.26,2970.88,2968.67,2965.29,2961.75,2963.85,2966.82,2966.95,2967.47,2968.83,2971.25,2976.31,2982.2,2988.72,2990.07,2987.69,2988.42,2988.93,2988.09,2988.32,2984.89,2983.59,2980.68,2976.7,2974.41,2981.02,2983.42,2987.16,2990.4,2994.89,2997.78,3004.91,3015.38,3024.87,3028.7,3027.64,3025.78,3023.2,3019.79,3017.37,3014.44,3006.38,3000.83,2995.18,2993.49,2992.93,2993.56,2996.47,2997.41,2996.83,2998.5,2999.15,2998.78,2996.1,2993.58,2989.27,2984.77,2981.56,2982.67,2982.11,2981.75,2981.83,2984.77,2986.39,2989.04,2993.28,2997.04,2999.22,3001.44,3003.48,3001.74,2996.48,2988.43,2976.19,2967.39,2961.39,2956.57,2950.92,2947.43,2948.52,2952.24,2958.11,2964.56,2970.57,2974.36,2976.65,2979.76,2981.41,2981.06,2977.65,2972.41,2966.78,2962.6,2959.64,2957.27,2954.01,2951.69,2950.73,2951.06,2954.42,2957.81,2960.44,2961.54,2961.92,2961.73,2959.5,2954.07,2947.47,2939.25,2934.01,2927.1,2923.26,2920.12,2916.72,2914.51,2914.34,2916.76,2919.45,2920.48,2922.27,2922.19,2921.02,2918.91,2919.58,2920.09,2917.35,2914.21,2913.41,2913.02,2915.59,2917.54,2920.58,2920.42,2921.48,2925.51,2930.27,2933.07,2936.34,2935.49,2933.85,2930.98,2925.51,2917.6,2908.99,2900.01,2892.38,2886.53,2883.05,2879.68,2882.1,2886.48,2891.63,2897.84,2906.75,2913.28,2917.26,2919.41,2921.04,2918.04,2913.24,2910.36,2906.46,2901.78,2898.12,2896.09,2895.52,2894.8,2896.29,2899.01,2901.54,2906.03,2908.91,2911.04,2912.42,2914.05,2915.75,2917.45,2919.68,2921.88,2922.24,2923.09,2923.62,2923.44,2921.67,2917.89,2912.78,2908.23,2903.68,2900.15,2898.69,2897.05,2895.99,2895.57,2896.54,2897.91,2898.69,2899.89,2900.31,2898.42,2897.14,2895.17,2893.01,2890.83,2887.86,2885.36,2881.81,2878.14,2873.59,2868.86,2864.64,2862.65,2861.23,2862.26,2864.16,2864.4,2864.51,2865.42,2865.19,2863.95,2860.58,2858.03,2852.82,2847.35,2842.56,2839.8,2834.92,2829.54,2826.92,2825.52,2824.54,2825,2826.03,2827.18,2825.46,2824.91,2824.81,2822.91,2819.08,2814.48,2809.19,2804.59,2799.88,2797.13,2795.73,2795.91,2799.9,2804.17,2810.45,2817.93,2826.14,2834.51,2844.46,2855.43,2867.27,2875.35,2881.39,2884.62,2885.73,2885.82,2880.87,2870.37,2856,2844.26,2831.78,2820.77,2809.61,2797.99,2788.98,2784.01,2781.03,2778.99,2774.41,2770.87,2768.75,2766.06,2763.54,2760.92,2759,2757.11,2756.17,2755.81,2755.7,2755.74,2754.83,2753.22,2751.4,2748.43,2744.89,2738.7,2732.62,2725.72,2719.62,2713.78,2708.53,2703.94,2699.91,2696.19,2694.79,2694.26,2694.82,2695.31,2695.94,2696.57,2697.13,2697.76,2699.28,2701.51,2703.21,2703.62,2703.7,2703.88,2704.55,2703.75,2702.54,2700.78
2970.31,2970.73,2972.68,2977,2979.48,2982.02,2981.4,2980.83,2980.46,2982.47,2984.66,2983.34,2980.47,2977.55,2974.67,2970.7,2965.56,2961.24,2957.77,2954.8,2953.1,2952.5,2956.14,2959.7,2964.87,2971.91,2977.6,2983.03,2987.57,2993.72,2999.22,3003.32,3004.3,3005.53,3006.2,3006.68,3003.16,3006.16,3004.57,3000.72,2994.95,2989.11,2983.21,2976.6,2969.62,2965.71,2963.41,2960.81,2959.11,2957.7,2957.91,2959.26,2960.54,2959.72,2953.77,2952.43,2950.7,2951.39,2952.74,2951.72,2956.2,2956.8,2958.53,2960.62,2960.27,2958.92,2954.19,2950.73,2950.63,2947.06,2943.54,2939.71,2937.82,2939.29,2943.1,2946.92,2949.09,2951.79,2955.15,2961.31,2968.37,2973.43,2973.21,2972.26,2971.3,2970.44,2967.91,2964.29,2961.32,2956.9,2953.21,2952.12,2948.27,2944.39,2944.47,2945.31,2943.32,2941.81,2941.8,2942.46,2944.7,2947.94,2951.22,2950.76,2946.58,2945.54,2944.99,2941.79,2940.6,2937.45,2936.39,2933.49,2930,2929.07,2936.86,2942.02,2947.18,2952.31,2957.98,2962.3,2970.5,2982.25,2990.73,2994.12,2992.21,2989.03,2986.15,2981.81,2979.17,2976.55,2969.75,2963.96,2958.58,2957.8,2957.79,2958.83,2961.86,2963.24,2960.54,2961.09,2960.93,2959.75,2956.9,2953.03,2948.89,2944.28,2941.06,2941.23,2943,2944.07,2945.74,2949.25,2951.81,2955.49,2959.77,2963.73,2965.38,2966.91,2968.92,2967.66,2963.12,2955.84,2945.26,2937.59,2931.17,2925.24,2918.51,2912.64,2911.27,2912.82,2915.13,2919.03,2922.6,2924.51,2925.43,2928.02,2929.05,2928.37,2925.8,2922.86,2919.37,2917.23,2916.22,2915.67,2915.07,2913.81,2914.34,2916.07,2919.19,2922.06,2923.91,2924.58,2924.15,2923.61,2921.15,2916.12,2909.6,2902.16,2897.57,2890.9,2887.1,2883.74,2880.23,2878.21,2878,2879.34,2881.69,2883.61,2885.5,2886.31,2886.23,2885.45,2886.2,2887.38,2886.23,2884.33,2882.91,2881.05,2882.18,2882.64,2884.51,2883.98,2884.48,2887.5,2891.37,2894.52,2898.92,2899.65,2899.94,2898.44,2894.17,2886.85,2879.03,2870.24,2862.88,2856.95,2852.48,2848.55,2850.53,2854.43,2859.47,2865.35,2874.28,2881.1,2885.18,2888.12,2890.09,2886.97,2882.39,2878.98,2874.12,2868.43,2863.86,2860.49,2859.19,2857.82,2858.8,2861.44,2864.53,2869.74,2873.98,2877.63,2881.01,2884.5,2888.06,2891.08,2894.13,2897.28,2898.87,2900.39,2900.85,2900.71,2899.24,2895.07,2890.12,2885.27,2879.88,2875.83,2873.41,2871.39,2869.97,2868.76,2868.78,2869.45,2869.25,2869.69,2868.99,2866.76,2865,2862.55,2859.32,2857.06,2854.27,2851.65,2848.8,2845.1,2841.12,2836.8,2833.21,2831.57,2830.31,2831.59,2833.43,2833.34,2833.24,2833.93,2833.73,2831.92,2829.26,2826.14,2821.56,2816.64,2812.01,2809.77,2805.48,2800.09,2797.31,2795.46,2794.28,2794.66,2795.47,2795.83,2793.83,2793.04,2792.75,2790.48,2786.99,2782.42,2776.84,2771.77,2766.81,2763.88,2762.13,2761.93,2764.74,2768.41,2773.8,2780.75,2788.55,2796.31,2805.07,2815.63,2827.56,2835.47,2840.32,2842.1,2843.46,2843.27,2838.99,2829.38,2816.89,2805.91,2794.64,2785.32,2775.77,2765.28,2756.49,2752.14,2749.22,2746.35,2741.55,2738.28,2735.58,2732.81,2730.01,2726.5,2723.71,2720.52,2718.84,2717.46,2716.31,2715.25,2713.34,2711.45,2709.25,2706.17,2703.22,2698.72,2694.62,2690.19,2685.34,2681.14,2677.46,2673.79,2671.08,2668.63,2667.05,2666.4,2666.51,2667.21,2667.95,2668.4,2669.27,2670.01,2671.01,2672.53,2673.49,2673.08,2672.37,2671.48,2671.12,2669.52,2667.39,2664.85
2946.44,2947.76,2950.32,2955.11,2957.72,2960.08,2959.37,2957.56,2956.5,2958.23,2958.86,2956.59,2952.28,2948.8,2944.26,2939.19,2933.04,2928.02,2923.4,2919.8,2916.77,2915.82,2919.45,2923.4,2928.95,2935.91,2941.51,2946.56,2950.96,2958.76,2965.7,2970.43,2971.51,2972.28,2974.39,2975.56,2972.74,2974.15,2970.75,2965.17,2958.26,2951.12,2944.88,2937.04,2929.26,2925.86,2923.26,2920.63,2919.34,2919.16,2921.34,2923.37,2921.77,2925.59,2921.58,2921.34,2919.74,2920.71,2921.73,2919.45,2920.41,2919.96,2920.69,2922.47,2921.85,2921.26,2916.58,2913.44,2914.07,2914.13,2912.64,2906.21,2904.46,2909.61,2913.96,2918.28,2920.72,2923.03,2925.02,2930.35,2937.57,2942.86,2943.58,2944.41,2944.82,2945.35,2944.46,2943.88,2942.75,2938.93,2936.8,2935.82,2931.73,2927.31,2925.72,2924.38,2919.84,2916.69,2915.12,2913.68,2913.52,2913.56,2913.8,2911.21,2902.6,2900.1,2897.45,2895.35,2893.17,2889.95,2889.2,2886.41,2883.48,2884.99,2894.18,2902.69,2909.66,2915.85,2922.17,2927.54,2936.94,2948.04,2955.49,2958.05,2953.41,2950.31,2945.46,2940.72,2937.87,2934.79,2928.99,2923.71,2918.87,2918.73,2919.2,2921,2923.84,2925.1,2921.32,2920.68,2919.69,2917.99,2914.53,2911.01,2906.91,2902.59,2899.44,2899.28,2903.23,2905.82,2908.87,2913.24,2916.91,2921.07,2926.19,2930.86,2932.85,2933.96,2934.77,2933.34,2928.89,2922.35,2912.34,2904.67,2897.97,2891.61,2883.35,2877.06,2873.53,2872.28,2873.02,2874.01,2875.21,2875.29,2874.8,2876.57,2877.74,2877.95,2876.29,2875.96,2874.94,2874.58,2875,2876.64,2877.34,2877.56,2879.73,2881.92,2884.48,2887.05,2888.73,2888.58,2887.62,2886.78,2883.84,2878.61,2872.68,2866.26,2861.89,2855.6,2850.84,2848.41,2844.75,2843.5,2843.29,2844.64,2847.13,2847.99,2850.31,2851.66,2852.9,2853.32,2854.23,2855.58,2855.11,2853.66,2852,2850.79,2852.27,2853.69,2854.63,2854.29,2854.93,2857.26,2860.86,2863.53,2867.93,2869.69,2870.1,2868.97,2864.62,2859.04,2851.01,2841.87,2834.65,2828.65,2823.05,2818.57,2820.06,2823.89,2827.4,2833.56,2842.01,2848.21,2852.67,2855.65,2857.91,2855.34,2850.99,2847.51,2842.6,2836.52,2831.71,2828.16,2826.01,2824.93,2824.9,2827.39,2831,2836.07,2840.79,2845.63,2849.92,2853.92,2858.43,2862.44,2865.6,2869.48,2871.54,2873.4,2874.03,2874.03,2872.65,2869.05,2864.65,2861.04,2856.28,2851.89,2849.47,2847.6,2845.93,2844.68,2843.8,2843.75,2842.19,2841.1,2839.11,2836.27,2832.87,2829.72,2826.02,2823.3,2820.58,2818.41,2815.93,2813.26,2810.51,2806.51,2803.77,2802.26,2801.49,2802.74,2804.08,2803.69,2803.04,2803.11,2802.77,2801.02,2798.4,2795.82,2791.3,2787.08,2783.07,2780.85,2776.85,2771.73,2768.85,2766.7,2765.17,2764.9,2765.28,2765.01,2762.58,2761.51,2761.18,2758.9,2754.89,2750.53,2744.96,2739.8,2734.29,2730.91,2728.56,2727.65,2729.54,2731.95,2736.86,2742.78,2750.36,2757.95,2765.98,2775.93,2786.95,2794.06,2799.4,2802.86,2803.9,2803.03,2798.4,2790.13,2779.97,2770.79,2761.03,2751.11,2743.08,2731.88,2724.97,2721.09,2719.1,2715.89,2710.96,2707.35,2704.54,2700.94,2697.4,2693.3,2689.35,2685.82,2683.23,2680.88,2678.94,2677.15,2674.6,2671.87,2669.7,2667.29,2665.14,2663,2660.91,2658.09,2655.92,2653.67,2651.67,2649.56,2647.64,2645.85,2644.01,2643,2642.84,2642.96,2643.73,2644.08,2644.3,2644.49,2644.67,2645.03,2644.7,2643.16,2641.31,2639.12,2637.4,2635.07,2632.05,2628.49
2922.7,2925.07,2928.58,2933.28,2936.32,2938.52,2937.77,2935.81,2933.29,2933.58,2932.44,2927.57,2925.02,2921.91,2916.35,2910.06,2903.07,2896.86,2890.92,2886.63,2882.67,2880.39,2881.08,2884.46,2889.64,2895.98,2902.12,2907.45,2913,2921.22,2929.61,2935.81,2937.69,2940.08,2943.24,2945.13,2942.52,2941.52,2937.03,2930.35,2922.99,2916.14,2908.76,2899.84,2892.5,2889.94,2888.28,2886.03,2885.74,2887.64,2890.3,2892.4,2893.99,2891.97,2888.83,2887.87,2885.05,2885.48,2885.61,2883.93,2885.61,2885.33,2887.62,2890.07,2891.31,2891.83,2888.63,2885.5,2886.02,2887,2886.55,2882.15,2880.78,2884.67,2888.4,2893.36,2896.74,2900,2900.03,2908.73,2916.44,2922.05,2924.02,2926.47,2927.49,2928.25,2928.38,2927.42,2925.48,2922.22,2920.62,2919.1,2913.89,2908.77,2905.79,2901.66,2896.4,2892.4,2888.81,2884.66,2882.28,2879.45,2877.84,2873.78,2864.36,2860.57,2856.76,2854.18,2852.54,2850.35,2850.6,2848.52,2847.33,2850.92,2859.64,2868.56,2876.96,2883.82,2890.1,2895.14,2903.92,2913.4,2918.65,2920.27,2915.96,2911.19,2905.18,2898.88,2895.49,2892.25,2887.34,2881.78,2876.27,2876.8,2877.61,2879.61,2882.74,2884.43,2880.08,2878.79,2877.81,2875.86,2872.24,2868.64,2865.42,2861.31,2857.94,2858.41,2862.5,2865.71,2870.28,2875.81,2880.03,2884.52,2890.14,2894.74,2897.21,2898.59,2899.59,2897.41,2892.22,2885.74,2876.32,2868.79,2861.83,2855.27,2846.23,2837.59,2832.22,2829.8,2826.75,2827.99,2827.92,2827.67,2827.12,2827.81,2829.14,2830.41,2829.79,2831.21,2832.12,2832.81,2834.67,2837.49,2839.48,2841.37,2844.39,2848.32,2850.83,2852.02,2853.69,2853.7,2851.73,2850.45,2847.45,2842.7,2836.78,2831.29,2827.29,2821.98,2816.97,2813.22,2809.05,2808.49,2808.4,2809.33,2811.68,2813.39,2815.1,2816.97,2818.49,2819.69,2820.87,2822.05,2821.68,2820.57,2820.51,2820.02,2821.91,2823.24,2823.87,2823.29,2823.64,2826.31,2829.53,2832.38,2836.85,2838.85,2840.21,2838.38,2834.52,2829.61,2821.68,2812.51,2804.95,2797.81,2792.6,2787.88,2789.64,2792.72,2795.2,2800.61,2808.24,2814.33,2818.32,2821.56,2823.62,2821.16,2817.43,2814.25,2808.96,2803.3,2798.68,2795.8,2794.19,2792.54,2792.86,2794.86,2798.75,2804.5,2809.52,2814.39,2818.99,2823.73,2828.41,2832.46,2835.41,2839.15,2841.12,2842.54,2843.16,2842.92,2841.82,2838.64,2834.46,2832.25,2828.74,2825.56,2823.45,2821.81,2820.32,2818.65,2817.44,2816.12,2813.39,2810.57,2807.52,2803.5,2799.6,2795.49,2791.85,2789.06,2786.3,2784.36,2782.59,2781,2778.96,2776.83,2774.86,2773.6,2773.15,2773.83,2774.61,2773.78,2772.45,2771.27,2770.05,2768.1,2765.68,2763.49,2759.95,2756.6,2753.68,2752.47,2749.02,2744.05,2740.86,2738.15,2736.38,2735.4,2734.75,2733.3,2730.48,2728.87,2728.5,2726.75,2723.3,2718.89,2713.7,2708.71,2703.78,2699.43,2696.25,2694.77,2695.76,2697.42,2700.91,2706.01,2712.7,2719.63,2727.56,2736.02,2743.79,2750.15,2755.07,2758.37,2761.27,2759.55,2754.44,2746.68,2738.37,2730.78,2721.69,2712.76,2704.62,2697.15,2692.11,2690.32,2688.62,2685.69,2681.57,2678.27,2675.14,2671.11,2667.3,2662.69,2658.47,2654.06,2651.04,2648.34,2646.04,2644.04,2641.69,2638.75,2636.34,2634.57,2633.51,2632.26,2628.63,2630.79,2629.97,2628.99,2628.24,2627.35,2626.26,2624.62,2622.54,2621.38,2614.76,2620.56,2621.2,2621.28,2621.49,2621.06,2620.32,2619.62,2618.3,2615.89,2612.94,2609.59,2606.44,2603.25,2599.86,2595.1
2897.43,2901.44,2906.39,2912.11,2916.18,2918.33,2917.5,2915.36,2911.57,2909.95,2906.41,2902.26,2898.64,2893.3,2886.57,2879.02,2870.72,2863.6,2857.65,2852.34,2847.98,2844.73,2845.15,2847.55,2852.41,2858.6,2864.24,2870.2,2876.26,2885.09,2894.88,2901.16,2904.53,2908.21,2912.66,2915.63,2913.38,2910.5,2905.26,2898.01,2891,2884.29,2875.8,2866.91,2860.07,2858.18,2857.09,2854.56,2855.75,2858.56,2860.95,2859.14,2863.83,2861.92,2858.58,2855.65,2852.55,2851.72,2851.05,2849.8,2851.79,2853.39,2858,2862,2865.07,2867.69,2865.58,2863.29,2863.95,2863.33,2861.81,2859.17,2858.41,2860.77,2863.63,2868.94,2872.9,2877.19,2881.3,2887.14,2894.23,2900.57,2904.48,2908.03,2909.74,2910.62,2911.01,2910.17,2907.59,2903.53,2900.43,2895.83,2888.73,2882.43,2878.54,2872.49,2866.99,2862.31,2857.79,2852.66,2849.98,2847.41,2845.08,2840.06,2830.81,2827.13,2823.22,2821.12,2821.65,2821.98,2823.81,2823.31,2824.1,2829.22,2837.85,2847.79,2856.42,2862.27,2866.97,2870.37,2877.24,2884.29,2887.2,2887.07,2881.14,2874.62,2866.97,2859.69,2854.71,2852.18,2847.53,2842.51,2837.33,2838.52,2839.89,2842.5,2845.8,2847.37,2843.01,2842.19,2841.53,2839.56,2835.92,2833.11,2830.03,2826.21,2823.59,2823.48,2825.3,2828.56,2833.57,2840.1,2844.07,2848.33,2853.19,2857.21,2859.7,2861.79,2862.66,2860.33,2854.99,2848.83,2840.47,2833.53,2826.7,2819.58,2810.58,2801.14,2796.12,2793.34,2792.48,2793.75,2794.16,2794.31,2795.13,2796.28,2798.63,2800.37,2800.8,2802.62,2803.87,2804.67,2806.47,2809.06,2810.64,2811.77,2814.41,2817.2,2818.78,2819.4,2820.41,2819.72,2817.57,2815.83,2812.57,2807.63,2803.49,2797.68,2794.38,2789.64,2785.82,2782.65,2779.16,2779.13,2779.01,2779.84,2781.78,2783.33,2785.43,2786.03,2787.55,2789.75,2790.41,2791.81,2791.73,2791.18,2791.18,2790.67,2792.58,2793.38,2793.77,2793.37,2793.74,2796.2,2799.23,2802.02,2806.29,2808.69,2810.34,2808.76,2804.89,2800.48,2793.63,2785.13,2776.64,2769.43,2764.12,2758.86,2759.65,2762.49,2764.08,2767.67,2774.01,2779.13,2782.61,2785.74,2787.86,2785.85,2782.96,2780.17,2775.39,2770.17,2766.43,2764.21,2762.43,2761.31,2761.4,2763.15,2766.88,2772.57,2777.44,2781.98,2786.83,2791.11,2795.69,2799.29,2801.81,2805.09,2807.42,2808.92,2809.67,2809.65,2808.63,2806.06,2803.1,2802.32,2799.57,2796.75,2795.07,2793.45,2791.94,2790.21,2788.3,2786.38,2782.51,2778.88,2774.85,2770.93,2766.54,2762.82,2758.83,2756.11,2754.15,2752.48,2751.08,2750.15,2749.24,2748.08,2746.75,2745.97,2745.03,2745.13,2745.06,2743.73,2741.45,2739.2,2736.77,2734.1,2732.24,2730.55,2727.96,2725.58,2723.49,2723.19,2720.41,2715.97,2713.09,2710.82,2708.47,2706.86,2705.1,2703.24,2699.76,2697.61,2696.1,2693.77,2690.69,2686.99,2682.79,2678.43,2674.33,2670.56,2667.09,2664.97,2664.68,2664.7,2667.09,2670.74,2675.65,2681.27,2687.61,2694.71,2701.66,2706.98,2711.66,2714.51,2715.76,2712.74,2707.55,2700.66,2693.58,2687.43,2679.93,2673.04,2666.27,2661.04,2659.07,2658.26,2657.69,2655.35,2652.12,2649.28,2646.43,2642.65,2638.54,2633.59,2628.94,2624.46,2621.59,2619.18,2616.72,2614.8,2612.45,2610.54,2609.4,2608.18,2607.7,2607,2607,2606.99,2606.86,2606.49,2606.14,2605.66,2605.4,2604.13,2602.53,2601.31,2594.49,2600.04,2600.42,2600.45,2600.11,2599.05,2597.69,2596.28,2593.74,2590.18,2585.72,2581.28,2577.47,2573.42,2568.92,2558.14
2874.15,2877.43,2881.17,2885.88,2888.9,2890.21,2888.24,2884.51,2878.83,2875.41,2870.89,2866.28,2863.78,2858.39,2851.81,2844.25,2836.85,2830.06,2824.49,2820,2815.48,2811.17,2811.13,2813.21,2817.56,2823.5,2828.54,2834.81,2840.81,2849.43,2859.62,2866.4,2870.98,2875.91,2881.6,2886.1,2884.07,2881.23,2875.54,2868.21,2861.51,2854.26,2845.71,2836.94,2830,2828.38,2828.33,2826.25,2828.38,2831.53,2833.6,2835.62,2831.9,2834.03,2830.18,2826.4,2822.79,2821.56,2819.73,2819.69,2821.74,2824.52,2828.64,2833.76,2837.32,2841.14,2839.64,2837.6,2839.1,2836.95,2836.46,2834.5,2833.66,2834.73,2836.49,2842.02,2847.23,2852.41,2857.29,2863.22,2869.73,2876.71,2882.78,2887.96,2889.66,2889.43,2889.65,2887.27,2883.74,2877.99,2872.64,2864.8,2855.17,2847.44,2842.78,2835.55,2829.23,2823.54,2817.01,2811.62,2807.92,2806.51,2803.95,2799.69,2795.7,2792.59,2789.55,2790.14,2793.24,2795.63,2799.37,2800.14,2802.8,2808.7,2818.65,2829.18,2837.56,2842.38,2845.65,2847.31,2852.39,2856.7,2857.64,2855.04,2847.42,2839.11,2830.18,2821.6,2817.38,2814.85,2810.31,2806.29,2802.47,2803.84,2805.86,2808.99,2812.68,2813.26,2809.02,2807.84,2806.63,2804.51,2800.72,2797.45,2794.7,2791.83,2788.89,2788.98,2790.95,2793.87,2797.85,2803.26,2806.7,2810.75,2814.82,2817.72,2819.05,2820.41,2821.06,2818.99,2814.31,2808.35,2800.8,2794.26,2787.39,2781.33,2773.77,2766.95,2762.22,2760.04,2759.22,2760.35,2761.8,2762.85,2764.09,2766.36,2769.39,2771.42,2772.6,2775.37,2776.55,2777.47,2779.24,2781.48,2782.12,2782.63,2784.42,2786.7,2787.32,2787.03,2787.61,2786.76,2784.03,2782.31,2778.97,2774.85,2771.37,2766.47,2764.06,2760.32,2757.25,2755.4,2752.92,2753,2752.9,2753.07,2754.98,2756.57,2758.08,2758.52,2759.19,2760.57,2761.34,2762.41,2761.92,2761.52,2761.49,2760.97,2762.18,2762.74,2762.53,2762.19,2762.61,2764.56,2766.9,2769.1,2773.04,2775.18,2776.6,2776.13,2773.51,2769.73,2763.57,2756.25,2748.9,2741.54,2734.5,2729.37,2729.15,2730.16,2730.48,2733.06,2737.54,2741.13,2744.21,2747.21,2749.18,2747.87,2746.03,2744.04,2740.25,2736.39,2733.38,2731.79,2730.03,2728.89,2729.08,2730.45,2733.66,2738.69,2742.68,2747.04,2751.71,2756.07,2760.01,2763.35,2766.23,2768.95,2771.16,2773.04,2774.19,2774.02,2773.21,2771.18,2768.8,2768.49,2766.06,2764.23,2762.45,2760.86,2759.66,2757.72,2756.13,2753.86,2750.42,2746.51,2742.02,2738.22,2734.35,2730.47,2726.91,2724.58,2722.66,2721.34,2720.31,2719.76,2719.89,2719.46,2719.36,2719.12,2718.83,2718.74,2717.57,2715.76,2713.42,2711.03,2708.43,2705.58,2703.48,2701.67,2699.22,2697.05,2695.89,2695.44,2693.87,2690.78,2688.85,2687,2684.38,2682.22,2680.02,2677.51,2673.87,2671.47,2669.22,2666.36,2662.95,2659.03,2655.1,2651.18,2647.57,2643.86,2640.24,2637.92,2635.78,2634.63,2635.7,2637.85,2641.14,2645.25,2649.58,2654.31,2658.85,2663.54,2667.77,2669.73,2670.49,2668.47,2664.92,2659.88,2654.43,2649.13,2643.47,2637.83,2633.04,2625.91,2627.29,2626.37,2625.73,2624.58,2622.82,2620.79,2618.91,2615.9,2612.52,2608.11,2602.94,2598.65,2595.84,2593.23,2591.08,2589.32,2587.71,2586.38,2585.64,2585.39,2586.25,2586.27,2586.63,2586.87,2587.21,2587.26,2587.02,2586.48,2585.97,2584.71,2583.14,2581.65,2580.83,2579.98,2580.08,2579.73,2579.07,2577.67,2575.66,2573.2,2569.65,2565.14,2560.14,2554.77,2549.98,2545.32,2540.38,2532.09
2850.76,2853.26,2855.31,2858.93,2860.22,2859.85,2856.92,2851.21,2844.7,2840.73,2835.73,2831.03,2828.48,2823.93,2818.62,2812.06,2805.62,2799.72,2794.33,2790.02,2786.21,2781.92,2779.84,2781.47,2785.1,2790.08,2795.25,2801.2,2807.64,2817.7,2828.57,2835.19,2839.69,2845.18,2851.45,2856.39,2855.27,2852.49,2847.45,2841.36,2835.1,2828.37,2820,2811.45,2804.6,2802.52,2803.36,2803.61,2804.35,2806.25,2806.79,2808.15,2807.93,2805.89,2801.71,2798.31,2795.53,2794.78,2793.65,2794.38,2795.41,2798.41,2802.37,2807.5,2810.1,2813.45,2812.11,2810.21,2812.54,2812.26,2811.92,2809.57,2807.39,2807.81,2809.52,2814.57,2819.31,2823.98,2828.99,2834.9,2841.29,2848.53,2855.54,2860.8,2862.54,2861.74,2861.83,2858.62,2854.31,2847.87,2840.85,2831.48,2820.5,2812.36,2807.57,2798.58,2792.37,2785.86,2779.81,2774.5,2770.82,2770.3,2768.45,2764.97,2763.2,2760.88,2759.38,2761.53,2765.92,2770.44,2775.41,2777.12,2780.81,2787.22,2797,2807.62,2814.93,2819.23,2821.64,2821.5,2824.75,2827.2,2826.28,2822.92,2814.46,2804.96,2795.72,2787.31,2783.06,2779.01,2775.08,2771.81,2768.54,2770.3,2772.42,2775.1,2777.53,2777.04,2775.76,2774.16,2772.46,2770.13,2766.53,2763.27,2760.43,2757.59,2755.15,2755.31,2757.05,2759.47,2763.46,2767.75,2770.37,2772.95,2775.36,2776.92,2777.29,2777.59,2777.55,2775.73,2771.52,2766.92,2760.43,2754.77,2749.67,2744.54,2738.24,2732.09,2728.24,2726.19,2725.72,2726.91,2729.1,2730.77,2732.92,2736.04,2739.44,2742.08,2743.81,2746.98,2748.68,2749.33,2750.93,2752.42,2752.78,2752.56,2753.95,2755.26,2754.91,2753.85,2753.87,2752.24,2749.76,2748.01,2745.07,2741.5,2738.66,2734.91,2732.77,2730.11,2728.1,2726.6,2724.54,2724.74,2724.67,2724.94,2726.39,2728.23,2729.02,2729.35,2729.32,2730.63,2730.87,2731.3,2730.78,2730.19,2730.06,2729.49,2730.11,2730.53,2730.13,2729.5,2729.45,2731.18,2733.12,2734.8,2738.63,2740.78,2742.1,2742.19,2740.43,2737.5,2732.34,2726.06,2720.07,2713.5,2706.57,2702.02,2700.84,2700.8,2700.34,2702,2704.99,2707.58,2709.51,2712.42,2713.84,2712.56,2711.18,2709.5,2706.72,2703.56,2700.97,2699.13,2697.07,2696.34,2696.19,2696.81,2699.08,2703.12,2706.44,2710.1,2714.42,2718.51,2722.04,2725.54,2728.52,2731.39,2733.48,2735.74,2736.84,2736.55,2736.28,2734.8,2733.18,2732.46,2731,2729.15,2727.38,2726.21,2725.03,2723.25,2721.52,2719.49,2716.66,2713.02,2708.69,2704.92,2701.1,2697.6,2694.32,2692.41,2690.91,2689.86,2688.88,2689.09,2689.66,2690.08,2690.96,2691.24,2691.78,2692.36,2691.95,2690.87,2689.04,2687.16,2684.68,2682.05,2679.88,2678.06,2675.63,2673.21,2671.75,2670.75,2668.89,2666.75,2664.95,2663.11,2660.61,2658.76,2656.3,2653.46,2649.66,2646.97,2644.26,2641.05,2637.46,2633.27,2629.25,2625.17,2621.84,2618.41,2614.95,2612.47,2610.4,2608.66,2608.42,2608.75,2610.46,2612.71,2614.96,2616.96,2619.48,2622.01,2624.09,2625.65,2626.79,2625.97,2624.09,2621.28,2615.61,2615.96,2612.6,2609.6,2607.12,2604.92,2603.2,2602.35,2601.74,2600.4,2599,2597.51,2596.27,2593.72,2591.19,2587.11,2582.81,2578.74,2575.99,2573.35,2571.27,2569.51,2567.95,2566.4,2565.95,2565.83,2566.79,2567.24,2567.98,2568.49,2568.91,2569.23,2568.92,2568.6,2568.11,2566.62,2564.86,2563.37,2561.94,2560.81,2560.48,2559.82,2558.39,2556.43,2553.89,2550.66,2546.77,2542.06,2536.42,2530.6,2525.34,2519.99,2514.09,2508.01
