1959.36,1957.31,1958.12,1958.96,1959.58,1960.1,1960.28,1960.53,1960.5,1960.61,1960.55,1960.25,1959.61,1959.15,1958.41,1957.98,1957.27,1956.49,1955.62,1957.65,1962.69,1962.29,1961.92,1961.69,1961.31,1961.21,1960.99,1961.14,1961.17,1961.43,1961.31,1957.99,1958.07,1955.12,1955.35,1953.07,1953.41,1953.49,1954.01,1954.56,1954.81,1955.09,1955.51,1955.46,1955.23,1951.42,1951.71,1951.6,1955.37,1955.05,1954.59,1954.22,1953.84,1953.53,1945.29,1944.87,1944.16,1954.7,1953.95,1957.12,1956.18,1951.24,1954.27,1957.24,1955.95,1955.04,1946.48,1942.36,1942.54,1942.71,1942.71,1942.86,1942.98,1943.2,1943.49,1944.07,1944.87,1945.3,1945.42,1950.23,1962.69,1962.49,1962.26,1961.73,1961.59,1961.05,1956.44,1948.38,1948.33,1944.47,1944.59,1944.49,1944.93,1944.72,1944.17,1944.12,1943.7,1943.05,1942.3,1941.27,
1955.59,1956.69,1957.44,1958.29,1959.22,1959.86,1960.2,1960.35,1960.57,1960.63,1960.61,1960.49,1960.02,1959.54,1958.68,1958.23,1957.5,1956.59,1958.81,1963.94,1962.84,1962.45,1962.16,1961.94,1961.59,1961.6,1961.67,1961.6,1961.85,1962.02,1961.9,1958.78,1958.63,1955.51,1952.86,1953.37,1953.59,1953.67,1953.82,1954.34,1954.46,1954.77,1954.98,1954.81,1954.78,1954.97,1955.07,1955.06,1954.78,1954.39,1953.76,1953.1,1952.85,1952.47,1948.17,1943.74,1943.17,1942.39,1957.28,1960.45,1959.86,1958.91,1957.95,1957.11,1955.99,1955.21,1954.98,1943.02,1943.36,1943.6,1943.44,1943.58,1943.73,1943.99,1944.04,1944.4,1945.22,1945.81,1945.86,1946.61,1950.81,1958.68,1962.28,1961.84,1957.34,1956.76,1952.1,1943.91,1943.63,1943.71,1943.7,1943.78,1943.71,1943.6,1943.05,1942.51,1941.94,1941.46,1940.61,1939.58,
1954.32,1955.65,1956.55,1957.43,1958.35,1959.14,1959.62,1960.13,1960.24,1960.5,1960.46,1960.33,1960.11,1959.51,1959.03,1958.44,1957.52,1959.62,1964.76,1963.89,1962.82,1962.63,1962.31,1961.95,1961.75,1961.78,1961.85,1962.06,1959.41,1959.57,1959.32,1956.2,1956.07,1955.65,1952.87,1953.26,1953.69,1953.38,1953.55,1953.8,1953.73,1953.89,1954.14,1954.03,1953.9,1953.82,1953.96,1953.72,1953.63,1953.23,1952.48,1951.82,1951.27,1950.99,1950.71,1950.18,1949.86,1960.71,1956.28,1959.56,1958.88,1958.02,1957.5,1956.91,1956.12,1955.51,1955.53,1943.66,1944.06,1944.19,1944.12,1940.35,1944.13,1944.19,1944.15,1944.49,1945.14,1945.58,1945.73,1946.06,1946.16,1949.8,1949.68,1949.07,1944.81,1944.07,1943.4,1942.93,1942.86,1942.87,1942.78,1942.44,1942.16,1941.68,1941.02,1940.34,1939.87,1938.99,1938.05,1937.13,
1953.58,1954.81,1955.92,1956.86,1957.88,1958.69,1959.14,1959.78,1960.07,1960.4,1960.43,1960.38,1960.17,1959.68,1959.01,1958.49,1957.49,1965.7,1964.82,1963.93,1963.03,1962.74,1962.45,1956.21,1959.01,1959.04,1956.18,1956.31,1953.64,1953.75,1953.66,1953.47,1953.25,1952.8,1952.71,1952.98,1952.92,1952.87,1952.86,1952.91,1952.78,1952.66,1952.74,1952.77,1952.73,1952.57,1952.62,1952.32,1952.16,1951.5,1950.74,1950.17,1949.7,1949.25,1949,1948.61,1948.36,1955.76,1959.37,1947,1958.36,1957.75,1957.29,1956.96,1956.5,1956.23,1956.27,1944.72,1944.76,1945.05,1945.03,1940.79,1940.73,1940.36,1936.2,1940.11,1940.75,1941.15,1945.06,1945.05,1944.95,1944.84,1944.48,1943.93,1943.43,1942.74,1941.78,1941.66,1941.36,1941.39,1941.26,1940.67,1940.02,1939.28,1938.45,1937.8,1936.95,1936.02,1935.19,1934.15,
1953.07,1954.33,1955.51,1956.56,1957.5,1958.15,1958.86,1959.39,1959.95,1960.08,1960.29,1960.26,1960,1959.57,1959.02,1958.56,1966.67,1965.84,1964.97,1964.02,1963.35,1962.92,1953.61,1953.3,1956.14,1962.29,1962.3,1962.11,1962.63,1962.55,1959.33,1956.26,1952.9,1952.48,1952.56,1952.55,1952.53,1952.24,1952.26,1952.19,1951.82,1951.58,1951.67,1951.61,1951.57,1951.34,1951.38,1950.94,1950.64,1949.92,1949.29,1948.48,1948.13,1947.81,1947.6,1947.64,1947.48,1950.74,1946.83,1954.28,1950.07,1957.67,1957.23,1957.17,1956.99,1956.95,1957.15,1945.52,1941.77,1941.71,1941.68,1941.05,1940.64,1940.22,1939.79,1939.61,1939.87,1940.12,1943.6,1943.52,1943.27,1942.72,1942.37,1941.67,1941.26,1940.39,1939.5,1939.38,1939.19,1939.02,1938.5,1937.82,1937.07,1936.23,1935.27,1934.34,1933.47,1932.38,1931.52,1930.56,
1952.76,1953.99,1955.08,1956.01,1956.88,1957.58,1958.06,1958.68,1959.19,1959.56,1959.69,1959.69,1959.54,1959.02,1958.62,1964.1,1966.35,1965.45,1964.64,1963.81,1963.04,1953.9,1953.63,1953.33,1962.1,1962,1962.04,1961.98,1962.14,1959.22,1955.9,1952.77,1952.47,1952.19,1952.09,1952.16,1952.18,1951.82,1951.61,1951.43,1951,1950.87,1950.82,1950.42,1950.49,1950.02,1949.68,1949.4,1948.98,1948.21,1947.41,1946.94,1946.66,1946.27,1946.21,1946.17,1946.34,1946.21,1949.68,1957.44,1957.37,1953.24,1956.9,1957.08,1956.92,1956.95,1957.15,1945.42,1941.53,1941.31,1940.89,1940.19,1939.39,1938.77,1938.19,1937.55,1937.83,1937.98,1941.13,1940.91,1940.64,1940,1939.5,1938.92,1938.41,1937.45,1936.8,1936.39,1936.24,1935.97,1935.68,1934.87,1933.76,1933.06,1931.91,1931.1,1930.03,1924.65,1924.1,1923.37,
1952.39,1953.5,1954.47,1955.36,1956.17,1956.67,1957.22,1957.84,1958.29,1958.54,1958.59,1958.49,1958.08,1957.79,1963.46,1966.05,1964.99,1964.24,1963.62,1962.91,1953.24,1953.27,1953,1961.57,1961.64,1961.67,1961.59,1961.5,1952.79,1952.73,1952.55,1952.2,1952.19,1951.74,1951.41,1951.61,1951.59,1951.3,1950.97,1950.78,1950.17,1949.95,1949.7,1949.36,1949.16,1948.48,1948.19,1947.53,1946.99,1946.5,1945.71,1945.2,1945.01,1944.81,1944.84,1944.99,1945.42,1949.37,1949.38,1953.12,1957.19,1957.21,1949.19,1957.42,1957.29,1957.26,1957.51,1945.56,1945.11,1940.79,1943.99,1939.04,1938.03,1937.02,1936.18,1935.39,1935.26,1935.07,1938.3,1937.97,1937.54,1937.02,1936.57,1936.01,1935.42,1934.58,1933.81,1933.55,1929.46,1929.5,1929.13,1932.11,1926.97,1929.95,1928.89,1927.94,1926.86,1922.22,1921.3,1920.46,
1952.06,1953.18,1954.06,1954.8,1955.43,1955.89,1956.36,1956.71,1957.22,1957.4,1957.29,1957.03,1956.65,1965.46,1964.96,1964.63,1963.68,1962.84,1962.33,1952.95,1952.46,1952.42,1961.3,1960.98,1957.82,1960.99,1957.9,1954.94,1952.16,1951.97,1951.6,1951.56,1951.5,1950.95,1950.78,1950.91,1950.85,1950.47,1950.15,1949.79,1948.98,1948.59,1948.4,1947.93,1947.62,1946.8,1946.1,1945.55,1944.96,1944.4,1943.86,1943.29,1943.16,1942.98,1943.24,1943.58,1944.38,1948.52,1952.53,1948.71,1956.82,1953.01,1953.15,1949.35,1953.24,1953.21,1953.24,1945.04,1944.54,1943.76,1942.95,1941.36,1940.23,1939.22,1937.9,1936.66,1936.36,1936.36,1935.29,1934.74,1934.36,1933.84,1933.59,1933.12,1932.8,1928.16,1927.76,1927.56,1927.14,1927.13,1926.89,1925.86,1924.78,1927.81,1926.88,1925.89,1924.9,1923.92,1919.1,1918.28,
1952.24,1953.12,1953.88,1954.39,1954.99,1955.22,1955.33,1955.69,1956.11,1956.21,1955.8,1955.58,1958.19,1963.8,1963.63,1963.49,1962.63,1962,1955.67,1952.26,1951.82,1960.94,1960.9,1960.54,1957.4,1957.37,1954.42,1951.37,1951.32,1951.28,1950.92,1950.67,1950.69,1950.36,1949.96,1949.97,1949.91,1949.47,1948.99,1948.38,1947.51,1946.93,1946.5,1946.04,1945.42,1944.59,1943.99,1942.96,1942.6,1942.2,1941.6,1941.32,1941.36,1944.35,1944.7,1942.37,1943.32,1951.13,1951.9,1948.08,1952.68,1952.94,1953.29,1953.4,1949.27,1953.28,1948.81,1944.76,1943.81,1942.91,1941.6,1939.67,1938.36,1937.02,1935.58,1934.42,1933.95,1933.62,1932.97,1932.1,1931.89,1931.37,1931.01,1930.89,1930.82,1926.49,1925.88,1926.13,1925.98,1925.88,1925.88,1924.5,1923.4,1926.6,1925.48,1924.6,1923.45,1922.85,1922.06,1921.39,
1952.72,1953.55,1954.25,1954.67,1954.97,1955.02,1954.85,1955.11,1955.39,1955.07,1954.8,1954.2,1959.83,1962.6,1962.45,1962.45,1961.91,1958.4,1955.32,1951.99,1960.83,1960.97,1961.18,1957.72,1957.5,1954.49,1951.32,1951.49,1951.42,1951.05,1950.37,1950.14,1950.07,1949.56,1949.25,1949.04,1948.92,1948.11,1947.59,1946.72,1945.75,1945.12,1944.42,1943.76,1943.12,1941.99,1941.41,1940.58,1940.09,1939.98,1939.5,1939.15,1942.37,1942.57,1939.94,1940.99,1942.26,1943.07,1947.19,1947.37,1952.01,1952.35,1948.81,1952.95,1948.64,1948.17,1943.99,1943.41,1942.5,1941.39,1940.2,1938.08,1936.71,1935.32,1933.87,1932.44,1931.71,1931.45,1930.8,1930.08,1929.93,1929.52,1929.56,1929.37,1929.49,1929.09,1928.87,1928.8,1928.75,1928.91,1928.85,1927.83,1926.77,1925.68,1924.8,1924,1923.19,1922.61,1921.77,1921.19,
1957.49,1958.02,1958.44,1958.8,1958.79,1958.48,1958.46,1958.3,1958.26,1957.89,1957.47,1956.9,1962.54,1965.37,1965.32,1965.58,1965.23,1961.98,1962.1,1964.96,1964.91,1965.36,1965.39,1959.08,1955.8,1951.76,1947.81,1951.63,1951.5,1950.97,1950.08,1949.73,1949.22,1948.88,1948.28,1947.97,1947.57,1946.62,1945.74,1945.26,1944.11,1943.23,1942.35,1941.6,1940.77,1939.74,1939.26,1938.21,1937.75,1937.67,1937.47,1937.46,1940.58,1940.98,1938.52,1939.43,1940.98,1941.96,1946.25,1946.61,1947.35,1947.81,1944.29,1948.27,1947.76,1947.49,1942.91,1942.24,1941.31,1939.96,1938.45,1936.3,1934.93,1933.94,1932.22,1930.69,1930.04,1929.77,1929.22,1928.84,1928.64,1928.75,1928.71,1928.83,1928.94,1928.77,1928.71,1928.98,1925.11,1925.29,1929.2,1928.37,1926.8,1926.11,1925.49,1924.7,1924.01,1923.45,1922.9,1918.64,
1958.38,1958.52,1959.13,1958.96,1958.8,1958.42,1958,1957.65,1957.61,1956.97,1956.32,1958.73,1961.47,1964.48,1964.68,1965.08,1965.08,1964.93,1965.3,1965.31,1965.46,1965.96,1963.04,1959.55,1956.38,1956.4,1956.13,1951.81,1951.43,1951.03,1949.86,1949.09,1948.79,1948.19,1947.5,1947.15,1946.29,1945.28,1944.51,1943.84,1942.42,1941.54,1940.64,1939.71,1938.77,1937.93,1937.14,1936.21,1936,1935.83,1935.98,1938.68,1939.04,1939.45,1937.13,1938,1939.6,1940.27,1940.99,1945.6,1946.11,1946.44,1943.1,1947.12,1946.5,1942.23,1941.61,1940.76,1939.43,1938.18,1936.66,1934.55,1933.51,1932.33,1930.69,1929.22,1928.85,1928.73,1928.24,1928.15,1928.35,1928.38,1928.57,1928.81,1928.92,1928.99,1929.25,1929.31,1929.65,1930.02,1930.13,1929.28,1928.39,1927.82,1927.17,1926.54,1925.93,1925.65,1921.3,1920.92,
1962.72,1963.1,1963.33,1963.17,1962.88,1962.42,1961.84,1961.32,1960.9,1960.53,1959.58,1961.94,1964.7,1967.9,1968.32,1968.9,1969.01,1969.11,1969.51,1969.79,1965.95,1966.58,1966.64,1960.27,1956.81,1956.72,1956.61,1952.2,1951.44,1950.66,1949.44,1948.49,1948.09,1947.35,1946.65,1945.99,1944.94,1943.58,1942.97,1942.3,1941.2,1940.17,1939.14,1938.12,1937.1,1936.27,1935.74,1934.79,1937.37,1937.47,1937.36,1937.44,1937.93,1938.18,1935.56,1936.66,1938.09,1938.9,1939.59,1943.85,1940.77,1941.11,1941.57,1941.5,1940.98,1940.68,1939.93,1939.14,1937.83,1936.72,1935.13,1933.28,1932.21,1931.07,1929.68,1928.6,1927.98,1928.05,1927.91,1927.89,1928.38,1928.23,1928.94,1929.18,1929.59,1929.81,1929.71,1930.23,1930.22,1930.7,1931.09,1930.36,1929.51,1929.1,1928.79,1928.41,1928.18,1928.05,1927.54,1923.36,
1955.6,1955.62,1955.81,1955.51,1954.98,1954.35,1953.58,1952.92,1952.53,1951.86,1951.01,1953.12,1955.85,1959.23,1959.82,1960.69,1960.82,1961.19,1961.57,1962.12,1962.22,1962.77,1959.87,1956.3,1953,1952.73,1952.36,1951.74,1951.05,1950.13,1949.07,1947.74,1947.08,1946.21,1945.23,1944.55,1943.3,1942.28,1941.79,1941.12,1940.01,1938.77,1937.83,1936.75,1935.88,1935.22,1934.75,1933.86,1936.26,1936.14,1936.07,1936.09,1936.45,1936.58,1933.83,1934.75,1935.9,1936.85,1937.3,1937.94,1938.21,1938.75,1939.3,1939.28,1938.81,1938.33,1937.89,1936.97,1935.88,1934.91,1933.61,1931.61,1930.89,1929.9,1928.75,1927.88,1927.64,1927.78,1927.79,1928.08,1928.63,1928.77,1929.18,1929.76,1930.2,1930.56,1930.63,1931.14,1931.51,1931.84,1932.39,1931.86,1931.13,1931.11,1930.63,1930.3,1930.39,1930.22,1929.94,1925.8,
1960.02,1960.32,1960.5,1960.04,1959.55,1958.72,1957.76,1956.97,1956.5,1955.8,1954.95,1957.11,1959.63,1959.87,1963.61,1964.53,1964.98,1965.1,1965.67,1966.02,1966.19,1966.7,1963.86,1960.22,1956.88,1956.39,1952.23,1955.52,1950.52,1949.52,1948.03,1946.89,1946.04,1945.16,1944.03,1943.25,1942.33,1940.96,1940.59,1940.25,1939.21,1938.38,1937.41,1936.47,1935.53,1935.16,1934.75,1933.94,1933.14,1935.97,1936.06,1935.63,1932.92,1932.84,1932.55,1933.36,1934.45,1934.74,1935.41,1935.86,1936.3,1936.63,1937.25,1937.38,1936.93,1936.57,1936.4,1935.49,1934.66,1933.83,1932.36,1930.96,1930.31,1929.62,1928.65,1927.93,1927.92,1928.14,1928.39,1929.07,1929.82,1930.19,1930.66,1931.22,1931.81,1931.97,1932.41,1932.88,1933.29,1933.56,1933.99,1933.63,1933.06,1932.89,1932.51,1932.01,1932.17,1932.3,1928.49,1928.05,
1959.99,1960.45,1960.69,1960.45,1959.81,1959.36,1958.3,1957.38,1956.71,1956.19,1955,1954.17,1959.77,1960.09,1960.8,1961.62,1964.99,1965.11,1965.59,1965.9,1966.04,1966.43,1966.17,1965.53,1955.89,1955.44,1954.94,1950.28,1949.28,1947.93,1946.38,1945.4,1944.54,1943.66,1942.91,1941.94,1940.75,1940.05,1939.86,1939.65,1938.66,1937.89,1937.15,1936.42,1935.62,1935.43,1935.11,1934.12,1933.45,1936.2,1935.81,1935.31,1932.19,1931.85,1931.24,1931.96,1932.7,1936.43,1937.02,1933.58,1934,1934.24,1934.81,1934.83,1934.45,1934.32,1934.33,1933.72,1932.92,1932.42,1931.26,1930.08,1929.77,1929.19,1928.52,1928.23,1928.46,1928.73,1929.08,1929.81,1930.59,1930.82,1931.33,1932.07,1932.51,1932.86,1933.12,1933.77,1934.31,1934.36,1934.78,1934.45,1934.01,1933.9,1933.58,1933.28,1933.61,1933.64,1933.57,1929.8,
1964.14,1964.64,1964.83,1964.54,1963.93,1963.48,1962.25,1961.43,1960.91,1960,1958.89,1958.02,1957.53,1963.72,1964.48,1968.38,1968.6,1968.51,1969.01,1969.3,1969.27,1969.48,1966.05,1962.17,1961.26,1963.8,1959.24,1951.33,1950.31,1948.89,1944.37,1943.36,1942.73,1941.98,1941.43,1940.75,1939.87,1939.18,1939.25,1939.45,1938.82,1938.18,1937.75,1937.24,1936.54,1936.55,1936.25,1935.56,1934.73,1937.27,1936.93,1935.96,1935.58,1934.83,1930.94,1931.4,1931.85,1931.96,1935.19,1932.21,1932.24,1932.24,1932.56,1932.84,1932.22,1932.22,1932.28,1931.87,1931.67,1931.36,1930.58,1929.81,1929.69,1929.34,1928.77,1928.61,1928.78,1929.31,1929.8,1930.66,1931.34,1931.67,1932.24,1932.96,1933.24,1933.6,1933.81,1934.49,1934.91,1935.17,1935.29,1935.02,1934.74,1934.55,1934.18,1933.85,1933.96,1934.11,1934.25,1934.48,
1963.84,1964.16,1964.49,1964.27,1963.62,1963.18,1961.93,1961.19,1960.42,1959.86,1958.29,1957.33,1959.91,1963.02,1963.62,1967.17,1967.31,1966.92,1967.22,1967.55,1967.45,1967.43,1964.05,1959.92,1961.83,1958.09,1949.64,1951.83,1947.8,1946.42,1944.82,1941.08,1940.7,1940.3,1939.64,1939.41,1938.92,1938.6,1938.82,1939.4,1939.04,1938.64,1938.57,1938.15,1937.87,1938.07,1937.73,1937.27,1936.67,1939.2,1938.65,1937.85,1937,1936.08,1934.99,1932.04,1932.14,1931.94,1931.78,1931.78,1931.3,1931.32,1931.46,1931.34,1931,1930.78,1930.89,1930.68,1930.55,1930.41,1929.93,1929.41,1929.21,1928.95,1928.59,1928.66,1928.89,1929.54,1930.16,1931.11,1931.7,1932.02,1932.76,1933.23,1933.54,1933.9,1934.23,1934.65,1934.96,1935.41,1935.1,1934.94,1934.57,1934.42,1933.68,1933.37,1933.57,1933.76,1933.88,1934.23,
1962.73,1963.21,1963.48,1963.33,1962.64,1962.07,1960.86,1960.05,1959.47,1958.86,1957.42,1956.36,1958.77,1958.71,1961.95,1962.69,1965.52,1964.96,1965.01,1965.26,1964.97,1964.8,1961.25,1956.05,1951.92,1947.3,1946.78,1945.83,1945.15,1943.7,1942.16,1938.48,1938.12,1938.14,1937.92,1937.89,1937.92,1937.94,1938.38,1939.05,1939.28,1939.26,1939.45,1939.42,1939.38,1939.74,1939.66,1939.47,1939.05,1941.81,1941.11,1940.42,1939.49,1938.31,1936.95,1934.11,1933.75,1933.37,1933.17,1932.97,1932.42,1931.81,1931.68,1931.15,1930.41,1930.57,1930.74,1930.68,1930.54,1930.57,1930.02,1929.71,1929.29,1928.89,1928.54,1928.76,1929.06,1929.61,1930.14,1931.37,1931.89,1932.28,1932.91,1933.32,1933.54,1934.05,1934.57,1934.95,1935.18,1935.01,1934.66,1934.49,1933.94,1933.53,1932.95,1932.73,1932.61,1932.78,1932.86,1929.62,
1957.4,1958.04,1958.34,1958.16,1957.58,1956.92,1955.69,1954.74,1954.57,1953.83,1952.31,1951.37,1953.61,1953.38,1953.36,1956.95,1959.78,1959.06,1962.86,1962.77,1962.26,1962.05,1954.12,1948.87,1947.59,1946.94,1946.6,1942.74,1941.72,1940.55,1939.2,1935.55,1935.67,1935.91,1935.92,1936.23,1936.66,1937,1937.92,1938.97,1939.26,1939.59,1940.11,1940.46,1940.8,1941.47,1941.74,1941.55,1941.59,1944.07,1943.38,1942.79,1942.13,1941.04,1939.99,1937.15,1939.73,1939.25,1938.68,1935.13,1934.02,1933.04,1932.85,1931.99,1931.12,1930.85,1930.98,1931.08,1930.73,1930.84,1930.42,1929.89,1929.58,1929.29,1928.81,1928.93,1929.24,1929.68,1930.37,1931.56,1932.22,1932.22,1932.92,1933.37,1933.61,1933.96,1934.27,1934.61,1934.76,1934.75,1934.07,1933.72,1933.1,1932.25,1931.65,1931.07,1931.07,1931.15,1931.38,1928.2,
1955.79,1956.18,1956.45,1956.29,1955.8,1955.29,1954.1,1953.23,1952.82,1952.17,1953.93,1953.04,1952.61,1955.2,1955.16,1958.69,1958.05,1957.15,1956.92,1956.41,1955.8,1955.33,1951.23,1945.8,1944.41,1943.42,1943,1942.11,1941.15,1937.05,1935.79,1932.74,1932.96,1933.22,1933.92,1934.49,1935.32,1936.14,1937.46,1938.69,1939.48,1939.91,1940.91,1941.46,1942.17,1943.03,1943.45,1943.71,1946.76,1946.59,1946.22,1945.5,1945.14,1947.23,1946.2,1943.55,1943.13,1945.44,1944.87,1941.17,1936.56,1935.62,1934.64,1933.71,1932.34,1932.06,1932.08,1932.02,1931.6,1931.74,1930.95,1930.63,1930.42,1929.73,1929.06,1929.12,1929.66,1929.83,1930.41,1931.58,1932.07,1932.3,1933,1933.43,1933.4,1933.67,1933.75,1934.13,1934.07,1933.83,1933.03,1932.3,1931.61,1930.69,1929.77,1928.86,1929.1,1929.09,1929.42,1930.03,
1953.96,1954.26,1954.39,1954.45,1954.07,1953.49,1952.43,1951.78,1954.72,1954.02,1952.88,1951.96,1954.72,1957.27,1957.14,1957.35,1956.77,1955.52,1955.05,1954.46,1953.62,1952.91,1951.41,1945.9,1941.41,1940.17,1939.53,1938.4,1937.66,1933.48,1932.35,1932.64,1929.93,1930.79,1931.54,1932.62,1933.51,1934.96,1936.34,1938.03,1939.07,1939.93,1941.22,1941.99,1943.08,1944.28,1944.75,1948.42,1948.68,1948.73,1948.49,1948.02,1950.72,1950.11,1949.29,1949.61,1949.34,1948.48,1947.94,1944.03,1939.38,1937.74,1936.79,1935.6,1933.82,1933.3,1933.1,1932.83,1932.54,1932.52,1931.95,1931.48,1930.8,1930.3,1929.29,1929.31,1929.58,1929.63,1930.42,1931.42,1931.85,1932.03,1932.77,1933.08,1932.87,1933.03,1933.06,1933.06,1932.84,1932.65,1931.76,1931.01,1929.95,1928.9,1927.76,1926.92,1927.14,1927.22,1927.66,1928.52,
1948.56,1948.83,1949.04,1948.69,1948.61,1948.02,1946.98,1949.71,1949.69,1949.14,1948.43,1947.57,1953.21,1952.82,1952.38,1952.62,1955.85,1954.53,1949.68,1952.95,1943.89,1951.02,1949.6,1940.68,1938.79,1937.46,1936.76,1935.4,1934.61,1933.89,1929.66,1929.84,1927.42,1928.24,1929.15,1930.47,1932.07,1933.57,1935.03,1937.12,1938.47,1939.6,1941.1,1942.35,1943.47,1945.12,1945.72,1949.74,1950.26,1950.54,1950.37,1953.26,1957.13,1956.74,1956.17,1952.55,1952.53,1952,1951.35,1950.68,1949.15,1944.19,1939.69,1938.06,1936.24,1935.42,1934.75,1934.02,1933.59,1933.49,1932.9,1932.13,1931.47,1930.62,1929.59,1929.7,1929.94,1929.91,1930.65,1931.68,1932,1932.18,1932.75,1935.97,1935.67,1932.85,1932.69,1932.52,1932.09,1931.65,1930.78,1929.77,1928.96,1927.71,1926.32,1925.5,1925.61,1925.85,1926.37,1927.1,
1947.44,1947.61,1947.67,1947.3,1947.17,1946.73,1945.97,1945.8,1948.91,1948.83,1948.24,1950.74,1950.24,1953.05,1952.75,1956.62,1951.87,1954.41,1953.69,1944.48,1947.21,1943.14,1941.46,1939.58,1937.4,1935.81,1934.65,1933.46,1932.62,1928.78,1927.71,1924.97,1925.6,1926.59,1927.65,1928.99,1930.66,1932.19,1933.7,1935.81,1937.26,1938.57,1940.23,1941.83,1943.56,1945.27,1946.25,1947.36,1951.2,1955.96,1956.04,1959.39,1955.7,1955.32,1955.19,1955.54,1955.68,1952.29,1954.79,1954.28,1952.85,1951.07,1946.28,1944.42,1939.06,1938.01,1937,1935.98,1935.23,1934.63,1933.84,1933.12,1932.43,1931.41,1929.99,1929.95,1930.17,1930.24,1930.76,1931.51,1931.83,1931.96,1935.66,1935.76,1935.43,1932.54,1932.14,1931.66,1931.14,1930.55,1929.45,1928.43,1927.52,1926.35,1924.95,1924.18,1924.42,1924.64,1925.21,1925.97,
1950.67,1950.82,1950.72,1950.44,1950.06,1945.95,1945.29,1945.6,1948.89,1948.91,1948.53,1948.09,1950.88,1953.68,1953.24,1953.43,1952.51,1951.13,1942.46,1945.27,1947.93,1943.86,1942.03,1937.05,1934.6,1932.8,1931.55,1930.05,1925.86,1925.17,1924.15,1924.02,1924.84,1925.67,1926.74,1927.94,1929.49,1930.91,1932.64,1934.68,1935.96,1937.42,1939.53,1941.12,1943.11,1945.19,1946.58,1947.86,1956.1,1956.94,1960.54,1961.03,1961.57,1961.6,1958.65,1956.22,1956.49,1962.24,1958.73,1961.32,1959.84,1958.14,1956.58,1951.52,1941.88,1940.33,1939.21,1937.9,1937.03,1936.21,1935.33,1934.47,1933.67,1932.59,1931.27,1931.07,1931.22,1931.14,1931.41,1932.1,1932.31,1932.36,1935.68,1936.01,1935.58,1935.52,1932.01,1931.21,1930.8,1929.73,1928.8,1927.52,1926.39,1925.04,1923.74,1923.1,1923.37,1923.86,1924.35,1924.93,
1950.29,1950.42,1950.04,1949.64,1949.49,1945.37,1945.01,1945.27,1946.05,1946.19,1946.06,1945.86,1951.71,1951.31,1954.15,1954.14,1953.23,1948.13,1947.42,1950.04,1948.84,1944.7,1943.21,1937.9,1935.32,1933.75,1932.26,1930.75,1926.36,1925.39,1924.26,1923.79,1924.55,1925.17,1926.24,1927.39,1928.55,1929.83,1931.33,1933.53,1934.63,1936.06,1937.97,1940.15,1942.1,1944.63,1946.2,1951.73,1955.93,1960.33,1961.17,1961.92,1962.62,1960.1,1960.17,1957.95,1961.21,1961.03,1963.74,1960.26,1961.96,1957.32,1958.87,1959.81,1947.23,1942.27,1940.74,1939.27,1938.02,1937.57,1936.42,1935.58,1934.53,1933.77,1932.04,1932.08,1932.3,1931.89,1932.28,1932.83,1932.89,1933,1936.38,1936.59,1933.16,1932.82,1932.3,1931.35,1930.26,1929.55,1928.09,1927.21,1925.78,1924.42,1923.26,1922.7,1922.95,1923.58,1924.36,1924.89,
1949.82,1949.87,1949.27,1948.74,1948.87,1945.05,1944.7,1945.27,1946.13,1946.37,1946.45,1946.3,1946.08,1948.93,1951.7,1945.44,1947.6,1949.58,1946.09,1944.97,1943.75,1942.9,1941.56,1939.31,1936.86,1935.11,1933.52,1931.81,1927.6,1926.54,1924.94,1924.7,1925.13,1925.6,1925.93,1927.22,1928.11,1929.21,1930.5,1932.16,1933.43,1934.77,1936.78,1938.83,1941.17,1943.76,1945.58,1951.29,1952.89,1957.12,1958.18,1962.01,1959.93,1960.52,1960.82,1958.64,1958.94,1958.85,1958.58,1958.25,1956.99,1955.7,1954.2,1955.82,1949.2,1947.32,1942.8,1940.79,1939.45,1938.93,1937.84,1936.75,1935.77,1934.89,1933.47,1933.34,1933.65,1933.3,1933.31,1933.78,1933.47,1933.63,1934.11,1937.38,1933.45,1933.32,1932.28,1931.51,1930.12,1929.23,1928.14,1927.18,1925.97,1924.7,1923.76,1923.39,1923.56,1924.19,1925.1,1925.7,
1950.54,1950.53,1950.15,1949.37,1949.58,1945.71,1945.46,1946.21,1947.02,1947.12,1946.97,1946.92,1946.94,1946.52,1946.1,1945.9,1945.13,1944.19,1943.8,1942.62,1941.4,1940.69,1942.37,1940.33,1938.13,1936.36,1935.05,1930.36,1928.89,1927.94,1926.43,1925.63,1925.97,1925.91,1926.55,1927.31,1927.93,1928.64,1929.88,1931.49,1932.45,1933.85,1935.59,1937.8,1940.09,1942.75,1944.67,1950.12,1951.76,1956.16,1954.47,1955.79,1962.66,1963.3,1957.86,1958.74,1962.2,1959.06,1958.76,1958.56,1957.65,1956.51,1955.26,1953.67,1947.33,1948.48,1943.86,1942.09,1940.7,1940.13,1939.05,1938.09,1936.92,1936.15,1934.73,1934.58,1934.55,1934.36,1934.08,1934.38,1934.25,1934.14,1934.45,1934.43,1933.39,1933.17,1932.31,1931.13,1930.07,1929.24,1928.3,1927.21,1926.39,1925.28,1924.68,1924.34,1924.91,1925.51,1926.48,1926.8,
1947.75,1947.44,1947.05,1946.48,1946.47,1946.5,1946.36,1946.84,1947.43,1947.32,1947.46,1950.25,1952.95,1946.56,1946.19,1949.04,1950.97,1947.33,1946.72,1945.76,1944.87,1943.98,1942.92,1943.91,1941.64,1940.22,1938.94,1934.39,1933.28,1929.44,1927.73,1926.92,1927.02,1927.14,1927.32,1927.96,1928.25,1928.7,1929.8,1931.21,1931.87,1933.17,1934.9,1936.8,1938.94,1941.72,1943.46,1949.05,1950.72,1955.16,1953.57,1960.59,1960.65,1955.56,1956.2,1954.42,1957.88,1960.88,1960.99,1957.85,1960.02,1956.11,1955.33,1959.66,1957.65,1955.84,1953.91,1946.33,1942.35,1941.59,1940.41,1939.53,1938.35,1937.39,1936,1935.88,1935.54,1935.05,1934.53,1934.53,1934.02,1934.06,1934.19,1933.95,1932.86,1932.51,1931.74,1930.41,1929.59,1928.56,1927.94,1927.06,1926.43,1925.94,1925.38,1925.25,1926.2,1926.94,1927.79,1927.89,
1952.96,1953.03,1952.38,1951.87,1951.75,1951.69,1947.27,1947.7,1947.97,1948.03,1947.67,1947.22,1946.72,1946.14,1948.61,1948.22,1944.54,1943.45,1943.05,1944.81,1947.15,1943.87,1945.87,1944.4,1940.01,1938.66,1937.42,1936.2,1937.47,1933.88,1929.72,1928.83,1928.69,1928.22,1928.5,1928.58,1928.83,1929.02,1929.79,1931.2,1931.54,1932.85,1934.47,1935.97,1938.19,1940.68,1946.65,1948,1949.5,1950.99,1958.05,1959.37,1954.77,1958.2,1958.85,1957.23,1963.95,1964.03,1964.24,1961.35,1963.61,1956.99,1962.35,1961.05,1962.15,1960.63,1949.27,1944.87,1943.64,1945.55,1941.83,1940.57,1939.54,1938.48,1937.08,1936.6,1936.33,1935.05,1934.32,1934.4,1933.6,1933.14,1933.06,1932.89,1931.78,1931.32,1930.55,1929.44,1928.64,1927.71,1927.35,1926.86,1926.44,1926.5,1926.1,1926.46,1927.27,1927.9,1928.77,1928.85,
1958.21,1958.15,1957.67,1957.04,1953.05,1952.56,1952.06,1952.15,1952.14,1947.9,1947.3,1949.57,1948.82,1947.87,1949.96,1946.7,1945.84,1945.2,1944.89,1946.79,1943.33,1948.36,1945.6,1941.96,1940.52,1942.22,1938.29,1940,1939.03,1935.74,1934.16,1930.53,1930.39,1930.07,1929.94,1929.92,1929.52,1929.51,1930.25,1931.2,1931.75,1932.91,1934.33,1935.69,1937.46,1943.95,1945.57,1950.88,1952.32,1956.51,1960.52,1961.84,1959.89,1960.69,1964.55,1962.66,1966.35,1969.62,1970.08,1964.55,1966.88,1963.77,1969.21,1967.98,1966.48,1965.4,1960.89,1956.67,1951.55,1948.19,1947.09,1948.5,1947.28,1945.92,1938.03,1937.21,1936.76,1935.34,1934.61,1933.98,1933.37,1932.74,1932.57,1932.21,1931.15,1930.68,1929.89,1929.04,1928.34,1927.69,1927.31,1927.03,1927.19,1927.24,1927.4,1927.67,1928.41,1929.23,1929.79,1929.77,
1957.78,1955.13,1954.4,1953.81,1953.54,1953.14,1952.25,1952.1,1951.68,1951.02,1946.35,1945.18,1944.17,1943.07,1942.17,1942.05,1941.15,1940.61,1943.31,1945.31,1941.95,1942.07,1942.21,1941.62,1937.67,1939.78,1939.09,1938.16,1937.63,1937.06,1938.61,1932.29,1931.99,1931.56,1931.28,1931.38,1930.97,1930.82,1931.16,1932.36,1932.67,1933.68,1934.98,1939.99,1941.24,1943.46,1944.83,1946.15,1947.51,1951.34,1949.48,1956.13,1954.14,1957.7,1961.52,1959.87,1963.35,1958.17,1958.66,1959.17,1958.97,1959.18,1956.23,1955.59,1954.46,1959.08,1955.09,1953.74,1952.8,1949.55,1948.34,1947.03,1945.83,1946.92,1942.92,1937.81,1937.03,1935.54,1934.38,1933.61,1932.68,1932.17,1931.89,1931.09,1932.9,1929.88,1929.24,1928.54,1928.14,1927.87,1927.64,1927.48,1927.55,1928,1928.34,1928.53,1929.12,1929.62,1930.34,1930.19,
1962.37,1962.17,1961.67,1960.91,1960.37,1959.75,1954.76,1951.44,1950.55,1949.84,1944.66,1943.46,1945.21,1944,1943.16,1942.96,1942.16,1941.78,1941.83,1944.07,1946.39,1941.46,1944.36,1943.9,1943.36,1942.56,1942.25,1941.52,1938.29,1940.75,1939.6,1938.52,1932.92,1932.64,1932.3,1932.1,1931.87,1931.74,1932.34,1932.97,1933.64,1934.71,1935.88,1936.61,1941.66,1947.22,1948.43,1949.08,1953.1,1953.85,1957.39,1958.39,1961.87,1962.32,1963.11,1961.75,1965.15,1965.89,1963.79,1967.51,1964.67,1962.3,1968.52,1967.99,1967.19,1963.69,1962.71,1961.39,1960.6,1957.36,1956.04,1957.21,1955.87,1954.31,1952.66,1942.32,1937.24,1935.37,1934.2,1933.36,1937.54,1936.8,1933.97,1933.11,1932.11,1931.8,1928.7,1928.2,1927.89,1927.82,1928.01,1928.04,1924.56,1928.67,1928.89,1929.4,1929.76,1930.27,1930.58,1930.24,
1971.22,1970.82,1970.17,1969.17,1964.63,1959.61,1958.48,1950.93,1949.77,1948.51,1943.16,1941.61,1943.33,1941.85,1941.35,1941.2,1940.8,1940.6,1946.07,1946.03,1940.66,1943.89,1946.72,1943.89,1943.5,1943.07,1942.78,1939.44,1941.81,1941.56,1940.36,1939.27,1933.77,1933.14,1933.17,1933.09,1932.88,1932.82,1933.34,1934.08,1935.01,1935.92,1936.75,1945.21,1953.86,1959.12,1959.83,1960.33,1961.05,1964.27,1967.51,1970.83,1971.37,1971.9,1972.41,1971.01,1969.02,1972.77,1973.93,1972.02,1975.2,1973.25,1974.03,1973.84,1973.5,1978.6,1978.15,1974.2,1973.51,1972.87,1971.58,1969.9,1968.46,1966.84,1964.89,1960.93,1944.82,1935.15,1933.62,1935.41,1936.93,1936.07,1935.78,1934.85,1933.96,1933.75,1931.04,1928.16,1928.02,1928.15,1928.73,1928.76,1925.19,1929.57,1929.89,1930.22,1930.5,1930.7,1930.76,1930.17,
1975.87,1971.12,1970.35,1969.36,1964.63,1963.3,1955.01,1949.95,1948.48,1947.15,1941.79,1940.22,1941.78,1940.58,1939.89,1942.54,1942.36,1942.36,1945.58,1940.26,1942.73,1943.74,1944.29,1944.31,1944.24,1943.98,1943.92,1943.22,1942.74,1942.48,1941.46,1935.12,1934.7,1934.23,1933.95,1933.94,1933.67,1933.8,1934.39,1935.23,1935.9,1936.73,1949.7,1957.96,1958.54,1959.33,1959.52,1959.5,1959.87,1962.99,1968.66,1968.98,1969.09,1969.25,1970.16,1965.62,1972.35,1970.75,1974.82,1973.4,1970.9,1972.36,1970.36,1970.77,1973.78,1971,1975.89,1975.16,1974.39,1973.82,1972.47,1970.89,1969.23,1967.31,1965.23,1963.61,1959.63,1938.78,1935.87,1937.42,1936.28,1935.21,1934.72,1934.04,1933.45,1933.29,1933.03,1927.89,1928.11,1928.35,1929.02,1929.05,1929.59,1930.15,1930.45,1930.46,1930.62,1931.04,1930.87,1930.03,
1976.48,1975.79,1974.88,1973.72,1964.7,1960.37,1954.55,1949.27,1947.56,1942.06,1940.47,1938.91,1937.74,1936.83,1935.99,1938.78,1938.68,1941.93,1940.06,1942.92,1943.14,1944.08,1944.85,1945.21,1945.13,1945.03,1944.61,1944.11,1943.94,1943.45,1939.99,1938.92,1935.75,1935.31,1935.14,1935.07,1934.74,1934.87,1935.45,1940.28,1945.02,1957.96,1958.49,1958.67,1958.87,1959.22,1959.34,1958.88,1958.85,1961.31,1966.73,1966.81,1966.65,1966.91,1967.73,1960.34,1969.94,1965.72,1972.69,1971.17,1969.33,1970.78,1974.81,1975.32,1975.55,1975.88,1975.8,1975.22,1975.03,1974.33,1972.9,1971.26,1969.77,1967.79,1965.42,1963.75,1962.04,1955.83,1938.2,1937.2,1935.66,1934.58,1934.25,1933.42,1932.78,1932.84,1932.57,1927.71,1928.17,1928.48,1929.38,1929.48,1929.84,1930.5,1926.83,1930.89,1930.92,1930.73,1930.53,1929.49,
1976.47,1975.51,1970.46,1969.06,1961.45,1959.75,1953.69,1948.09,1942.38,1940.82,1939.49,1938.06,1939.83,1939.05,1938.57,1938.83,1941.76,1942.23,1940.45,1946.22,1946.67,1945.09,1945.83,1946.21,1943.66,1946.33,1945.8,1945.45,1945,1942.14,1941.24,1940.2,1937.1,1936.35,1936.1,1936.18,1936.13,1936.28,1944.77,1949.34,1957.78,1958.42,1959.27,1959.28,1959.57,1959.42,1959.07,1958.22,1957.85,1960.01,1962.13,1964.74,1961.53,1964.37,1965.19,1963.45,1967.36,1963.28,1970.78,1971.96,1970.52,1972.39,1973.76,1977.1,1978.02,1978.46,1975.65,1975.56,1975.29,1974.73,1973.56,1971.8,1970.12,1968.19,1965.83,1963.87,1962.34,1957.62,1951.85,1937.25,1935.75,1934.59,1933.81,1933.14,1932.84,1932.51,1932.61,1927.58,1928,1928.66,1929.52,1929.69,1930.16,1930.42,1930.63,1930.75,1930.86,1930.79,1930.31,1929.21,
1976.28,1971.56,1970.33,1966.42,1963.84,1959.44,1949.35,1943.89,1942.05,1940.63,1939.28,1938.1,1937.17,1939.47,1939.2,1939.67,1939.96,1940.67,1946.98,1947.44,1945.12,1946.32,1947.09,1944.72,1947.55,1947.49,1947.2,1946.61,1943.62,1943.26,1942.55,1939.1,1938.59,1937.67,1937.54,1937.56,1937.5,1945.67,1950.06,1958.59,1958.94,1959.57,1959.96,1959.82,1960.06,1959.61,1959.04,1957.94,1956.99,1955.85,1957.81,1957.35,1962.21,1962.29,1962.93,1958.24,1965.08,1960.95,1968.16,1969.79,1968.83,1970.75,1972.07,1973.33,1973.86,1974.72,1972.38,1972.63,1975.01,1971.84,1973.38,1971.87,1970.37,1968.33,1965.93,1963.88,1962.26,1957.62,1955.97,1946.47,1935.62,1934.55,1933.68,1932.98,1932.63,1930,1930.07,1927.51,1928,1928.81,1929.55,1929.87,1930.09,1930.42,1930.43,1930.55,1930.81,1930.48,1930,1928.6,
1976.13,1971.16,1967.61,1966.16,1960.98,1955.38,1945.45,1943.92,1942.16,1940.91,1939.78,1938.66,1937.95,1940.59,1940.41,1940.59,1941.02,1944.5,1948.33,1948.82,1946.47,1950.48,1942.83,1948.46,1948.67,1948.56,1948.15,1942.16,1944.53,1946.98,1943.49,1939.98,1939.53,1938.69,1938.59,1938.67,1950.31,1954.36,1954.69,1958.97,1959.38,1959.73,1960.05,1959.75,1959.62,1958.96,1958.07,1956.67,1955.73,1954.16,1955.73,1954.69,1956.84,1959.3,1960.2,1955.42,1962.46,1958.52,1963.02,1964.69,1966.53,1968.66,1970.38,1971.49,1969.62,1970.54,1968.48,1968.84,1971.62,1968.6,1970.25,1968.79,1969.84,1967.95,1965.82,1958.11,1956.72,1954.91,1949.38,1947.97,1943.75,1934.53,1933.57,1932.81,1932.72,1932.53,1929.84,1927.35,1927.63,1928.46,1929.36,1929.51,1929.59,1929.83,1929.77,1930.12,1930.04,1929.91,1929.46,1928.37,
1969.13,1964.16,1959.23,1958.08,1952.92,1947.43,1945.6,1944.23,1942.7,1941.56,1940.68,1939.74,1939.2,1938.88,1941.75,1942.18,1939.47,1940.14,1946.82,1947.53,1950.88,1943.33,1949.28,1949.39,1949.53,1949.41,1943.5,1942.82,1942.67,1942.27,1941.7,1941.03,1940.71,1943.64,1943.41,1951.21,1955.03,1954.79,1955,1958.99,1959.03,1959.6,1959.76,1959.58,1959.05,1958.24,1957.08,1955.59,1954.26,1952.24,1950.88,1952.59,1951.74,1951.41,1955.06,1950.5,1957.13,1958.76,1957.74,1959.43,1964.2,1966.39,1968.03,1963.85,1967.84,1968.79,1966.83,1967.68,1967.78,1967.57,1966.68,1965.38,1964.12,1962.41,1960.35,1957.98,1956.44,1954.83,1949.14,1947.67,1951.47,1934.08,1933.02,1929.62,1929.3,1929.17,1929.01,1926.46,1927.05,1927.67,1928.56,1928.52,1928.72,1928.81,1928.8,1928.83,1928.93,1925.18,1924.9,1923.84,
1960.63,1955.94,1955.08,1949.93,1948.79,1947.58,1946.04,1944.69,1943.43,1942.31,1941.53,1940.73,1940.33,1939.9,1939.89,1940.35,1940.41,1941.07,1941.98,1948.32,1948.32,1949.5,1949.85,1949.92,1950.01,1947.04,1946.56,1943.3,1942.99,1945.46,1942.23,1941.78,1941.19,1944.35,1952.02,1947.97,1951.51,1951.11,1951.09,1950.73,1950.75,1950.84,1950.94,1950.7,1950.24,1949.09,1947.93,1946.24,1944.69,1942.82,1941.08,1939.66,1938.72,1941.4,1944.65,1940.04,1947.02,1948.6,1944.65,1946.31,1951.23,1950.57,1952.28,1953.72,1955,1956.4,1957.1,1958.25,1958.32,1958.5,1957.77,1956.74,1955.42,1953.82,1951.73,1949.61,1948.32,1946.66,1944.98,1943.48,1944.53,1935.17,1930.02,1929.16,1928.61,1928.12,1925.5,1925.41,1925.82,1926.54,1927.18,1927.27,1927.36,1927.35,1927.32,1927.41,1927.95,1927.73,1923.44,1919.2,
1963.89,1955.31,1950.38,1949.51,1948.5,1947.47,1946.11,1945.24,1943.99,1942.97,1942.36,1941.41,1941.09,1940.82,1940.59,1940.9,1943.6,1944.08,1944.99,1945.28,1948.43,1946.47,1946.61,1946.55,1943.78,1943.87,1943.02,1942.7,1942.59,1942.37,1941.97,1941.61,1941.25,1948.48,1952.26,1952.19,1955.6,1954.92,1954.57,1954.17,1957.8,1957.95,1957.84,1957.52,1957.08,1955.74,1954.56,1952.8,1951.14,1949.21,1947.44,1945.84,1944.76,1944.2,1944.96,1945.9,1947.25,1948.8,1950.17,1951.65,1954.19,1956.08,1957.82,1959.04,1960.75,1962.11,1963.19,1964.3,1964.77,1964.74,1964.44,1963.43,1962.33,1960.95,1959.31,1957.24,1951.73,1950.38,1948.64,1949.85,1944.04,1934.35,1932.95,1925.18,1924.67,1923.96,1923.52,1923.54,1923.62,1924.2,1925.03,1925.02,1925.14,1925.27,1925.37,1925.59,1925.85,1926.04,1925.81,1921.81,
1954.56,1954.21,1949.49,1948.59,1947.94,1946.97,1945.76,1945.11,1944.21,1943.41,1942.85,1942.03,1941.59,1941.23,1940.99,1940.86,1940.35,1940.34,1940.89,1947.26,1947.44,1942.27,1945.56,1945.11,1941.97,1942.08,1941.49,1941.41,1941.31,1941.43,1941.13,1941.08,1940.9,1948.17,1947.91,1947.67,1947.08,1950.08,1949.57,1948.93,1948.48,1948.49,1948.01,1947.65,1947.26,1946.06,1944.63,1942.92,1941.17,1939.35,1937.68,1936.07,1935.14,1934.66,1935.34,1936.36,1937.62,1938.96,1940.22,1941.71,1943.9,1945.77,1947.4,1948.85,1950.43,1951.71,1952.71,1953.83,1954.69,1954.78,1954.62,1954.02,1953.08,1951.96,1950.55,1948.77,1947.19,1945.92,1944.44,1942.71,1935.72,1933.95,1932.63,1927.32,1923.62,1922.53,1921.87,1921.52,1921.25,1921.86,1922.46,1922.55,1922.71,1922.79,1922.96,1923.17,1923.88,1924.37,1924.48,1924.51,
1953,1948.81,1948.28,1947.46,1946.89,1946.26,1945.42,1944.93,1944.34,1943.87,1943.27,1942.56,1941.9,1941.19,1940.85,1940.16,1939.33,1939.11,1942.41,1942.49,1942.66,1940.05,1940.06,1939.63,1939.64,1939.58,1939.25,1939.03,1939.38,1939.6,1939.61,1939.64,1939.66,1947.23,1950.98,1950.66,1950.22,1949.05,1952.22,1951.33,1946.68,1946.21,1945.8,1945.23,1944.8,1943.71,1942.35,1940.8,1939.13,1937.73,1936.2,1934.7,1933.91,1933.67,1933.97,1934.88,1936.07,1937.42,1938.52,1939.81,1941.71,1943.47,1944.84,1946.13,1947.63,1948.85,1946.28,1947.6,1952.3,1952.51,1952.59,1952.06,1951.39,1950.54,1949.07,1947.47,1946.34,1945.39,1943.9,1938.06,1932.33,1930.65,1929.15,1923.74,1922.59,1921.1,1920.05,1919.57,1919.31,1919.63,1920.11,1920,1920.17,1920.6,1920.8,1921.25,1922.2,1922.69,1923.12,1923.01,
1947.35,1947.52,1947.26,1946.67,1946.22,1945.65,1945.14,1944.95,1944.38,1944.07,1943.38,1942.59,1941.62,1941.11,1940.09,1939.39,1937.94,1937.4,1940.58,1940.55,1940.22,1940.42,1940.38,1936.18,1936.21,1936.26,1936.14,1936.32,1936.73,1937.18,1937.51,1937.86,1938.03,1945.82,1949.48,1949.12,1948.59,1947.17,1945.96,1945.29,1944.12,1943.47,1943.01,1942.4,1941.94,1940.85,1939.63,1938.37,1937,1935.65,1934.5,1933.22,1932.51,1932.66,1933.11,1934.01,1935.2,1936.33,1937.32,1938.47,1940.16,1941.56,1942.74,1943.84,1945.1,1946.41,1943.86,1945.29,1949.81,1950.35,1950.49,1950.06,1949.59,1948.98,1947.75,1946.47,1945.47,1944.63,1939.09,1933.72,1931.97,1930.31,1924.59,1923.09,1921.75,1920.2,1919.07,1918.15,1917.46,1917.79,1918.35,1917.95,1917.92,1918.4,1918.82,1919.26,1920.24,1920.81,1921.46,1922.27,
1946.49,1946.54,1946.51,1946.14,1945.86,1945.57,1945.17,1945.06,1944.81,1944.15,1943.57,1942.38,1941.36,1940.5,1939.29,1938.25,1936.68,1939.32,1942.3,1941.63,1941.34,1941.26,1937.38,1932.95,1932.8,1936.75,1933.18,1933.58,1934.32,1934.91,1935.44,1936.04,1940.5,1940.24,1939.83,1939.32,1938.78,1937.23,1936.15,1934.93,1933.62,1932.82,1932.21,1931.6,1931.46,1930.25,1929.1,1927.76,1926.85,1926.26,1924.96,1924.13,1923.72,1924.05,1924.49,1925.19,1926.71,1927.73,1928.52,1929.32,1930.9,1932.03,1932.86,1933.62,1934.88,1936.07,1933.52,1934.93,1939.42,1940.06,1940.27,1939.92,1939.65,1939.22,1938.17,1937.05,1936.38,1936,1934.68,1933.22,1931.79,1926.2,1924.32,1922.83,1921.46,1920.03,1918.18,1917.28,1916.5,1916.58,1916.82,1916.52,1916.55,1916.87,1917.22,1917.53,1918.51,1919.62,1920.38,1920.91,
1945.47,1946.08,1945.86,1945.57,1945.48,1945.41,1944.91,1945.01,1944.76,1944,1943.08,1941.87,1940.7,1943.07,1945.25,1943.87,1941.84,1940.65,1939.94,1939.08,1938.41,1938.06,1937.61,1936.85,1932.99,1933.5,1933.75,1934.3,1935.38,1932.75,1933.31,1933.85,1934.38,1934.35,1933.66,1933.01,1932.27,1930.55,1929.29,1928.14,1926.73,1925.79,1925.31,1924.63,1924.38,1923.41,1922.64,1921.57,1920.93,1920.41,1919.81,1919.01,1919.01,1922.44,1919.84,1920.73,1922.35,1926.71,1923.86,1924.55,1929.4,1926.61,1927.52,1928.47,1929.33,1930.28,1927.71,1928.98,1933.58,1934.26,1934.72,1934.14,1934.25,1934.16,1933.38,1932.32,1932.11,1931.68,1930.69,1929.53,1931.18,1929.64,1928.1,1926.57,1921.99,1920.47,1918.72,1917.56,1916.27,1916.12,1916.03,1915.52,1915.44,1915.73,1915.96,1916.13,1917.36,1918.21,1919.08,1919.89,
1944.92,1945.54,1945.43,1945.33,1945.19,1945.13,1944.8,1944.73,1944.31,1943.64,1942.44,1944.72,1943.1,1941.44,1947.17,1945.6,1943.49,1941.84,1940.93,1940.01,1938.91,1935.14,1938.32,1937.27,1933.77,1930.86,1931.17,1931.92,1933.06,1930.75,1931.06,1931.76,1932.44,1932.19,1931.31,1930.64,1929.82,1928.01,1926.6,1925.62,1924.2,1923.09,1922.32,1922.1,1921.6,1920.99,1920.48,1919.37,1918.99,1918.88,1918.7,1918.19,1918.57,1922.04,1922.47,1920.62,1922.12,1926.54,1926.89,1927.86,1932.54,1929.75,1926.7,1934.68,1928.1,1929.01,1926.13,1927.18,1931.68,1932.32,1932.95,1932.58,1932.83,1932.87,1932.18,1931.6,1931.44,1931.42,1930.57,1929.59,1931.58,1929.93,1928.68,1927.26,1925.9,1924.44,1922.85,1918.35,1917.03,1916.68,1916.67,1915.89,1915.66,1915.68,1915.62,1915.61,1916.97,1917.74,1918.57,1919.43,
1944.69,1945.32,1945.4,1945.3,1945.27,1945.09,1944.76,1944.4,1944.02,1947,1945.52,1947.62,1945.99,1944.19,1942.22,1944.23,1941.91,1940.26,1939.25,1937.94,1936.8,1936.44,1936.19,1935.28,1935.2,1932.55,1929.29,1930.17,1931.36,1928.84,1929.44,1929.97,1930.42,1930.11,1929.57,1928.76,1927.76,1925.65,1924.57,1923.36,1922.02,1920.75,1920.02,1919.62,1919.22,1918.68,1918.18,1917.52,1917.16,1917.39,1917.38,1917.11,1920.99,1921.61,1922.02,1920.13,1921.64,1929.61,1933.85,1931.14,1932.05,1932.48,1929.6,1929.97,1930.48,1931.12,1920.85,1925.58,1929.91,1930.54,1931.1,1931.05,1931.36,1931.69,1931.21,1930.91,1931.11,1931.25,1930.86,1930.14,1932.26,1930.95,1929.59,1928.36,1927.16,1925.87,1924.45,1919.92,1918.37,1917.79,1917.51,1916.68,1916.43,1916.4,1916.07,1916.04,1916.91,1918.13,1918.75,1919.31,
1944.29,1945.12,1945.14,1945.07,1945.25,1945.23,1944.8,1944.52,1947.43,1950.25,1952.29,1950.75,1948.89,1947.06,1945.26,1943.5,1941.22,1939.34,1938.13,1936.79,1935.72,1935.22,1935.33,1934.25,1934.23,1935.15,1935.66,1929.43,1930.61,1931.63,1928.6,1929,1929.28,1928.91,1928.05,1927.3,1926.07,1924.13,1922.86,1921.66,1920.14,1918.98,1918.3,1917.7,1917.15,1916.5,1916.38,1915.76,1915.39,1915.76,1916.09,1919.35,1920,1923.87,1924.91,1919.79,1921.45,1932.77,1933.57,1934.72,1935.26,1935.65,1936.16,1936.32,1932.89,1933.38,1922.87,1923.52,1927.93,1928.46,1928.86,1929.04,1929.4,1929.92,1929.85,1932.86,1929.97,1930.34,1933.27,1933.04,1932.41,1937.3,1936.41,1935.41,1934.14,1926.75,1925.26,1920.93,1919.44,1918.61,1918.18,1917.58,1917.06,1916.89,1916.37,1916.37,1917.19,1918.21,1918.64,1919.08,
1944.31,1945.25,1945.32,1945.65,1945.71,1945.59,1945.24,1944.71,1951.26,1953.82,1952.38,1950.6,1948.72,1946.93,1944.87,1943.07,1940.65,1938.98,1937.7,1936.44,1935.14,1935.01,1935,1933.98,1934.37,1935.01,1935.74,1936.37,1930.68,1931.59,1928.38,1928.56,1928.67,1928.11,1935.15,1934.22,1932.84,1931.14,1933.81,1932.92,1931.16,1929.98,1929.26,1928.36,1923.81,1923.5,1923.07,1918.49,1918.27,1918.74,1921.96,1922.26,1925.44,1926.66,1924.48,1919.59,1921.38,1932.73,1933.5,1934.42,1934.79,1935.24,1935.46,1935.85,1935.98,1932.34,1932.89,1925.93,1926.59,1927,1927.37,1927.44,1928.17,1928.76,1928.68,1932.02,1929.49,1929.94,1933.55,1939.63,1939.12,1938.17,1937.51,1936.67,1935.64,1934.36,1930,1925.42,1921.02,1920.16,1919.63,1918.51,1917.86,1917.89,1917.2,1917.04,1917.4,1918.27,1918.91,1919.01,
1944.48,1945.21,1945.64,1945.92,1946,1946.11,1945.45,1944.55,1947.62,1953.84,1952.11,1950.28,1948.23,1946.28,1944.29,1942.65,1940.24,1938.84,1937.43,1936.27,1935.21,1935.25,1935.26,1934.75,1934.86,1935.65,1932.86,1930.09,1931.3,1928.65,1932.19,1932.64,1932.73,1931.92,1930.98,1930.14,1928.48,1926.43,1925.31,1928.28,1926.65,1925.48,1924.45,1923.68,1922.95,1922.71,1922.46,1917.79,1913.59,1916.66,1917.36,1920.8,1924.83,1925.98,1924.01,1919.24,1920.88,1932.3,1933.12,1930.31,1934.22,1934.73,1935.12,1935.06,1934.93,1935.16,1931.6,1924.87,1925.36,1925.75,1925.98,1925.97,1926.67,1927.23,1930.63,1930.99,1928.56,1929.08,1932.87,1939.77,1939.48,1938.76,1938.16,1937.45,1936.2,1935.4,1933.92,1929.54,1922.1,1921.16,1920.32,1919.32,1918.58,1918.41,1917.41,1916.99,1917.55,1918.29,1918.34,1918.66,
1945.14,1945.47,1945.83,1946.17,1946.07,1945.88,1945.18,1944.34,1950.92,1953.12,1951.42,1949.64,1947.64,1945.53,1943.53,1942.09,1940.21,1938.47,1937.26,1936.47,1935.45,1935.5,1935.83,1935.59,1936.01,1936.63,1930.36,1931.04,1932.47,1936.64,1936.49,1933.11,1932.93,1932,1930.91,1929.99,1928.44,1926.33,1924.95,1924.01,1922.19,1920.95,1920.01,1918.91,1918.18,1917.72,1917.49,1916.93,1912.75,1916.06,1916.19,1922.74,1923.94,1925.24,1926.47,1918.7,1920.6,1931.78,1932.69,1933.9,1934.06,1934.46,1931.09,1934.86,1934.61,1934.73,1931.22,1924.32,1924.53,1924.69,1924.84,1924.94,1925.7,1926.35,1929.64,1930.25,1927.94,1928.63,1938.83,1939.58,1939.69,1939.2,1938.83,1938.22,1937.08,1936,1934.73,1930.21,1922.67,1921.57,1920.79,1919.52,1918.59,1918.14,1917.4,1916.86,1917.38,1917.77,1917.64,1917.77,
1945.22,1945.7,1945.77,1945.91,1945.68,1945.43,1944.41,1943.28,1949.59,1948.41,1950.1,1948.48,1946.45,1944.86,1943.05,1941.78,1940.12,1938.65,1937.5,1936.89,1936.17,1936.34,1936.86,1940.83,1941.3,1942.05,1935.57,1932.71,1943.88,1941.05,1937.26,1933.68,1933.12,1932.27,1934.99,1934,1932.31,1926.43,1924.82,1923.54,1921.7,1920.46,1919.35,1918.27,1917.31,1916.94,1916.34,1916.17,1914.79,1917.95,1918.22,1921.93,1922.8,1924.2,1925.58,1918.14,1923.03,1930.82,1932.28,1929.54,1933.41,1933.65,1933.89,1934.18,1933.64,1933.82,1933.79,1922.98,1923.07,1923.16,1923.39,1923.53,1924.16,1924.67,1928.32,1928.8,1929.79,1927.35,1937.81,1938.81,1939.12,1938.87,1938.84,1937.93,1937.19,1936.15,1934.74,1933.46,1928.9,1921.57,1920.65,1919.5,1918.67,1917.95,1916.76,1916.29,1916.56,1917.04,1916.98,1917.3,
1945,1945.09,1944.98,1945.06,1944.71,1944.1,1942.64,1941.38,1943.79,1946.32,1944.96,1947.08,1945.64,1944.23,1942.53,1941.67,1940.18,1942.86,1946.14,1945.34,1944.69,1945.23,1945.92,1946.13,1946.41,1947.21,1940.63,1948.27,1948.68,1945.42,1941.7,1938,1937.35,1936.09,1935.01,1934.03,1932.38,1930.15,1928.62,1927.06,1925.13,1923.87,1918.69,1917.52,1916.49,1916.04,1915.15,1910.85,1913.75,1919.58,1920.06,1920.53,1921.71,1923.14,1917.49,1917,1922.07,1930.19,1931.49,1928.75,1932.45,1933.1,1933.15,1933.07,1932.72,1932.63,1928.88,1917.95,1921.8,1921.77,1921.58,1921.72,1922.64,1923.07,1926.72,1927.41,1925.31,1932.15,1936.64,1937.8,1938.33,1938.3,1938.11,1937.64,1936.5,1935.67,1934.52,1933.03,1928.26,1920.91,1919.87,1918.38,1917.36,1916.38,1915.2,1914.72,1914.75,1915.25,1915.21,1915.41,
1944.54,1944.45,1944.16,1943.83,1943.2,1942.35,1940.95,1939.6,1942.3,1944.91,1947.23,1946.2,1944.96,1943.67,1946.45,1945.91,1948.83,1947.81,1946.99,1946.5,1945.97,1946.5,1947.33,1947.35,1947.88,1941.42,1948.59,1948.91,1949.25,1945.69,1941.72,1937.86,1936.98,1935.68,1934.58,1933.42,1931.67,1929.57,1928,1926.12,1924.46,1923,1917.74,1916.69,1915.41,1914.91,1910.23,1910.06,1913.07,1918.93,1919.14,1919.87,1920.9,1922.15,1916.63,1916.63,1921.52,1929.47,1930.82,1932.07,1932.16,1932.4,1932.69,1932.3,1931.75,1931.78,1927.6,1916.72,1920.41,1920.31,1919.78,1920.04,1920.75,1921.28,1921.78,1922.76,1926.85,1933.81,1935.31,1936.62,1937.06,1936.93,1937.09,1936.42,1935.63,1934.93,1933.5,1932.1,1924.49,1920.23,1918.84,1917.27,1915.97,1914.96,1913.74,1913.04,1913.22,1913.43,1913.42,1913.87,
1943.99,1943.59,1943.04,1942.5,1941.72,1940.71,1939.18,1937.72,1936.98,1940,1938.82,1938.04,1944.4,1951.65,1954.58,1954.49,1953.71,1952.59,1952.01,1947.75,1943.43,1943.91,1944.28,1944.58,1941.37,1945.03,1945.33,1945.5,1945.76,1942.02,1937.78,1933.66,1932.6,1931.16,1929.99,1928.82,1926.99,1924.87,1923.1,1921.63,1919.64,1918.18,1916.95,1915.83,1914.93,1910.22,1909.65,1909.8,1915.53,1918.59,1918.66,1919.52,1920.52,1922.01,1920.65,1916.68,1921.58,1929.56,1927.55,1932.1,1932.3,1932.62,1932.63,1932.15,1931.84,1931.62,1927.32,1916.41,1920.01,1919.78,1919.35,1919.48,1919.94,1920.34,1920.79,1924.87,1925.8,1932.67,1934.36,1935.69,1936.01,1936.16,1935.98,1935.43,1934.62,1933.82,1932.57,1928.19,1920.33,1918.89,1917.25,1911.94,1914.4,1912.89,1911.88,1911.4,1911.45,1911.81,1911.77,1912.11,
1943.1,1942.66,1941.77,1941.1,1940.05,1938.98,1937.27,1936.04,1935.38,1935,1933.95,1937.53,1941.06,1952.01,1959.17,1962.91,1962.52,1957.57,1949.19,1944.93,1944.6,1944.93,1945.48,1945.72,1945.66,1945.86,1942.62,1942.64,1942.68,1942.25,1937.82,1933.48,1932.28,1930.67,1929.49,1927.87,1926.19,1923.86,1922.02,1920.6,1918.96,1917.48,1916.11,1914.9,1910.05,1909.71,1909.01,1909.22,1912.33,1915.29,1915.66,1916.46,1917.64,1919.19,1917.94,1913.17,1918.83,1929.99,1931.51,1932.75,1932.82,1933.05,1929.4,1932.48,1931.89,1931.81,1924.03,1920.39,1920.02,1919.62,1918.82,1918.87,1919.3,1919.65,1919.25,1923.58,1924.58,1925.5,1929.87,1934.23,1934.42,1934.43,1934.54,1933.92,1929.94,1929.25,1927.89,1920.34,1918.74,1917.41,1911.6,1914.12,1908.49,1910.95,1905.82,1909.29,1909,1909.59,1909.89,1910.11,
1942.22,1941.11,1940.25,1939.34,1938.31,1937.08,1935.32,1934.05,1933.82,1933.55,1937.03,1940.57,1952.54,1952.4,1952.06,1956.1,1959.76,1950.45,1942.72,1942.47,1945.52,1945.93,1942.87,1946.54,1946.36,1946.46,1939.13,1942.92,1942.74,1938.76,1934.43,1932.89,1931.57,1929.96,1928.53,1927.01,1925.24,1923.13,1921.16,1919.68,1917.95,1916.45,1915.37,1910.16,1909.26,1908.84,1908.32,1908.79,1912.29,1912.32,1915.89,1920.25,1912.44,1920.08,1918.62,1917.97,1919.81,1930.76,1928.8,1922.53,1933.32,1926.6,1923.01,1929.22,1924.83,1921,1917.27,1916.79,1920.23,1919.71,1919.2,1918.99,1919.27,1919.55,1919.47,1920.23,1921.06,1921.78,1926.01,1933.34,1933.17,1933.07,1933.18,1932.68,1928.71,1927.92,1926.77,1918.98,1917.42,1912.01,1909.77,1908.43,1910.94,1904.99,1903.57,1903.03,1907.1,1907.55,1908.01,1908.61,
1940.64,1939.63,1938.54,1937.35,1936.1,1934.84,1933.17,1931.95,1931.83,1932.21,1935.7,1943.99,1952.34,1952.12,1952.14,1956.49,1948.92,1948.22,1948.03,1947.87,1951,1947.76,1955.14,1955.09,1954.99,1946.54,1946.67,1946.82,1946.44,1945.75,1937.77,1936.18,1934.91,1933.2,1931.46,1930.07,1928.34,1926.28,1924.14,1922.49,1916.88,1915.23,1910.32,1909.32,1908.65,1908.45,1908.11,1908.63,1918.47,1919.02,1919.65,1920.79,1922.27,1920.96,1919.74,1918.87,1920.31,1931.16,1929.23,1926.87,1933.43,1930.15,1923.06,1929.06,1924.78,1924.26,1916.75,1916.63,1920.11,1919.57,1919.2,1918.97,1919.02,1919.3,1918.75,1919.63,1920.28,1920.87,1928.04,1931.91,1931.74,1931.73,1931.63,1931.22,1930.35,1929.73,1925.25,1917.78,1916.15,1910.69,1908.72,1907.36,1909.54,1907.76,1902.23,1905.66,1902.03,1906.46,1906.94,1907.53,
1938.95,1937.93,1936.78,1935.5,1934.19,1933,1931.39,1930.43,1930.63,1935.02,1943.02,1947.75,1952.24,1948.59,1952.97,1945.46,1945.17,1945.44,1945.28,1945.08,1944.7,1944.96,1951.85,1951.76,1951.16,1946.64,1943.31,1942.69,1942.2,1941.17,1933.44,1931.77,1930.12,1928.27,1926.58,1925.19,1923.38,1917.52,1915.31,1913.76,1912.35,1910.79,1909.79,1908.76,1908.07,1908.31,1908.1,1909.05,1916.06,1916.97,1917.74,1922.28,1920.88,1919.58,1918.34,1920.52,1921.79,1929.22,1926.97,1924.42,1930.7,1924.02,1923.67,1926.15,1925.08,1924.97,1913.31,1912.69,1920.16,1919.83,1919.36,1918.99,1918.98,1919.17,1918.61,1919.24,1919.59,1919.99,1924,1927.57,1930.25,1930.11,1929.91,1929.6,1929.02,1928.26,1921.13,1916.52,1915.25,1909.72,1907.77,1906.37,1908.74,1906.78,1905.43,1900.86,1901.19,1901.65,1906.29,1902.94,
1936.81,1936.01,1934.85,1933.73,1932.68,1931.61,1930.12,1929.33,1934.06,1938.74,1943.05,1947.89,1952.69,1953.25,1941.88,1939.25,1935.73,1939.34,1942.38,1938.94,1941.66,1944.94,1948.24,1948.14,1947.45,1946.57,1939.09,1942.43,1938.6,1934.64,1932.75,1930.91,1929.5,1927.93,1922.39,1920.79,1919.11,1917.25,1915.09,1913.52,1912.33,1910.71,1909.64,1908.94,1908.49,1908.77,1909.2,1910.41,1917.84,1918.87,1919.86,1921.58,1923.53,1922.22,1920.69,1922.66,1923.93,1927.92,1928.7,1925.75,1928.6,1925.05,1924.59,1926.84,1925.72,1925.66,1913.96,1913.05,1920.47,1920.12,1919.94,1919.67,1919.38,1919.39,1918.88,1919.31,1919.65,1919.9,1923.26,1923.46,1926.12,1925.53,1925.55,1924.96,1924.49,1924.11,1920.22,1915.55,1914.46,1913.04,1907.37,1905.96,1908.28,1906.53,1905.19,1904.63,1904.8,1905.65,1902.31,1902.91,
1937.59,1933.9,1932.95,1932.05,1931.37,1930.43,1929.23,1932.98,1938.15,1939.22,1939.76,1944.58,1953.52,1950.3,1950.83,1951.63,1955.19,1957.92,1957.76,1954.1,1953.5,1953.44,1956.3,1955.96,1955.15,1954.22,1953.62,1953.1,1952.28,1951.42,1949.6,1947.72,1943.37,1930.79,1926.33,1924.96,1923.24,1921.57,1915.68,1914.34,1913.07,1911.64,1910.78,1909.9,1909.86,1910.68,1911.52,1912.9,1923.5,1924.9,1926.23,1927.8,1929.79,1931.34,1932.62,1924.94,1932.3,1935.99,1936.33,1936.82,1936.04,1932.27,1934.83,1930.67,1929.52,1928.42,1924.73,1913.63,1921.02,1921.16,1921.11,1920.78,1920.98,1920.65,1919.98,1920.26,1923.44,1926.41,1929.64,1929.49,1928.83,1928.2,1927.93,1927.31,1926.79,1926.39,1925.57,1924.57,1917.19,1912.66,1911.23,1909.74,1908.13,1906.43,1905.18,1904.81,1905.05,1905.73,1909.32,1909.7,
1932.4,1931.95,1931.56,1930.71,1930.35,1929.77,1929.16,1932.9,1934.37,1939.56,1940.33,1945.33,1953.48,1958.22,1958.76,1959.91,1960.51,1966.39,1966.03,1965.41,1964.75,1964.46,1964.06,1963.39,1962.3,1961.44,1960.78,1960.14,1959.67,1959.03,1953.03,1948.45,1947.47,1938.96,1926.68,1921.32,1920.02,1918.22,1916.78,1915.69,1914.57,1913.38,1912.5,1911.83,1911.96,1912.97,1914.15,1921.82,1923.35,1927.88,1929.33,1930.99,1933.02,1934.29,1935.07,1933.28,1936.9,1937.2,1937.4,1937.56,1936.56,1935.79,1935.15,1933.85,1929.79,1932.33,1925.44,1921.72,1921.55,1921.83,1921.84,1921.93,1922.2,1922.22,1921.53,1921.71,1925.17,1930.74,1930.79,1930.19,1929.12,1928.32,1928.04,1927.38,1926.8,1926.31,1925.58,1924.51,1923.46,1916,1911.6,1910.27,1908.96,1907.42,1906.46,1905.91,1902.31,1909.97,1913.89,1917.17,
1930.25,1930.17,1929.66,1929.5,1929.18,1929.12,1928.82,1933.08,1934.56,1940.21,1941.02,1941.97,1942.89,1954.71,1959.2,1960.32,1960.41,1963.13,1965.75,1965.2,1964.24,1964.03,1963.58,1962.83,1961.98,1960.97,1960.44,1959.69,1958.96,1958.54,1952.87,1951.69,1947.72,1943.63,1927.4,1922.46,1921.15,1919.64,1918.29,1917.57,1916.31,1915.41,1914.82,1914.1,1914.24,1915.6,1916.59,1921.33,1925.86,1927.27,1931.6,1933.36,1935.14,1936.12,1936.5,1934.37,1938.14,1937.93,1937.98,1937.91,1936.56,1935.6,1930.75,1933.57,1932.3,1928.79,1925.18,1921.45,1921.47,1922.2,1922.67,1922.76,1923.05,1923.25,1922.85,1923.22,1923.16,1932.06,1931.72,1931.04,1929.94,1929.07,1928.16,1927.68,1927.03,1926.8,1925.97,1925.17,1924.26,1923.15,1919.09,1915.13,1910.87,1909.72,1908.71,1911.43,1911.85,1907.73,1916.24,1919.58,
1928.6,1928.66,1928.51,1928.44,1928.62,1928.6,1928.52,1929.22,1934.9,1936.57,1941.32,1942.34,1943.11,1943.74,1947.18,1948.22,1952.14,1951.75,1957.7,1956.79,1955.92,1955.76,1955.45,1954.68,1953.71,1953.06,1952.35,1951.84,1951.05,1950.82,1945.53,1944.36,1933.63,1932.75,1924.95,1924.21,1922.86,1921.48,1920.44,1919.46,1918.52,1917.48,1916.79,1916.24,1916.5,1917.82,1918.97,1923.2,1924.55,1925.93,1930.36,1934.77,1936.39,1937.09,1937.42,1934.65,1938.43,1938.44,1938.01,1937.77,1936.36,1935.28,1934.14,1933.09,1932.04,1928.51,1924.65,1921.16,1921.65,1922.57,1923.34,1923.57,1924.29,1924.62,1924.42,1924.61,1924.72,1930.5,1933.16,1932.33,1931.11,1929.88,1929.07,1928.09,1927.49,1927.21,1926.58,1925.77,1924.94,1923.97,1917.24,1916.5,1912.62,1911.42,1910.85,1913.77,1914.26,1914.03,1910.6,1921.82,
1927.17,1927.45,1927.7,1928.12,1928.43,1928.72,1928.85,1929.67,1931.31,1932.97,1933.79,1938.79,1939.71,1939.99,1940.22,1940.79,1947.95,1947.53,1954.27,1956.61,1955.86,1955.51,1955.43,1954.71,1957.61,1953.11,1952.82,1952.05,1951.78,1951.53,1946.27,1934.44,1931,1927.23,1926.49,1925.75,1924.59,1923.14,1922.32,1921.12,1920.08,1919.19,1918.54,1917.89,1917.98,1919.49,1920.55,1921.53,1925.8,1927.38,1928.41,1935.98,1937.22,1937.79,1937.9,1935.23,1938.76,1938.63,1938.33,1937.85,1936.19,1935,1934.3,1932.95,1928.1,1927.73,1921.32,1920.72,1922.37,1923.61,1924.55,1925.42,1926.01,1926.64,1926.57,1927,1927.09,1929.56,1934.86,1933.71,1932.62,1931.39,1930.25,1929.12,1928.59,1928.05,1927.45,1926.73,1926.14,1925.51,1918.8,1918.23,1914.6,1913.97,1913.87,1916.73,1917.35,1921.16,1917.73,1920.78,
1926.74,1927.14,1927.55,1927.99,1928.29,1928.64,1928.98,1929.99,1931.46,1937.12,1938.2,1939.18,1940.1,1940.23,1940.23,1940.94,1940.65,1940.32,1939.82,1946.27,1952.7,1952.5,1955.76,1955.2,1958.25,1953.73,1953.61,1952.96,1952.59,1948.44,1947.45,1940.63,1936.23,1932.55,1927.79,1927.26,1925.82,1924.5,1923.6,1922.49,1921.35,1920.42,1919.85,1919.12,1919.27,1920.66,1921.7,1922.58,1923.79,1927.91,1929.03,1936.41,1937.7,1937.86,1934.8,1934.94,1935.06,1938.2,1937.88,1937.39,1935.77,1934.43,1933.8,1932.84,1932.25,1927.96,1921.63,1917.32,1922.89,1924.65,1925.68,1926.94,1927.79,1928.37,1928.41,1928.63,1928.63,1931.21,1933.47,1935.3,1933.95,1932.75,1931.49,1930.52,1929.6,1929.24,1928.66,1928.14,1927.6,1927.03,1920.81,1920.54,1920.2,1920.08,1917.33,1920.38,1920.77,1924.69,1925.16,1928.28,
1927.89,1928.13,1928.46,1928.75,1929.41,1929.7,1930.17,1931,1932.29,1933.8,1938.64,1939.56,1940.5,1940.65,1940.67,1941.06,1940.79,1944.35,1944.24,1943.88,1939.13,1943.02,1942.91,1953.64,1956.28,1959.28,1958.9,1958.35,1958,1957.85,1949.99,1942.31,1933.73,1930.09,1929.34,1928.62,1927.13,1925.62,1924.5,1923.4,1921.93,1920.87,1920.31,1919.44,1919.46,1921.1,1921.89,1922.57,1923.68,1927.92,1928.84,1930.2,1931.24,1931.53,1928.15,1928.13,1928.34,1937.41,1934.26,1930.49,1935.26,1931.01,1924.12,1932.62,1932.2,1928.46,1918.02,1918.81,1924,1925.73,1927.23,1928.21,1928.77,1929.52,1929.47,1929.57,1929.75,1929.09,1928.28,1930.08,1928.67,1930.5,1932.45,1928.34,1927.78,1924.26,1923.98,1923.41,1920.22,1919.87,1919.97,1920.06,1919.88,1919.88,1920.21,1920.66,1921.02,1921.72,1922.15,1925.1,
1929.86,1929.86,1930.28,1930.16,1930.62,1930.89,1931.15,1931.78,1932.8,1934.29,1934.94,1935.98,1936.71,1940.78,1940.95,1933.25,1928.95,1928.5,1936.37,1936.15,1935.55,1939.7,1939.79,1943.64,1951.38,1954.46,1957.36,1959.68,1956.61,1949.49,1940.65,1932.91,1932.4,1931.5,1930.49,1929.67,1928.09,1926.47,1925.08,1923.61,1922.12,1920.99,1920.27,1919.64,1919.35,1920.7,1921.28,1922.01,1922.95,1923.93,1924.99,1926.06,1927.25,1927.25,1926.87,1927.1,1927.19,1929.98,1930.18,1926.42,1924.89,1924.1,1923.85,1932.73,1932.72,1925.93,1918.98,1915.7,1924.84,1926.79,1928.02,1928.84,1929.71,1930.17,1930.27,1930.27,1930.51,1929.7,1928.81,1927.6,1926.19,1925.04,1924.11,1923.35,1922.87,1922.57,1922.4,1921.99,1921.92,1922.15,1922.4,1922.17,1922.34,1922.67,1923.14,1923.43,1923.8,1924.61,1925,1924.52,
1932.43,1932.14,1932.08,1931.9,1931.89,1931.94,1932.06,1932.51,1933.27,1934.13,1935.18,1935.97,1936.62,1936.97,1936.95,1937.36,1929.17,1928.88,1932.76,1932.63,1936.37,1936.65,1940.84,1944.91,1944.69,1948.11,1944.04,1947.53,1940.14,1935.94,1934.93,1934.37,1933.7,1932.7,1931.41,1930.28,1928.6,1926.89,1925.31,1923.8,1922.18,1920.8,1920.15,1919.14,1918.65,1919.65,1920.3,1920.72,1921.68,1922.26,1923.07,1924.27,1925.28,1925.04,1924.92,1925.3,1925.11,1934.63,1931.88,1925.2,1924.33,1927.02,1930.43,1930,1930.12,1924.62,1924.22,1921.21,1926.3,1927.94,1929.06,1929.7,1930.19,1930.54,1930.41,1930.33,1930.36,1929.39,1928.42,1927.3,1932.63,1934.56,1933.75,1932.89,1926.51,1923.48,1923.25,1923.27,1923.44,1923.76,1924.19,1924.22,1924.48,1924.78,1925.22,1925.71,1926.15,1926.81,1927.02,1926.37,
1935.12,1934.51,1934.16,1933.57,1933.47,1933.01,1932.85,1933.11,1933.44,1934.34,1935.24,1936.15,1936.94,1936.95,1937.11,1937.62,1929.51,1929.37,1929.37,1933.62,1933.36,1937.83,1937.89,1938.25,1938.24,1938.38,1934.41,1937.75,1937.36,1937.19,1936.27,1935.46,1934.64,1933.38,1932.3,1931.22,1929.36,1927.33,1925.6,1924.02,1922.25,1920.64,1919.73,1918.5,1917.9,1918.67,1919.06,1919.23,1920.18,1920.5,1921.3,1922.3,1922.9,1922.9,1923.24,1923.4,1923.69,1933.42,1928.04,1924.67,1927.27,1930.74,1928.18,1931.38,1928.59,1929.51,1922.17,1919.09,1927.97,1929.49,1930.12,1930.42,1930.48,1930.52,1930.24,1929.91,1929.9,1928.5,1927.52,1926.57,1928.75,1927.8,1930.27,1926.46,1923.38,1923.13,1923.41,1923.42,1923.88,1924.42,1925.21,1925.31,1921.75,1922.42,1922.96,1923.18,1923.88,1928.39,1928.46,1927.6,
1937.27,1936.62,1935.78,1934.98,1934.72,1934.06,1933.87,1933.75,1934.19,1934.55,1935.34,1936.3,1937.1,1937.5,1937.82,1938.11,1938.11,1934.2,1938.46,1934.52,1938.4,1938.54,1938.98,1939.02,1939.46,1939.37,1939.35,1938.67,1938.31,1938.19,1937.14,1936.27,1935.48,1934.21,1932.91,1931.69,1929.86,1927.84,1926.03,1924.3,1922.27,1920.62,1919.55,1917.96,1917.36,1917.76,1917.73,1917.77,1918.47,1918.96,1919.56,1920.36,1921.19,1921.31,1921.58,1922.2,1922.68,1929.65,1927.53,1928,1933.93,1934.5,1932.43,1932.97,1930.13,1927.21,1927.69,1920.61,1929.35,1930.48,1930.73,1930.53,1930.57,1930.46,1929.67,1928.85,1928.64,1927.25,1925.9,1925.05,1927.3,1929.19,1928.67,1928.19,1928.24,1922.32,1922.59,1923.17,1923.82,1924.54,1925.53,1926.09,1926.56,1927.37,1927.99,1928.4,1928.72,1929.45,1929.43,1928.7,
1939.28,1938.58,1937.6,1936.64,1935.98,1935.35,1934.8,1934.68,1934.77,1935.07,1935.98,1936.85,1937.67,1937.96,1938.22,1938.69,1938.74,1939.13,1939.51,1939.4,1938.88,1942.74,1942.79,1943.12,1943.1,1939.85,1939.78,1935.13,1938.57,1938.39,1937.22,1936.4,1935.69,1934.33,1933.14,1932.15,1930.28,1928.14,1926.54,1924.61,1922.59,1920.96,1919.5,1913.82,1916.96,1917.07,1916.83,1916.95,1917.33,1917.39,1921.14,1921.97,1919.78,1920.13,1920.34,1921.02,1921.86,1926,1933.57,1934.23,1931.53,1935.51,1936.74,1931.37,1932.01,1932.76,1925.48,1922.23,1930.93,1931.72,1931.63,1931.2,1930.63,1929.9,1929.11,1928.19,1927.58,1925.84,1933.99,1932.68,1931.57,1930.51,1929.8,1929.43,1929.63,1929.91,1930.64,1931.39,1925.76,1926.65,1924.9,1925.36,1926.1,1926.94,1927.45,1927.8,1928.5,1929.18,1925.19,1924.39,
1941.03,1940.21,1939.2,1937.92,1937.51,1936.54,1936.1,1935.83,1935.88,1936.26,1937.03,1937.62,1938.32,1938.87,1939.06,1939.5,1939.5,1939.73,1940.05,1939.94,1939.25,1939.5,1942.8,1942.77,1942.62,1939.52,1939.03,1938.32,1938.21,1937.53,1936.78,1935.96,1935.09,1933.74,1933.19,1932.35,1930.59,1928.9,1927.19,1925.49,1923.36,1922.01,1920.34,1918.67,1917.64,1917.11,1917.04,1916.64,1917.1,1917.11,1923.5,1927.3,1928.08,1928.3,1925.93,1920.55,1924.77,1932.16,1933.59,1934.52,1932.38,1936.71,1934.71,1932.82,1930.28,1930.68,1927.28,1927.98,1932.44,1932.95,1932.58,1931.66,1930.65,1929.73,1928.68,1927.23,1926.66,1928.15,1932.47,1925.18,1930.35,1929.21,1928.38,1927.96,1928.13,1924.33,1929.12,1929.82,1930.65,1931.53,1924.61,1933.14,1930.97,1931.81,1926.41,1926.8,1927.63,1924.34,1924.27,1923.63,
1941.91,1941,1940.13,1938.91,1938.55,1937.53,1937.05,1936.71,1936.44,1936.79,1937.51,1937.92,1938.68,1939.09,1939.26,1939.43,1939.67,1939.48,1939.91,1939.59,1938.99,1939.02,1938.79,1938.74,1938.71,1938.51,1937.89,1937.4,1936.98,1936.8,1935.86,1935.41,1930.78,1933.46,1933.15,1932.78,1931.47,1929.78,1928.47,1926.79,1924.92,1923.47,1921.85,1919.74,1918.6,1918.14,1917.45,1916.99,1917.07,1922.82,1926.13,1926.57,1927.16,1927.83,1925.45,1920.02,1930.7,1932.11,1933.79,1931.82,1932.95,1934.26,1932.48,1933.82,1934.99,1935.47,1932.41,1929.4,1933.63,1933.73,1932.9,1931.97,1931.03,1929.76,1928.36,1926.84,1925.68,1923.83,1928.24,1923.67,1928.8,1927.52,1926.73,1926.21,1926.43,1926.51,1927.39,1928.14,1928.81,1925.76,1922.76,1927.14,1932.15,1929.94,1927.61,1928.13,1925.82,1926.68,1926.77,1929.06,
1942.09,1941.51,1940.63,1939.68,1939.33,1938.53,1937.88,1937.57,1937.28,1937.49,1937.94,1938.5,1938.92,1939.22,1939.33,1939.34,1939.46,1939.42,1939.51,1938.98,1938.22,1938.04,1937.78,1937.53,1937.38,1937.04,1936.24,1935.64,1935.81,1935.55,1934.92,1934.54,1934.14,1933.46,1933.36,1933.26,1932.25,1930.96,1929.82,1928.37,1926.51,1924.91,1923.25,1921.13,1919.61,1918.63,1917.65,1916.94,1919.92,1925.37,1925.24,1925.72,1926.32,1926.93,1924.62,1925.91,1930.19,1925.43,1933.6,1931.84,1933.38,1931.89,1933.35,1934.7,1936.03,1936.88,1937.51,1930.61,1934.67,1934.37,1933.73,1932.37,1930.91,1929.65,1928.16,1926.1,1924.77,1922.68,1926.93,1922.35,1924.16,1925.94,1925.1,1924.34,1924.67,1924.78,1925.54,1926.23,1926.79,1923.59,1924.7,1921.19,1929.77,1930.44,1924.98,1925.73,1923.14,1923.98,1923.89,1926.06,
1941.69,1941.2,1940.62,1939.83,1939.39,1938.91,1938.35,1938,1937.8,1937.81,1938.1,1938.5,1938.97,1938.87,1938.77,1938.73,1938.39,1938.39,1938.07,1937.49,1936.54,1936.23,1935.81,1935.4,1935.29,1934.53,1933.85,1933.39,1933.6,1933.58,1933.42,1933.52,1933.38,1933.23,1933.59,1933.81,1933.08,1932.24,1930.99,1929.61,1928.04,1926.49,1924.37,1922.2,1920.42,1919.36,1917.99,1916.74,1922.22,1924.51,1924.52,1924.69,1925.16,1925.97,1926.66,1928.13,1929.65,1928.13,1933.27,1934.98,1933.85,1932.41,1934.01,1935.35,1936.58,1937.44,1937.97,1931.47,1935.07,1934.85,1933.92,1932.4,1931.04,1929.72,1928.03,1925.76,1924.17,1922.21,1923.05,1924.39,1926.25,1924.66,1923.54,1922.87,1922.88,1922.82,1923.48,1924.36,1924.7,1925.44,1918.37,1919.72,1920.46,1921.96,1922.48,1922.86,1923.44,1921.01,1921.01,1923.35,
1941.22,1941.18,1940.71,1939.99,1939.69,1939.24,1938.74,1938.56,1938.12,1937.95,1938.11,1938.31,1938.35,1938.09,1937.88,1937.51,1937.09,1936.49,1935.96,1935.39,1934.31,1933.8,1933.13,1935.81,1935.62,1931.91,1930.79,1930.69,1931.16,1931.22,1931.68,1932.03,1932.46,1932.65,1933.38,1934.08,1933.69,1932.83,1932,1930.54,1929.28,1927.64,1925.51,1923.13,1921.3,1919.79,1918.06,1916.88,1924.89,1923.8,1923.79,1923.68,1924.08,1924.88,1925.61,1927,1928.86,1930.99,1932.75,1931.51,1936.84,1935.36,1937.01,1938.57,1933.33,1937.67,1938.01,1931.45,1935.12,1934.64,1933.96,1932.38,1930.83,1929.32,1927.56,1925.34,1926.92,1924.66,1928.57,1926.99,1925.47,1923.74,1922.26,1921.4,1920.93,1920.9,1921.76,1922.35,1922.71,1923.35,1920.24,1920.8,1922.35,1922.85,1923.11,1920.33,1920.81,1918.11,1918.14,1917.3,
1941.33,1941.26,1940.98,1940.49,1940.19,1939.85,1939.32,1938.94,1938.38,1938.03,1937.89,1937.84,1937.58,1936.89,1936.26,1935.61,1934.73,1934.13,1933.47,1932.44,1931.52,1930.91,1930.16,1932.74,1932.52,1928.92,1927.85,1927.85,1928.53,1929.07,1929.66,1930.69,1931.36,1932.23,1933.16,1934.1,1934.12,1933.43,1932.72,1931.73,1930.27,1928.87,1926.49,1924.22,1922,1920.03,1918.21,1916.67,1924.25,1923.14,1922.51,1922.34,1922.76,1923.62,1924.81,1925.8,1927.71,1929.73,1928.59,1927.41,1932.69,1931.29,1932.72,1934.53,1935.77,1936.7,1937.37,1934.53,1934.37,1933.79,1933.16,1931.69,1930.28,1928.82,1927.26,1924.98,1926.42,1924.33,1925.09,1926.25,1924.74,1922.88,1921.44,1920.51,1919.93,1919.42,1920.09,1920.51,1920.76,1921.42,1922.57,1922.86,1920.54,1921.07,1918.17,1915.22,1915.28,1915.52,1915.42,1914.68,
1941.64,1941.92,1941.7,1941.14,1940.81,1940.32,1939.74,1939.12,1938.45,1937.99,1937.37,1936.95,1936.2,1935.21,1934.01,1933.12,1932.05,1931.02,1930.25,1929.24,1928.37,1927.76,1927.2,1926.44,1926.43,1925.99,1925.19,1925.38,1926.24,1927.12,1927.91,1929.46,1930.54,1931.65,1932.83,1934.13,1934.31,1933.74,1933.17,1932.29,1931.11,1929.74,1927.07,1924.7,1922.38,1923.32,1923.95,1925.36,1923.56,1922.28,1921.42,1921.06,1921.64,1922.45,1923.32,1924.68,1926.53,1925.52,1930.36,1929.19,1934.31,1932.83,1934.32,1932.95,1930.81,1931.8,1935.62,1932.76,1932.62,1932.19,1931.45,1929.83,1928.63,1927.75,1925.99,1924.11,1922.9,1923.78,1924.69,1926.2,1924.29,1922.34,1920.76,1919.65,1918.84,1918.41,1918.97,1919.28,1919.75,1920.14,1921.16,1918.59,1918.94,1916.38,1916.22,1913.42,1913.52,1913.57,1913.31,1912.33,
1942.37,1942.73,1942.48,1942.02,1941.66,1940.99,1940.24,1939.67,1938.77,1937.82,1937.06,1936.18,1934.8,1933.56,1932.15,1930.93,1929.28,1928.04,1927.32,1926.21,1925.12,1924.81,1924.32,1923.91,1923.65,1923.55,1922.97,1923.44,1924.54,1925.54,1926.97,1928.35,1929.82,1931.37,1932.66,1933.87,1934.39,1933.84,1933.36,1932.46,1931.31,1929.71,1927.35,1924.62,1922.22,1922.83,1917.4,1918.28,1919.55,1920.89,1919.88,1919.37,1919.95,1920.78,1921.65,1922.98,1924.96,1923.9,1928.56,1927.26,1929.4,1927.66,1928.86,1930.42,1928.4,1929.14,1933.18,1930.41,1930.45,1930.13,1929.23,1928.06,1927.1,1926.25,1924.91,1923.25,1922.12,1920.38,1921.4,1925.86,1924.33,1922.44,1920.91,1919.8,1919.04,1918.64,1918.76,1919.11,1919.21,1919.91,1920.67,1917.8,1915.47,1912.75,1912.51,1912.47,1912.4,1912.27,1911.56,1910.74,
1943.15,1943.53,1943.25,1942.74,1942.03,1941.21,1940.47,1939.81,1938.68,1937.51,1936.13,1935.06,1933.47,1931.62,1929.96,1928.52,1926.48,1925.2,1924.27,1923.26,1922.45,1922.18,1922.13,1921.8,1921.61,1921.91,1921.5,1922.17,1923.47,1924.59,1925.8,1927.64,1929.48,1930.97,1932.2,1933.68,1934.04,1933.51,1932.87,1932.06,1930.56,1929.05,1926.62,1923.97,1924.47,1925,1925.56,1923.16,1921.2,1919.44,1918.25,1917.62,1918.24,1918.9,1919.85,1921.24,1923.05,1924.82,1926.32,1924.97,1926.98,1925.24,1926.41,1927.95,1925.79,1926.63,1930.63,1927.72,1927.36,1927.35,1926.85,1926.03,1925.14,1924.72,1923.55,1922.07,1921.33,1919.87,1921.23,1926.12,1924.55,1922.86,1921.23,1920,1919.22,1918.89,1919.34,1919.42,1919.62,1920.28,1921.36,1918.57,1916.13,1913.64,1913.28,1912.94,1913.07,1912.86,1912.06,1911.61,
1943.95,1944.13,1943.92,1943.22,1942.28,1941.3,1940.37,1939.38,1938.06,1936.49,1935,1933.3,1931.51,1929.7,1927.76,1926.24,1923.89,1922.52,1921.47,1920.83,1920.36,1920.42,1920.57,1920.38,1920.74,1921.2,1921.26,1922.04,1923.32,1924.53,1925.78,1927.7,1929.41,1930.93,1931.98,1933.22,1933.29,1932.73,1932.04,1931.15,1929.57,1927.9,1925.43,1922.83,1920.52,1926.88,1924.58,1921.88,1920,1918.38,1917.1,1916.34,1917.02,1917.5,1918.1,1919.34,1921.48,1922.86,1924.18,1922.86,1927.55,1922.57,1923.78,1925.02,1922.65,1923.27,1927.28,1920.51,1924.37,1924.35,1923.85,1923.21,1922.74,1922.25,1921.42,1920.51,1920.1,1919.08,1917.61,1925.59,1924.31,1922.56,1921.65,1920.89,1920,1919.73,1920.33,1920.39,1920.66,1921.69,1922.73,1920.17,1914.53,1915.31,1914.89,1914.8,1915.06,1914.73,1914.03,1913.26,
1945.05,1945.01,1944.5,1943.63,1942.5,1941.41,1940.08,1938.85,1937.4,1935.87,1933.77,1931.64,1929.78,1927.58,1925.77,1923.99,1921.88,1920.24,1919.26,1919.04,1918.75,1919.4,1919.73,1919.99,1920.52,1921.34,1921.69,1922.49,1923.85,1924.78,1925.98,1927.8,1929.4,1930.6,1931.61,1932.55,1932.56,1931.78,1930.86,1930.03,1928.3,1926.77,1924.37,1921.81,1922.43,1920.03,1917.79,1921.39,1919.31,1917.7,1916.38,1915.61,1916,1916.48,1916.72,1915.12,1916.76,1920.91,1922.39,1920.58,1922.06,1919.97,1921.14,1922.22,1919.53,1920.18,1923.98,1920.95,1920.96,1920.98,1920.78,1920.01,1920.29,1919.89,1919.23,1918.75,1918.78,1918.11,1917.21,1925.54,1924.48,1923.09,1922.1,1921.72,1921.15,1921.25,1921.79,1922.22,1922.76,1923.65,1925.07,1919.57,1917.28,1918.01,1917.6,1917.71,1917.96,1917.75,1916.84,1915.76,
1945.35,1945.47,1944.87,1943.61,1942.15,1941,1939.35,1938.04,1936.47,1934.61,1932.36,1930.08,1928.37,1926.22,1924.26,1922.51,1920.24,1918.76,1918.08,1917.91,1918,1919,1919.77,1920.22,1920.84,1921.89,1922.48,1923.45,1924.48,1925.33,1926.48,1927.96,1929.18,1930.3,1931.07,1931.79,1931.54,1930.58,1929.89,1928.92,1927.34,1925.72,1923.61,1921.29,1919.27,1917.12,1917.87,1918.3,1919.6,1917.85,1916.76,1915.87,1916.06,1916.16,1916.42,1917.57,1916.14,1920.05,1921.01,1919.07,1920.32,1917.83,1918.57,1916.24,1916.72,1917.22,1921.02,1917.95,1918.24,1918.3,1918.33,1918.05,1918.33,1918.39,1918.13,1917.99,1918.44,1918.05,1917.41,1920.31,1922.34,1924.16,1923.6,1923.24,1923.11,1923.26,1924.28,1924.52,1924.94,1923.54,1921.84,1919.42,1920.27,1921.23,1921.05,1921.1,1921.31,1921.18,1919.88,1918.96,
1945.46,1945.4,1944.57,1943.38,1941.76,1940.38,1938.71,1937.01,1935.34,1933.44,1931.11,1928.8,1926.97,1924.97,1923.23,1921.51,1919.39,1918.17,1917.53,1917.76,1918.15,1919.34,1920.34,1921.04,1922.12,1923.34,1924.05,1924.84,1925.89,1926.42,1927.26,1928.32,1929.29,1930.24,1930.74,1931.22,1930.76,1929.69,1929.32,1928.48,1927.07,1925.63,1923.85,1922,1920.18,1918.27,1919.25,1920.02,1921.18,1919.47,1918.19,1917.07,1917.15,1916.8,1916.98,1914.9,1918.85,1916.62,1917.34,1915.09,1915.74,1916.13,1916.97,1917.59,1914.77,1915.32,1918.96,1911.88,1916.12,1916.54,1916.71,1916.62,1917.41,1917.75,1917.76,1918.15,1918.78,1918.78,1918.64,1918.64,1920.92,1926.18,1925.76,1925.61,1925.49,1925.85,1926.51,1926.94,1924.63,1923.04,1924.4,1922.3,1923.27,1924.15,1924.17,1924.31,1924.61,1924.24,1923.11,1922.01,
1945.12,1944.85,1943.92,1942.61,1941.01,1939.45,1937.64,1935.93,1934.06,1932.36,1930.16,1927.89,1926.19,1924.32,1922.62,1921.28,1919.34,1918.15,1918.15,1918.48,1919.11,1920.44,1921.69,1922.61,1923.8,1925.05,1925.86,1926.6,1927.43,1927.99,1928.34,1928.82,1929.8,1930.42,1930.7,1931.05,1930.55,1929.78,1929.16,1928.64,1927.41,1926.22,1924.87,1923.5,1921.87,1923.57,1921.73,1922.61,1923.58,1922.23,1920.64,1919.35,1919.01,1918.29,1917.72,1915.63,1916.44,1916.78,1917.18,1914.61,1914.83,1915.17,1915.91,1916.11,1913.3,1913.32,1909.69,1910.05,1914.52,1915.09,1915.42,1915.82,1917.11,1917.57,1917.73,1918.4,1919.46,1919.65,1920.05,1923.45,1922.95,1928.11,1928.02,1927.96,1927.87,1928.36,1928.82,1929.26,1926.92,1925.29,1926.67,1924.64,1925.9,1926.79,1926.91,1927.11,1927.52,1927.25,1925.77,1924.28,
1944.2,1943.6,1942.82,1941.45,1939.59,1937.99,1936.32,1934.52,1932.93,1931.03,1928.87,1926.96,1925.41,1923.96,1922.34,1921.3,1919.63,1918.81,1919.05,1919.8,1920.43,1922.07,1923.62,1924.55,1925.71,1927.1,1927.7,1928.42,1929.02,1929.34,1929.65,1930.05,1930.47,1930.74,1930.52,1930.99,1930.4,1929.77,1929.43,1928.94,1927.94,1927.39,1926.38,1925.49,1924.27,1926.36,1928.02,1925.95,1927.15,1925.65,1924.03,1922.49,1921.46,1920.32,1919.66,1917.02,1920.48,1917.35,1917.74,1914.69,1914.66,1914.75,1915.45,1915.47,1915.48,1915.67,1912.78,1913.01,1913.54,1914.28,1914.75,1915.47,1917.02,1917.82,1918.35,1919.49,1920.73,1921.23,1921.98,1928.77,1928.28,1927.55,1930.62,1930.77,1930.81,1931.11,1931.42,1931.87,1929.56,1930.91,1929.3,1927.31,1928.22,1929.36,1929.57,1929.61,1930.13,1929.65,1928.33,1926.5,
1942.72,1942.56,1941.71,1940.19,1938.28,1936.82,1935.18,1933.45,1931.78,1930.21,1928.14,1926.66,1925.39,1924.06,1922.78,1921.94,1920.69,1920.02,1920.56,1921.48,1922.28,1923.73,1925.4,1926.49,1927.65,1929.02,1929.85,1930.2,1930.66,1930.94,1930.78,1931.05,1931.2,1931.04,1931.15,1931.39,1930.81,1930.1,1929.92,1929.46,1928.98,1928.58,1928.34,1927.72,1927.1,1929.37,1931.39,1929.92,1930.96,1929.46,1927.77,1925.99,1924.46,1923.07,1921.99,1919.23,1922.18,1918.82,1921.92,1918.67,1915.39,1915.24,1915.73,1915.67,1915.53,1912.44,1908.8,1908.83,1913.51,1914.33,1915.09,1916.23,1918.12,1918.91,1919.6,1920.9,1922.28,1923.15,1924.05,1925,1930.82,1933.45,1933.71,1933.8,1933.67,1933.84,1934.24,1934.53,1931.92,1930.27,1928.58,1929.54,1930.64,1931.44,1931.59,1932.06,1932.35,1931.75,1930.17,1928.31,
1940.68,1940.53,1939.85,1938.4,1936.5,1935.18,1933.56,1931.99,1930.5,1929.08,1927.51,1926.15,1925.36,1924.29,1923.56,1923,1922,1921.7,1922.1,1923.06,1923.94,1925.73,1926.93,1928.24,1929.48,1930.46,1931.19,1931.37,1931.6,1931.62,1931.64,1932,1931.89,1931.62,1931.85,1932.17,1931.61,1931.43,1931.05,1930.71,1930.4,1930.58,1930.53,1930.7,1930.29,1936.25,1938.49,1937.19,1935.53,1933.96,1932.19,1930.08,1928.44,1926.54,1925.3,1922.05,1924.87,1924.24,1924.25,1920.64,1920.19,1916.7,1917.04,1916.96,1913.42,1913.63,1913.75,1909.84,1914.45,1915.38,1916.24,1917.71,1919.66,1920.67,1921.59,1922.94,1924.47,1925.33,1926.45,1930.58,1933.53,1936.06,1936.58,1936.42,1936.5,1936.57,1936.77,1936.95,1937.44,1935.65,1930.52,1931.64,1932.61,1933.58,1933.5,1933.51,1933.8,1932.93,1931.33,1929.52,
1938.99,1938.49,1938.07,1936.54,1934.77,1933.53,1931.86,1930.18,1929.37,1928.43,1926.87,1925.98,1925.49,1924.86,1924.11,1923.96,1923.42,1923.17,1923.83,1924.9,1925.92,1927.18,1928.66,1929.74,1930.68,1931.88,1932.43,1932.49,1932.76,1932.72,1932.83,1933.22,1933.04,1932.84,1933.33,1933.49,1933.27,1933.12,1933.22,1933.03,1932.74,1933.02,1933.41,1933.73,1933.73,1936.97,1939.23,1941.34,1940,1938.4,1936.38,1934.36,1929.46,1927.42,1926.13,1922.35,1924.71,1924.08,1926.96,1922.99,1922.39,1918.81,1918.78,1915.25,1914.68,1914.78,1914.98,1915.06,1915.83,1916.84,1917.65,1919.42,1921.34,1922.63,1923.55,1925.09,1926.12,1927.17,1928.65,1929.71,1929.79,1935.55,1936.13,1935.98,1935.62,1935.51,1935.29,1935.47,1935.77,1933.26,1931.07,1932.02,1932.97,1933.45,1933.41,1933.29,1933.34,1932.29,1930.59,1928.7,
1937.59,1937.45,1936.58,1935.18,1933.39,1932.35,1930.89,1929.62,1928.83,1928.02,1926.79,1926.3,1925.94,1925.7,1925.3,1925.31,1924.86,1924.87,1925.48,1926.62,1927.24,1928.74,1929.8,1930.9,1931.86,1932.53,1933.01,1933.25,1933.49,1933.53,1933.83,1934.39,1934.25,1934.33,1935.07,1935.69,1935.69,1935.74,1935.9,1935.64,1935.71,1936.05,1936.63,1937.26,1937.47,1940.42,1939.91,1942.2,1940.78,1938.32,1939.97,1937.83,1932.87,1930.74,1926.04,1922.09,1924.09,1923.41,1922.68,1922.18,1921.58,1920.71,1917.19,1916.48,1915.95,1916.08,1916.11,1916.22,1917.08,1918.08,1919.11,1920.8,1922.75,1924.11,1925.13,1926.57,1927.93,1928.85,1930.26,1931.39,1931.51,1931.64,1934.71,1937.53,1933.98,1933.53,1933.14,1932.8,1929.86,1930.24,1930.7,1931.25,1932.18,1932.36,1932.43,1932.18,1931.82,1930.73,1928.89,1926.71,
1936.39,1936.06,1935.29,1934,1932.36,1931.36,1929.95,1928.82,1928.14,1927.52,1926.64,1926.41,1926.51,1926.34,1926.21,1926.47,1925.99,1926.17,1926.77,1927.66,1928.22,1929.44,1930.37,1931.66,1932.29,1932.88,1933.29,1933.51,1933.65,1933.85,1934.17,1935.13,1935.03,1935.46,1936.21,1936.7,1936.98,1937.47,1937.56,1937.53,1937.54,1938.06,1938.9,1939.29,1939.6,1942.97,1942.46,1942.05,1946.69,1945.12,1942.87,1940.68,1935.54,1933.42,1931.9,1924.9,1923.67,1929.06,1925.1,1927.6,1923.64,1922.52,1914.99,1921.36,1916.89,1917.01,1917.13,1917.29,1918.15,1919.41,1920.62,1922.33,1924.33,1925.41,1926.65,1928.07,1929.09,1930.26,1931.71,1932.7,1932.63,1932.46,1938.82,1938.44,1937.82,1936.75,1935.86,1929.5,1929.21,1929.25,1929.62,1929.95,1930.37,1930.73,1930.47,1930.1,1929.83,1928.53,1926.49,1924.43,
1947.74,1935.37,1934.72,1933.32,1931.87,1930.91,1929.31,1928.5,1927.94,1927.49,1926.48,1926.51,1926.74,1926.81,1926.62,1926.99,1926.61,1926.96,1927.7,1928.28,1928.86,1929.84,1930.71,1931.92,1932.51,1933.15,1933.21,1933.59,1933.68,1934,1934.58,1935.36,1935.51,1935.96,1936.8,1937.49,1938,1938.28,1938.28,1938.28,1938.34,1939.01,1939.48,1940.21,1940.59,1940.98,1936.43,1939.16,1945.18,1942.7,1940.88,1942.49,1940.57,1935.45,1930.9,1927.09,1928.81,1930.83,1919.9,1922.8,1924.71,1920.19,1919.75,1918.62,1917.73,1917.69,1914.14,1913.98,1918.8,1920.04,1921.43,1923.18,1924.96,1926.3,1927.29,1928.66,1929.85,1930.75,1932.2,1933.07,1933.04,1935.75,1935.88,1941.32,1937.26,1936.09,1935.12,1934.28,1931.06,1927.68,1927.68,1923.86,1924.11,1928.15,1928.08,1927.46,1927.02,1925.29,1919.8,1917.56,
1955.24,1947.06,1934.2,1932.9,1931.4,1930.55,1929.02,1928.13,1927.49,1927,1926.27,1926.34,1926.57,1926.59,1926.62,1927.14,1926.81,1927.27,1927.81,1928.7,1929.01,1929.78,1930.46,1931.5,1932.2,1932.95,1933.31,1933.41,1933.65,1934.11,1934.39,1935.46,1935.68,1936.09,1936.92,1937.46,1937.77,1938.3,1938.19,1938.25,1938.14,1938.63,1939.19,1939.74,1940.31,1943.59,1940.39,1940.17,1944.53,1947,1941.42,1943.28,1938.31,1936.52,1932.1,1928.09,1933.34,1932.33,1931.68,1927.3,1926.33,1921.19,1920.48,1919.2,1918.26,1918.23,1918.11,1914.32,1919.01,1920.19,1921.65,1923.29,1924.64,1921.81,1926.95,1924.24,1929.2,1929.96,1931.33,1935.21,1935.1,1934.59,1934.65,1936.97,1932.46,1927.28,1930.21,1926.42,1925.89,1925.48,1925.36,1925.53,1921.63,1925.66,1921.62,1920.78,1924.03,1922.83,1920.94,1914.78,
1954.87,1954.5,1945.42,1932.06,1930.61,1929.52,1928.15,1927.17,1926.61,1926.01,1925.31,1925.52,1925.74,1925.68,1925.77,1926.49,1926.07,1926.71,1927.34,1927.96,1928.48,1929.27,1929.9,1930.88,1931.47,1932.27,1932.6,1932.81,1932.88,1933.6,1933.98,1935.02,1935.17,1935.55,1936.11,1936.57,1936.97,1937.26,1936.91,1936.69,1936.37,1936.56,1937.23,1937.93,1938.17,1938.65,1934.6,1938.73,1943.24,1942.52,1944.62,1942.98,1941.51,1940,1938.75,1931.92,1937.21,1933.14,1932.72,1928.25,1926.7,1929.34,1921.01,1919.67,1918.32,1918.29,1914.29,1918.07,1919.01,1920.21,1921.27,1922.43,1923.63,1920.87,1925.56,1926.92,1927.82,1928.57,1929.53,1933.19,1933.15,1939,1938.78,1937.58,1936.03,1930.7,1933.73,1932.57,1929.2,1928.78,1925.63,1922.7,1922.84,1918.84,1922.82,1922.07,1917.07,1919.51,1917.84,1915.74,
1954.6,1954.02,1952.78,1943.36,1930.05,1928.78,1927.33,1926.39,1925.85,1925.37,1924.63,1924.92,1925.01,1925.05,1924.93,1925.68,1925.42,1925.85,1926.66,1927.4,1927.76,1928.37,1928.78,1929.98,1933.44,1934.05,1931.65,1931.83,1935.1,1938.38,1938.7,1939.73,1934.21,1934.41,1934.85,1938.13,1938.16,1941.12,1937.59,1937.14,1933.83,1933.9,1937.55,1935.01,1941.32,1938.83,1931.89,1936.12,1945.13,1944.4,1943.3,1942.01,1940.73,1935.91,1938.7,1935.04,1937.28,1936.56,1932.71,1931.69,1930.52,1929.49,1924.81,1919.58,1918.05,1917.96,1917.7,1917.53,1918.37,1919.47,1920.04,1921.12,1922.15,1923.19,1923.69,1924.94,1925.96,1926.35,1927.05,1933.99,1933.63,1936.45,1936.36,1935.14,1933.48,1932.08,1931,1929.96,1926.41,1928.91,1922.78,1922.89,1920.06,1919.88,1919.84,1919.19,1918.17,1916.73,1915.25,1913.28,
1953.88,1953.39,1951.92,1950.4,1940.85,1927.78,1926.29,1925.58,1924.94,1924.19,1923.65,1923.69,1923.94,1923.92,1924.05,1924.66,1924.26,1924.61,1925.65,1926.21,1926.61,1927.34,1930.43,1931.48,1932.01,1932.6,1936.05,1936.2,1936.49,1936.92,1937.13,1935.34,1932.46,1932.43,1935.57,1935.82,1938.46,1938.4,1937.74,1937.32,1936.7,1930.51,1933.79,1931.12,1937.6,1935.04,1932.22,1932.84,1942.13,1941.76,1941.01,1940.11,1935.77,1934.69,1937.66,1934.15,1933.26,1935.87,1935.52,1931.2,1930.15,1921.41,1920.29,1919.11,1917.57,1917.12,1916.93,1912.85,1917.42,1918.42,1918.88,1919.61,1920.34,1921.24,1921.55,1922.83,1923.59,1923.72,1924.42,1931.22,1934.28,1933.95,1933.28,1931.99,1930.14,1928.83,1927.96,1926.83,1923.21,1922.93,1920.01,1920.12,1917.53,1917.55,1917.38,1916.66,1915.79,1914.42,1913.12,1911.33,
1953.43,1952.86,1951.24,1949.54,1944.09,1930.78,1925.45,1924.68,1924.03,1923.13,1922.45,1922.41,1922.37,1922.32,1922.12,1922.86,1922.62,1923.2,1924.16,1924.77,1925.11,1925.63,1928.65,1929.7,1930.07,1930.91,1934.36,1934.65,1931.86,1932.37,1935.18,1933.12,1935.84,1935.53,1932.82,1932.92,1932.65,1932.41,1931.83,1931.11,1927.33,1929.71,1927,1927.21,1927.53,1928.05,1927.99,1928.82,1938.61,1938.56,1937.94,1937.26,1937.03,1932.88,1932.32,1932.24,1931.61,1924.57,1931.04,1927.36,1932.91,1924.37,1923.45,1921.91,1920.26,1920.06,1919.88,1919.62,1920.2,1921.1,1921.35,1921.82,1922.43,1923.25,1923.38,1924.67,1925.4,1925.31,1925.79,1929.76,1935.77,1935.33,1934.88,1933.27,1931.37,1926.41,1925.54,1924.7,1917.85,1917.55,1917.38,1917.7,1915.12,1915.22,1915.19,1914.55,1913.75,1912.44,1911.32,1909.64,
