1068.35,1068.38,1068.19,1067.92,1067.54,1067.29,1066.87,1066.13,1065.11,1064.19,1063.12,1062.3,1061.7,1061.11,1060.16,1059.61,1059.18,1058.83,1058.4,1058.13,1057.68,1067.21,1056.82,1056.33,1055.82,1055.4,1054.97,1054.51,1054.09,1053.94,1053.59,1053.29,1053.15,1053.12,1052.94,1052.83,1052.89,1052.96,1053.02,1053.22,1053.33,1053.31,1053.17,1053.04,1052.94,1052.73,1052.4,1051.84,1051.22,1050.47,1049.8,1089.18,1087.59,1087,1086.36,1085.69,1084.19,1083.61,1083.22,1082.81,1082.42,1081.96,1081.61,1081.31,1081.05,1080.72,1080.53,1060.25,1059.85,1039.62,1039.39,1039.09,1048.94,1048.83,1048.58,1048.38,1048.15,1047.98,1087.65,1087.28,1086.82,1086.25,1085.6,1085.05,1084.4,1083.75,1083.19,1082.56,1081.91,1081.29,1080.74,1081.46,1079.92,1079.51,1079.99,1079.49,1080.1,1079.64,1079.26,1068.73,1058.04,1057.28,1056.63,1046.09,1025.49,1024.95,1024.41,1024.01,1023.18,1022.76,1022.67,1022.28,1022.08,1022.09,1022.02,1020.86,1020.7,1020.91,1020.65,1020.26,1019.31,1019.42,1019.25,1018.96,1018.6,1018.08,1017.79,1017.56,1017.4,1017.11,1016.9,1016.93,1016.96,1017.07,1017.28,1017.33,1017.59,1017.72,1017.76,1017.71,1017.54,1017.41,1017.5,1017.63,1017.89,1017.98,1018.05,1018.1,1018.03,1018.05,1018.09,1017.82,1017.41,1016.95,1016.58,1016.22,1015.84,1015.34,1014.73,1015.32,1014.05,1013.85,1013.65,1013.37,1013.13,1012.84,1012.72,1012.54,1012.24,1011.87,1011.77,1011.36,1010.82,1011.3,1009.68,1010.02,1009.54,1008.96,1008.61,1009.2,1008.33,1008.2,1008.04,1007.7,1007.51,1007.27,1006.97,1006.68,1006.63,1005.56,1044.35,1044.26,1044.2,1044.05,1043.86,1043.93,1043.84,1043.79,1043.7,1043.5,1043.35,1043.28,1043.08,1042.86,1042.39,1042.19,1022.01,1021.74,1021.48,1021.2,1020.78,1020.48,1010.3,1000.2,999.975,999.747,1000.47,1001.21,1000.72,1000.3,999.872,999.393,998.962,998.467,996.693,996.278,996.206,995.964,995.801,995.773,994.686,994.721,994.866,995.194,995.384,995.033,995.04,994.929,994.531,994.011,993.56,993.032,992.262,991.362,992.018,991.52,991.167,991.12,991.159,991.154,991.479,992.062,992.454,992.685,1003.05,1034.43,1034.6,1034.85,1045.05,1045.04,1044.91,1045.39,1045.14,1023.72,1023.48,1013.17,1011.64,1012.25,1001.76,990.191,989.121,989.824,999.426,1009.11,1038.96,1038.8,1039.68,1039.62,1039.46,1039.45,1039.27,1037.82,1036.27,1035.61,1036.08,1025.26,1024.91,1024.11,1033.35,1031.76,1032.42,1032.24,1033.16,981.04,981.364,982.222,982.39,982.436,982.59,982.67,982.735,981.733,981.709,981.487,981.206,980.926,980.708,980.32,979.448,978.532,977.433,976.382,975.388,974.536,974.629,973.648,971.753,972.17,971.604,971.196,970.804,971.53,970.023,969.299,968.641,969.226,968.989,968.969,968.979,969.129,969.281,969.463,969.94,970.262,970.517,970.513,990.284,1019.93,1019.51,1018.08,1017.64,1017.28,1017,1016.7,1016.47,1016.55,1016.54,1016.62,1016.55,1016.65,1016.71,1016.57,1016.45,1016.47,1017.28,1017.05,1016.86,1015.54,1015.15,1015.86,1014.62,1014.29,1013.96,1013.72,1013.6,1013.61,1013.52,1013.51,963.393,963.235,963.034,962.924,961.716,961.296,960.731,960.506,960.102,959.719,960.348,960.084,959.724,960.221,959.83,959.383,958.771,957.328,958.02,957.501
1067.3,1067.36,1067.2,1067.09,1066.76,1066.51,1066.16,1065.42,1064.53,1063.66,1062.63,1061.72,1061.09,1060.48,1059.58,1059.02,1058.62,1058.29,1057.82,1057.56,1057.14,1066.76,1056.36,1055.88,1055.41,1055.07,1054.63,1054.18,1053.8,1053.56,1053.17,1052.8,1052.61,1052.57,1052.44,1052.33,1052.4,1052.54,1052.65,1052.86,1052.95,1053.01,1052.91,1052.81,1052.71,1052.48,1052.18,1051.57,1050.99,1050.22,1049.58,1088.94,1088.43,1086.75,1086.1,1085.46,1083.91,1083.31,1082.93,1082.49,1082.11,1081.56,1081.15,1080.66,1080.33,1079.93,1079.69,1059.35,1058.96,1038.72,1038.41,1038.13,1048.07,1047.96,1047.75,1047.54,1047.29,1047.09,1086.74,1086.42,1085.98,1085.39,1084.83,1084.3,1083.64,1083.05,1082.53,1081.92,1081.36,1080.85,1080.46,1081.18,1080.79,1080.47,1080.1,1079.55,1080.16,1079.68,1079.26,1068.69,1057.97,1057.12,1056.47,1045.79,1025.13,1024.55,1023.93,1022.47,1021.64,1022.27,1022.16,1021.73,1021.52,1021.5,1020.42,1020.23,1019.96,1020.02,1018.66,1018.3,1018.38,1018.59,1018.47,1018.21,1017.9,1017.53,1017.34,1017.11,1016.98,1016.73,1016.42,1016.32,1016.32,1016.4,1016.52,1016.58,1016.76,1016.91,1016.99,1016.99,1016.91,1016.87,1017.05,1017.27,1017.49,1017.69,1017.81,1017.91,1017.88,1017.94,1018,1017.65,1017.18,1016.67,1016.13,1015.69,1015.22,1014.74,1014.19,1013.7,1013.48,1013.34,1013.14,1012.98,1012.74,1012.51,1012.35,1012.17,1011.9,1011.56,1011.43,1010.91,1010.28,1009.62,1008.99,1008.26,1007.7,1008.09,1008.72,1008.16,1006.25,1007.18,1007.02,1006.77,1006.62,1006.49,1006.33,1006.22,1006.28,1046.41,1044.33,1044.41,1044.46,1044.46,1044.31,1044.36,1044.24,1044.11,1044,1043.69,1043.52,1043.4,1043.13,1042.86,1042.43,1022.22,1021.96,1021.65,1021.26,1020.87,1020.41,1010,999.823,999.695,999.452,999.227,998.886,999.663,1000.28,999.872,999.438,998.912,998.453,997.905,997.269,994.671,995.416,994.123,993.972,993.997,994.036,994.006,994.144,994.404,994.583,994.56,994.52,994.379,993.995,993.569,993.128,992.606,991.841,990.975,990.598,990.197,990.031,991.186,990.18,990.239,990.563,991.161,991.534,991.768,1002.07,1014.41,1034.46,1034.55,1044.65,1044.54,1044.22,1044,1023.71,1023.3,1010.84,1010.51,1010.06,999.696,989.245,988.826,988.41,998.082,1007.79,1017.51,1027.4,1037.28,1038.2,1039.15,1039.05,1039.04,1038.87,1038.56,1035.96,1035.38,1024.72,1013.93,1023.66,1032.88,1032.17,1031.6,1031.24,1032.02,980.798,980.799,981.062,980.799,980.905,980.9,980.976,980.943,980.896,980.93,980.838,980.551,980.205,979.852,979.672,979.241,978.488,977.521,976.429,975.349,974.322,973.395,972.402,971.33,970.406,969.715,969.21,969.912,969.554,969.142,969.843,967.004,966.451,968.209,968.069,967.063,967.204,967.462,966.667,969.033,969.571,969.908,970.251,970.162,969.739,989.283,1018.83,1018.42,1016.9,1015.51,1015.24,1014.99,1014.88,1015.19,1015.28,1015.47,1015.52,1015.69,1015.77,1015.66,1015.57,1016.53,1015.21,1016.93,1016.62,1016.29,1015.83,1015.44,1014.12,1012.76,1012.34,1012.14,1012.08,1012.1,1012,1012.04,1011.98,961.88,961.771,961.733,961.58,961.178,960.678,960.431,959.972,959.607,959.229,958.911,959.594,958.088,959.827,959.416,957.774,958.514,958.172,957.596
1066.25,1066.23,1066.22,1066.26,1066.06,1065.81,1065.48,1064.82,1063.99,1063.19,1062.11,1061.21,1060.51,1059.83,1059.02,1058.5,1058.07,1057.71,1057.25,1056.94,1066.61,1066.29,1105.93,1105.56,1105.12,1104.86,1104.41,1103.98,1103.63,1103.4,1102.94,1102.62,1102.41,1102.32,1102.2,1102.12,1102.22,1102.34,1102.47,1102.67,1102.74,1102.81,1102.73,1102.62,1102.51,1102.3,1101.96,1101.38,1100.85,1100.11,1099.42,1098.81,1098.29,1097.67,1096.01,1095.33,1093.82,1093.17,1092.74,1092.29,1091.82,1091.2,1090.69,1090.03,1089.63,1089.22,1088.85,1088.5,1088.07,1087.76,1087.51,1087.24,1087.21,1087.15,1086.89,1086.63,1086.36,1086.17,1085.82,1085.47,1085.1,1084.59,1084.02,1083.5,1082.85,1082.28,1081.8,1081.3,1080.85,1080.37,1080.06,1079.9,1080.65,1071.52,1081.16,1080.6,1080.21,1079.77,1079.34,1078.8,1078,1077.12,1076.38,1075.63,1074.94,1074.33,1073.75,1073.23,1062.28,1061.84,1061.62,1061.19,1060.93,1060.8,1059.58,1059.36,1059.09,1059.14,1057.77,1057.43,1057.59,1057.83,1057.84,1057.7,1057.6,1057.37,1057.29,1057.13,1057,1056.76,1056.44,1056.13,1055.98,1055.89,1055.88,1055.84,1055.92,1056.03,1056.09,1056.11,1056.06,1056.06,1056.26,1056.5,1056.76,1057.05,1057.25,1057.4,1057.45,1057.53,1057.59,1057.2,1056.7,1056.05,1055.45,1055.03,1054.5,1054.04,1053.5,1053.13,1053.98,1052.84,1052.73,1052.63,1052.44,1052.23,1052.14,1051.98,1051.75,1051.39,1051.22,1050.65,1049.86,1049.1,1048.36,1047.57,1046.9,1048.33,1046.69,1047.19,1046.15,1046.04,1045.87,1045.66,1045.62,1045.62,1045.55,1045.58,1045.74,1056,1055.16,1054.28,1054.44,1054.53,1054.4,1054.43,1054.36,1054.17,1053.97,1053.61,1053.34,1053.13,1052.83,1052.49,1052.05,1051.77,1051.48,1051.16,1050.68,1050.23,1049.74,1049.3,1049.22,1049.05,1048.8,1048.58,1048.24,1049.07,1048.62,1049.35,1048.96,1048.46,1048.02,1047.48,1046.86,1046.43,1046.15,1044.86,1044.77,1043.7,1043.73,1043.73,1033.83,1034.07,1034.19,1034.16,1034.12,1033.91,1033.52,1033.12,1032.73,1032.27,1031.55,1030.75,1020.49,1010.22,1000.2,1001.47,1001.61,1001.68,1001.91,1003.65,1003.95,1004.13,1004.35,1004.39,1014.34,1014.29,1014.32,1034.08,1033.62,1033.32,1042.88,1041.37,1039.94,1039.65,1019.25,1018.81,1018.41,1018.03,1017.69,1017.41,1017.16,1016.9,1016.84,1026.74,1036.61,1038.7,1038.64,1038.6,1028.47,998.196,987.846,985.17,985.666,983.857,983.598,1022.95,1032.34,1031.77,1031.34,1031.05,1031.81,1030.68,1030.85,1030.54,1030.51,1030.38,1030.3,1020.17,1020.07,1020.04,1019.91,1019.62,1019.28,1018.92,1018.79,1018.54,1017.9,1017.06,1016,1014.89,1013.9,1012.8,1011.71,1010.54,1009.48,1008.77,1008.26,1007.84,1008.53,1008.23,1006.79,1007.46,1006.06,1007.93,1007.91,1006.94,1007.07,1006.29,1007.68,1018.94,1019.27,1019.47,1019.69,1019.44,1018.98,1018.47,1017.99,1017.54,1016.02,1014.62,1014.43,1014.22,1014.24,1014.65,1014.87,1015.14,1015.25,1015.53,1015.67,1015.59,1015.48,1015.37,1015,1014.56,1016.22,1015.76,1015.24,1014.79,1014.5,1013.07,1011.59,1011.42,1011.37,1011.44,1011.35,1011.39,1011.35,1011.33,1001.29,1001.31,1001.25,1000.87,1000.4,1000.14,999.73,999.334,988.923,978.638,968.285,968.948,959.715,959.391,958.818,958.56,958.299,957.768
1065.18,1065.22,1065.36,1065.47,1065.3,1065.14,1064.85,1064.24,1063.39,1062.64,1061.67,1060.7,1060.03,1059.25,1058.53,1058,1057.56,1057.18,1056.63,1056.37,1106.09,1105.84,1105.56,1105.22,1104.91,1104.68,1104.28,1103.92,1103.55,1103.32,1102.89,1102.56,1102.32,1102.21,1102.07,1102.02,1102.13,1102.21,1102.32,1102.41,1102.47,1102.54,1102.48,1102.38,1102.26,1101.96,1101.64,1101.1,1100.59,1099.9,1099.29,1098.68,1098.21,1096.52,1095.98,1094.28,1093.83,1093.23,1092.74,1092.29,1091.77,1091.04,1090.48,1089.76,1089.28,1088.8,1088.39,1087.97,1087.54,1087.2,1086.9,1086.57,1086.61,1086.41,1086.18,1085.9,1085.61,1085.39,1085.05,1084.73,1084.37,1063.86,1063.35,1052.81,1052.17,1051.64,1051.22,1040.69,1040.29,1039.88,1039.61,1039.52,1040.36,1041.25,1050.93,1080.49,1080.11,1079.7,1079.3,1078.7,1077.96,1077,1076.19,1075.51,1074.82,1074.11,1073.41,1072.84,1071.91,1071.34,1061.13,1060.59,1060.27,1058.98,1058.69,1058.41,1058.07,1058.09,1056.72,1056.43,1056.56,1056.85,1056.97,1057.03,1057.02,1056.9,1056.88,1056.74,1056.64,1056.44,1056.1,1055.7,1055.37,1055.11,1054.97,1054.84,1054.88,1054.89,1054.91,1054.89,1054.87,1054.93,1055.18,1055.47,1055.83,1056.11,1056.35,1056.51,1056.6,1056.73,1056.81,1056.47,1055.91,1055.28,1054.68,1054.25,1053.79,1053.34,1052.91,1053.6,1053.51,1053.5,1052.43,1052.46,1052.37,1052.18,1052.13,1052,1051.81,1051.48,1051.28,1050.65,1049.7,1048.82,1047.96,1047.08,1047.32,1047.55,1045.86,1046.32,1045.09,1044.91,1044.74,1044.63,1044.64,1044.78,1054.82,1054.88,1055.16,1055.51,1054.8,1055.1,1054.24,1054.38,1054.23,1054.24,1054.17,1053.94,1053.69,1053.28,1052.9,1052.56,1052.17,1051.86,1051.38,1051.1,1050.83,1050.46,1049.99,1049.57,1049.15,1048.76,1048.58,1048.45,1048.2,1047.94,1047.63,1048.43,1049.06,1048.73,1048.34,1047.97,1047.58,1047.09,1046.51,1046.13,1045.89,1045.76,1045.69,1043.61,1043.63,1043.59,1043.64,1043.84,1043.94,1043.86,1043.77,1043.51,1033.11,1032.77,1032.44,1032.02,1031.39,1030.72,1031.65,1021.44,1021.52,1011.8,1003.05,1002.05,1003.32,1004.06,1004.41,1004.5,1004.6,1004.63,1004.47,1004.3,1004.24,1004,1003.71,1002.96,1002.5,1000.92,1020.55,1021.25,1019.74,1019.28,1019.91,1018.46,1018.12,1017.85,1017.67,1017.42,1007.36,997.296,997.239,997.253,988.315,988.313,988.191,987.96,987.67,987.232,985.711,983.917,983.612,983.027,1002.56,1032.08,1031.61,1031.3,1031.96,1031.75,1031.75,1031.34,1030.17,1029.86,1029.5,1029.29,1029.08,1029.19,1029.07,1029.87,1028.48,1028.24,1028.26,1029.21,1027.64,1026.88,1025.88,1024.8,1023.73,1022.61,1021.39,1020.01,1018.9,1019.17,1019.62,1018.02,1018.7,1018.42,1018.32,1018.22,1018.11,1018.01,1017,1017.11,1017.28,1017.53,1017.76,1017.89,1018.99,1018.97,1019.02,1018.65,1018.18,1017.65,1017.18,1016.78,1016.38,1016.04,1014.82,1014.66,1014.79,1014.24,1015.59,1015.91,1016.02,1016.25,1016.37,1016.32,1016.24,1016.11,1015.62,1015.03,1015.49,1014.97,1014.47,1014,1013.66,1012.22,1011.76,1011.64,1011.65,1011.77,1011.72,1011.76,1011.69,1011.66,1011.61,1011.61,1010.54,1000.17,999.671,999.453,999.058,998.717,998.382,998.082,999.828,978.564,969.5,958.248,958.79,958.637,958.435,957.948
1064.28,1064.32,1064.51,1064.67,1064.58,1064.44,1064.15,1063.56,1062.77,1062.13,1061.16,1060.3,1059.56,1058.84,1058.17,1057.58,1057.11,1056.76,1056.25,1055.96,1105.75,1105.57,1105.38,1105.19,1104.91,1104.7,1104.39,1104.07,1103.76,1103.49,1103.07,1102.73,1102.44,1102.22,1102.08,1102.02,1102.07,1102.1,1102.17,1102.18,1102.16,1102.17,1102.12,1101.99,1101.84,1101.54,1101.23,1100.75,1100.3,1099.66,1099.09,1098.58,1097.02,1096.48,1094.85,1094.3,1093.83,1093.27,1092.87,1092.35,1091.79,1091.02,1090.37,1089.67,1089.1,1088.59,1088.13,1087.69,1087.17,1086.85,1086.48,1086.16,1086.07,1085.85,1085.55,1085.25,1084.94,1084.72,1084.35,1084.06,1063.69,1053.26,1052.71,1052.15,1041.53,1041,1040.57,1040.1,1039.7,1039.35,1039.13,1038.98,1040.93,1040.84,1040.58,1040.12,1049.76,1059.46,1059.04,1068.44,1077.64,1066.73,1075.96,1075.26,1074.57,1073.79,1073.09,1052.46,1051.48,1040.86,1040.59,1040.04,1038.52,1038.14,1037.68,1037.28,1035.85,1035.88,1035.51,1035.22,1035.33,1035.59,1035.77,1035.99,1036.1,1036.05,1036.07,1036.06,1036.07,1035.94,1035.57,1035.15,1034.74,1034.38,1034.1,1033.79,1033.71,1033.65,1033.64,1033.65,1033.64,1033.68,1033.93,1034.26,1034.59,1034.95,1035.18,1035.4,1035.46,1035.68,1035.81,1035.45,1034.93,1034.32,1033.79,1033.35,1032.99,1032.6,1032.3,1033.06,1033,1033.14,1033.25,1032.38,1032.31,1032.17,1032.14,1032.11,1031.91,1031.56,1031.35,1030.67,1029.68,1028.73,1027.8,1027.82,1026.86,1027.05,1036.29,1035.55,1034.15,1033.87,1033.69,1043.53,1043.57,1043.89,1034.03,1034.18,1033.4,1034.86,1035.37,1035.68,1034.84,1033.9,1033.69,1033.56,1033.44,1033.08,1042.82,1052.43,1052.03,1051.6,1051.2,1050.88,1050.57,1050.33,1050.22,1049.9,1049.42,1049.15,1048.88,1048.49,1048.31,1048.2,1047.86,1047.61,1047.3,1046.94,1047.6,1047.23,1047.9,1047.56,1047.2,1046.75,1046.28,1045.98,1045.81,1045.69,1045.71,1044.73,1043.69,1043.63,1043.71,1043.77,1043.82,1043.65,1043.4,1043.08,1042.71,1042.43,1042.11,1032.82,1031.16,1020.6,1020.55,1010.59,1001.88,1003.3,1002.43,1003.62,1003.78,1004.51,1004.87,1004.9,1005.02,1004.93,1004.55,1004.24,1004.04,1003.74,1003.35,1002.6,1002.1,1001.57,1001.1,1000.75,1000.3,999.74,999.305,998.976,998.699,998.33,998.154,996.83,997.775,987.815,987.89,988.033,988.059,988.038,988.025,987.743,987.542,987.078,986.598,985.77,984.349,982.598,1004.21,1003.83,1013.44,1023.05,1032.65,1032.38,1032.33,1031.92,1031.65,1029.19,1029.65,1030.35,1030.17,1029.18,1030.1,1029.84,1029.55,1029.38,1029.5,1029.55,1029.12,1027.35,1026.43,1025.33,1024.31,1024.14,1022.92,1021.46,1020.32,1019.61,1019,1018.48,1018.04,1017.76,1017.78,1017.95,1018.12,1018.21,1018.35,1018.4,1018.47,1017.65,1018.89,1018.92,1018.76,1018.58,1018.4,1017.86,1017.44,1017.07,1016.68,1016.36,1015.95,995.636,985.451,985.297,985.418,985.848,986.105,986.367,986.49,986.683,986.66,986.557,986.421,986.156,985.619,984.984,984.376,983.797,983.219,982.784,982.435,980.979,980.589,980.548,981.684,981.936,981.973,982.069,992.034,991.998,991.969,1002.01,1011.9,1011.5,1010.97,1010.66,1000.2,999.9,979.622,969.318,959.141,958.125,959.186,959.059,958.704,958.583,958.404,958.025
1063.58,1063.56,1063.75,1063.98,1063.81,1063.67,1063.43,1062.86,1062.19,1061.61,1060.8,1059.99,1059.32,1058.64,1057.9,1057.35,1056.84,1056.49,1056.01,1055.75,1105.62,1105.52,1105.41,1105.29,1105.09,1104.93,1104.66,1104.39,1104.07,1103.73,1103.26,1102.84,1102.5,1102.21,1102.06,1101.96,1101.94,1101.92,1101.87,1101.81,1101.72,1101.71,1101.61,1101.49,1101.26,1101.03,1100.71,1100.34,1099.96,1099.46,1098.96,1068.51,1067.03,1065.48,1065.04,1064.53,1064.02,1063.44,1062.99,1062.52,1061.89,1061.12,1060.45,1059.62,1059.02,1058.52,1065.25,1087.46,1086.93,1086.55,1086.16,1085.78,1075.62,1075.39,1075,1084.72,1084.31,1084.05,1083.74,1053.45,1043.1,1042.66,1042.15,1041.57,1030.9,1030.4,1029.97,1029.49,1029.06,1028.67,1028.47,1028.33,1030.32,1040.17,1039.98,1039.57,1039.27,1038.95,1048.49,1057.93,1067.19,1066.3,1065.59,1064.88,1074.28,1063.51,1051.77,1051.14,1031.13,1030.56,1030.25,1029.61,1027.97,1027.34,1026.72,1026.18,1024.7,1024.72,1024.41,1024.1,1024.1,1024.27,1024.38,1024.58,1024.71,1024.71,1024.84,1024.9,1024.92,1024.86,1024.59,1024.26,1023.82,1023.43,1023.08,1022.68,1022.49,1022.38,1022.34,1022.39,1022.46,1022.52,1022.72,1022.97,1023.31,1023.62,1023.82,1023.99,1024.04,1024.22,1024.32,1024.15,1023.61,1023.08,1022.6,1022.32,1022.05,1022.86,1022.62,1023.45,1023.41,1023.57,1022.81,1023.16,1022.23,1022.18,1022.2,1022.17,1021.99,1021.79,1021.6,1020.85,1019.8,1018.75,1018.74,1017.67,1016.56,1016.66,1015.84,1015.07,1023.56,1023.17,1022.86,1022.71,1022.64,1023.07,1023.2,1023.33,1023.7,1024.14,1024.55,1014.91,1015.11,1015.27,1022.79,1023.51,1032.3,1032,1031.75,1051.42,1051.02,1050.56,1050.21,1050.11,1049.95,1050.08,1050.16,1049.94,1049.68,1049.5,1049.34,1049.09,1048.97,1048.89,1048.54,1048.06,1047.81,1047.18,1046.76,1046.34,1047.97,1046.47,1046.09,1046.84,1046.44,1046.22,1036.08,1036.06,1035.08,1026.52,1025.6,1024.55,1024.58,1024.54,1024.54,1024.3,1024.01,1023.59,1022.98,1022.65,1022.29,1023,1022.55,1022.13,1011.01,1002.18,1003.54,1003.94,1004.19,1004.32,1004.54,1004.89,1005.25,1005.2,995.133,994.889,994.191,993.604,993.177,992.686,992.347,1001.61,1001.05,1000.41,999.993,999.685,999.26,998.703,998.339,998.103,997.805,997.46,997.335,987.049,986.934,987.006,987.208,987.397,987.457,987.445,987.461,987.209,986.983,986.505,985.954,985.164,984.592,992.76,993.212,1012.85,1012.51,1012.16,1011.86,1011.58,1011.43,1011.04,1010.84,1010.46,1007.71,1008.29,1009.05,1009.06,1008.98,1008.74,1008.5,1008.45,1008.7,1008.84,1008.5,1007.8,1006.86,1005.89,1004.86,1003.7,1002.42,1000.95,999.775,999.039,998.508,998.055,997.595,997.3,997.402,997.774,998.013,998.305,998.42,998.361,998.34,998.579,998.773,998.734,998.454,998.278,997.879,997.338,996.92,996.694,996.288,996.063,995.646,995.29,985.038,974.914,975.001,975.377,975.508,975.625,975.642,975.759,975.694,975.469,975.305,975.025,974.402,973.685,973.108,972.52,971.866,971.386,971.042,969.707,969.372,970.401,970.572,970.878,969.99,971.036,970.985,970.951,980.894,980.903,990.733,990.319,989.772,989.42,989.037,988.739,988.489,978.279,968.277,968.362,968.552,958.5,958.235,958.209,958.122,957.814
1062.9,1062.82,1062.97,1063.2,1063.04,1062.91,1062.72,1062.18,1061.56,1061.2,1060.57,1059.88,1059.22,1058.54,1057.81,1057.28,1056.84,1056.48,1055.95,1055.67,1095.6,1095.53,1105.56,1105.51,1105.35,1105.18,1104.91,1104.66,1104.34,1103.9,1103.38,1102.82,1102.43,1102.11,1101.91,1101.77,1101.68,1101.57,1101.46,1101.28,1101.15,1101.1,1100.94,1100.81,1100.65,1100.39,1100.17,1099.87,1099.58,1099.25,1098.86,1058.46,1057.08,1055.65,1055.24,1054.81,1054.34,1053.76,1053.23,1052.71,1052.15,1051.38,1050.65,1049.85,1049.18,1048.59,1055.41,1087.45,1086.92,1086.47,1086.03,1085.55,1075.29,1074.96,1084.61,1084.22,1083.82,1083.5,1083.11,1042.84,1032.49,1032.08,1031.58,1031.03,1030.39,1029.85,1029.43,1028.87,1028.42,1028.07,1027.82,1028.67,1028.55,1028.39,1028.19,1027.79,1037.51,1038.2,1047.79,1057.22,1066.6,1065.67,1065,1073.24,1072.7,1071.99,1070.25,1069.65,1068.66,1058.05,1058.68,1058.01,1057.3,1056.47,1044.71,1044.07,1043.58,1043.54,1043.19,1042.85,1042.77,1042.74,1042.79,1043.05,1043.26,1043.25,1043.31,1043.45,1043.52,1043.5,1043.35,1043.07,1042.68,1052.29,1051.92,1051.51,1051.25,1051.11,1051.07,1051.16,1051.29,1051.38,1051.6,1051.89,1042.15,1042.34,1042.43,1042.54,1042.55,1042.78,1043,1042.83,1042.26,1041.83,1041.42,1041.28,1041.08,1040.98,1041.85,1042.77,1042.74,1043.07,1042.39,1042.94,1043.16,1042.16,1042.13,1042.12,1041.99,1041.81,1041.59,1040.76,1039.59,1040.56,1039.42,1038.28,1037.2,1036.11,1045.18,1044.29,1042.67,1042.3,1041.87,1042.04,1031.87,1032.17,1032.33,1032.41,1032.75,1033.23,1033.62,1034,1034.02,1034.19,1043.73,1053.36,1052.11,1051.87,1051.51,1052.26,1049.8,1049.43,1049.14,1049.02,1048.99,1049.17,1049.27,1049.1,1048.96,1048.86,1048.88,1048.81,1048.79,1048.74,1048.43,1048.11,1047.97,1047.48,1048.12,1047.67,1047.12,1045.55,1046.29,1046.01,1045.69,1046.52,1046.4,1046.4,1045.63,1046.18,1047.54,1047.7,1045.68,1046.74,1046.77,1045.53,1046.42,1046.04,1045.36,1044.99,1044.72,1045.46,1034.93,1034.46,1033.31,1033.31,1023.49,1013.89,1004.23,994.181,995.362,995.697,995.982,995.742,995.42,994.924,994.07,993.161,992.578,991.976,991.527,990.765,990.196,989.547,989.103,988.801,998.384,997.862,997.615,987.324,987.105,986.776,986.706,986.414,986.335,986.437,986.685,986.853,986.969,986.903,986.953,986.739,986.492,985.965,985.383,984.515,1013.87,1023.01,1031.32,1030.91,1031.55,1031.15,1030.76,1030.45,1030.32,1029.94,1029.79,1029.45,1028.79,1027.24,1028.05,1028.08,1027.98,1027.76,1027.58,1027.51,1027.8,1027.94,1027.61,1026.9,1025.96,1025.02,1023.99,1022.73,1021.5,1020.1,1018.98,1018.37,1017.86,1017.38,1016.99,1016.76,1016.97,1017.51,1018,1018.47,1018.67,1016.64,1017.69,1016.93,1018.22,1017.19,1017.86,1018.57,1017.99,1017.36,1016.8,1016.57,1016.18,1016.02,1015.67,1015.33,1014.03,1013.9,1015.01,1004.46,1005.46,1005.46,1005.33,1005.39,1005.15,1004.84,1004.6,1004.22,1003.53,1002.85,1002.25,1001.55,1000.83,1000.36,1000.02,998.604,999.3,999.339,999.458,998.642,998.618,998.674,999.626,999.55,1009.44,1009.4,1009.14,1008.8,1008.42,1008.11,1007.76,1007.45,1007.25,1007.11,987.169,987.415,987.745,987.776,977.604,967.674,957.616,957.37
1062.51,1062.52,1062.65,1062.89,1062.72,1062.52,1062.37,1062,1061.46,1061.2,1060.68,1060.04,1059.43,1058.78,1058.1,1057.58,1057.17,1056.77,1056.17,1055.88,1095.75,1095.77,1105.86,1105.75,1105.59,1105.38,1105.12,1104.86,1104.45,1103.96,1103.36,1102.73,1102.24,1101.86,1101.64,1101.4,1101.24,1101.1,1100.95,1100.77,1100.6,1100.53,1100.43,1100.27,1100.07,1099.87,1099.64,1099.41,1099.24,1098.97,1098.64,1057.24,1056.97,1055.61,1055.32,1054.94,1054.53,1053.96,1053.46,1053.02,1052.44,1051.64,1050.95,1050.07,1049.37,1048.8,1055.39,1087.55,1086.94,1086.3,1085.8,1085.25,1074.87,1074.46,1084.01,1083.58,1083.07,1082.72,1082.38,1042.03,1031.71,1031.28,1030.83,1030.21,1029.57,1029.07,1028.59,1027.97,1027.48,1027.14,1026.84,1026.59,1026.47,1026.27,1026.04,1025.63,1036.42,1036.1,1046.83,1056.31,1065.7,1064.88,1064.23,1072.53,1072,1071.3,1059.6,1058.93,1058.19,1057.51,1047.1,1046.34,1045.62,1044.63,1043.84,1043.14,1042.59,1042.24,1041.84,1041.37,1041.2,1041.09,1041.05,1041.27,1041.54,1041.59,1041.62,1041.75,1041.92,1042,1041.95,1041.7,1041.29,1040.85,1040.46,1040.17,1039.85,1039.74,1039.66,1039.68,1039.83,1039.97,1040.14,1040.36,1040.61,1040.76,1040.76,1040.88,1040.9,1041.07,1041.3,1041.24,1040.87,1040.58,1040.4,1040.39,1040.31,1041.41,1042.37,1042.4,1042.46,1042.77,1043.17,1043.6,1042.83,1042.84,1042.76,1042.71,1042.57,1042.36,1042.18,1042.19,1041.01,1039.87,1038.77,1037.81,1036.78,1035.63,1034.52,1033.59,1032.04,1031.61,1031.19,1031.31,1031.14,1031.35,1031.41,1031.49,1031.7,1032.09,1032.35,1032.65,1032.52,1032.59,1032.17,1031.77,1031.53,1041.22,1049.85,1049.54,1050.19,1049.81,1049.6,1049.55,1048.56,1048.88,1049.04,1048.98,1048.9,1048.9,1048.98,1048.98,1050.06,1049.99,1049.69,1049.39,1049.3,1048.93,1048.63,1048.06,1046.47,1045.98,1044.64,1046.49,1046.17,1045.85,1045.67,1045.68,1045,1045.63,1036.96,1037.31,1036.42,1036.54,1036.63,1036.6,1036.52,1036.25,1035.6,1035.3,1035.95,1035.46,1034.8,1034.37,1034.2,1024.2,1013.36,1003.9,1004.39,995.597,995.853,996.02,996.245,995.966,995.56,994.788,993.801,992.699,992.076,991.455,991.003,990.267,989.672,989.071,988.694,988.363,987.958,987.458,987.193,986.949,986.71,986.355,986.284,985.986,985.852,985.954,986.215,986.332,986.393,986.313,986.399,986.137,984.847,985.255,984.607,1013.63,1012.78,1021.8,1021.14,1019.66,1019.17,1019.73,1019.32,1018.94,1018.85,1018.63,1018.49,1018.11,1017.43,1016.88,1016.75,1016.84,1016.83,1016.65,1016.49,1016.43,1016.7,1016.9,1016.55,1015.83,1014.85,1013.91,1012.83,1011.56,1010.32,1008.95,1007.9,1007.38,1006.99,1006.6,1006.31,1006.07,1006.37,1007.1,1006.67,1007.27,1008.51,1007.49,1006.52,1008.82,1009.17,1009.2,1008.84,1006.56,1005.97,1005.25,1004.58,1005.27,1005.86,1005.71,1005.37,1005,1004.68,1004.59,1004.7,1005.16,1005.25,995.149,994.913,994.887,994.633,994.247,993.902,993.495,992.765,991.975,991.315,990.582,989.849,989.352,988.963,988.575,987.244,987.3,988.299,988.393,988.31,987.335,988.216,998.096,997.965,997.928,997.651,997.442,997.239,996.96,996.681,996.448,986.247,986.18,986.402,976.714,977.025,977.109,966.959,967.093,957.16,956.988
1062.17,1062,1062.14,1062.39,1062.27,1062.14,1061.95,1061.62,1061.32,1061.2,1060.89,1060.39,1059.84,1059.21,1058.62,1058.19,1057.79,1057.42,1056.83,1056.42,1096.26,1096.24,1106.31,1106.15,1105.9,1105.57,1105.29,1104.99,1104.59,1104.07,1103.36,1102.68,1102.16,1101.64,1101.34,1101.1,1100.86,1100.61,1100.44,1100.28,1100.1,1099.97,1099.84,1099.68,1099.47,1099.34,1099.17,1098.97,1098.85,1098.65,1098.38,1087.09,1085.79,1085.55,1065.34,1055.05,1054.61,1054.14,1053.73,1053.28,1052.68,1051.94,1051.26,1060.37,1059.65,1069,1078.39,1087.64,1086.98,1086.33,1085.71,1085.05,1084.58,1084.07,1083.53,1083.04,1082.5,1082.06,1081.68,1061.31,1030.9,1030.51,1029.96,1029.33,1028.71,1028.18,1027.65,1027.02,1026.5,1026.1,1025.73,1025.5,1025.32,1025.08,1024.79,1034.43,1035.23,1044.95,1055.69,1065.26,1064.71,1063.92,1063.34,1061.61,1060.08,1059.32,1058.64,1057.91,1057.19,1056.44,1055.84,1055.03,1054.4,1053.49,1052.68,1051.85,1051.31,1050.81,1050.25,1049.8,1049.51,1049.27,1049.22,1049.54,1049.81,1049.9,1049.95,1050.13,1050.34,1050.43,1050.43,1050.23,1049.82,1049.43,1049.08,1048.74,1048.51,1048.39,1048.16,1048.16,1048.43,1048.68,1048.79,1048.82,1048.99,1049.06,1049.06,1049.29,1049.31,1049.46,1049.64,1049.74,1049.53,1050.47,1050.56,1050.66,1051.7,1051.85,1051.76,1051.83,1051.89,1052.11,1052.37,1052.63,1052.81,1052.81,1052.65,1052.58,1052.35,1052.17,1051.95,1050.98,1049.87,1048.86,1047.93,1047.06,1046.09,1044.89,1043.69,1042.94,1041.41,1041.01,1040.69,1040.81,1040.61,1040.76,1040.81,1040.84,1040.94,1041.21,1041.39,1041.59,1041.34,1040.26,1040.84,1040.33,1039.91,1039.49,1038.05,1047.69,1048.23,1047.8,1047.64,1047.64,1047.73,1047.21,1048.52,1048.51,1048.47,1048.54,1048.7,1048.79,1048.92,1048.88,1048.47,1048.23,1048.25,1047.93,1047.71,1046.18,1046.7,1046.22,1045.9,1044.68,1044.36,1045.15,1044.99,1044.94,1035.32,1034.87,1036.22,1035.51,1035.75,1035.96,1036.05,1037.15,1036.12,1037.07,1036.53,1036.22,1035.81,1035.24,1034.5,1033.87,1033.55,1032.43,1022.54,1013.1,1014.66,1004.74,1004.95,1005.1,1005.36,995.144,994.698,993.92,992.963,991.81,991.294,990.732,990.373,989.741,989.333,988.733,988.427,988.022,987.611,987.128,986.866,986.65,986.345,985.974,985.813,985.39,985.289,985.394,985.611,985.695,985.734,985.564,985.699,985.511,985.201,984.459,1023.82,1022.78,1021.58,1020.55,1019.84,1019.23,1018.57,1017.96,1017.53,1017.01,1016.85,1016.97,1016.9,1016.56,1015.87,1015.37,1015.34,1015.52,1015.59,1015.51,1015.35,1015.22,1015.48,1015.66,1015.29,1014.55,1013.6,1012.69,1011.67,1010.43,1009.22,1007.97,1006.96,1006.64,1006.35,1006.05,1005.77,1005.6,1005.96,1006.84,1006.56,1007.22,1008.49,1008.45,1007.47,1008.74,1009.04,1009.1,1006.73,1006.41,1007.67,1006.94,1006.2,1005.83,1005.46,1005.39,1005.14,1004.72,1004.4,1003.38,1004.51,1004.99,1005.08,1004.92,1004.56,1004.46,1004.16,1003.68,1003.27,1002.84,1001.98,1001.12,1000.42,999.635,998.933,998.408,997.982,997.555,997.194,996.259,997.249,997.266,997.108,997.109,996.984,996.872,996.776,996.692,996.4,996.327,996.189,995.941,995.68,995.471,995.328,985.349,985.624,985.996,986.31,976.387,976.302,966.289,956.278,956.122
1061.34,1061.15,1061.18,1061.43,1061.39,1061.32,1061.26,1061.08,1060.92,1060.98,1060.89,1060.59,1060.16,1059.65,1059.17,1058.81,1058.48,1058.06,1057.48,1057.05,1096.73,1096.63,1106.59,1106.37,1106.07,1105.71,1105.4,1105.03,1104.68,1104.23,1103.56,1102.88,1102.22,1101.64,1101.31,1100.95,1100.65,1100.39,1100.12,1099.83,1099.63,1099.43,1099.26,1099.13,1099.02,1098.91,1098.72,1098.59,1098.51,1098.38,1098.15,1056.88,1055.64,1055.43,1055.29,1055.04,1054.69,1054.3,1053.98,1053.61,1053.06,1052.38,1051.69,1050.81,1050.06,1049.38,1048.76,1087.96,1087.21,1086.47,1085.72,1084.96,1084.36,1083.69,1083.08,1082.49,1081.85,1071.36,1040.93,1030.55,1030.09,1029.63,1029.06,1028.44,1027.79,1027.21,1026.68,1025.99,1025.42,1024.93,1024.59,1024.3,1024.07,1023.77,1023.46,1024.09,1023.91,1023.61,1024.27,1043.84,1053.33,1061.76,1060.12,1059.34,1058.85,1058.01,1057.21,1056.48,1055.57,1054.68,1053.94,1053.29,1052.77,1051.87,1050.94,1050.06,1049.46,1048.96,1048.48,1048.06,1047.71,1047.36,1047.26,1047.52,1047.77,1047.98,1048.02,1048.23,1048.49,1048.72,1048.77,1048.61,1048.19,1047.83,1047.51,1047.24,1046.97,1046.83,1046.57,1046.64,1046.99,1047.31,1047.42,1047.4,1047.54,1047.58,1047.54,1047.83,1048.9,1048.91,1049.04,1050.12,1050.08,1050.1,1050.36,1050.51,1050.48,1050.63,1050.65,1050.69,1050.77,1050.95,1051.07,1051.28,1050.41,1051.41,1051.28,1051.21,1050.97,1050.84,1050.5,1049.81,1048.8,1047.76,1046.71,1045.74,1044.76,1043.6,1042.39,1041.51,1040.82,1040.44,1040.16,1040.31,1040.09,1040.18,1040.26,1040.31,1040.41,1040.64,1040.79,1040.86,1040.58,1040.37,1048.71,1049.06,1048.47,1047.86,1047.26,1045.76,1046.29,1045.89,1045.78,1045.85,1046.05,1046.44,1046.68,1046.73,1046.91,1047.1,1047.46,1047.58,1047.72,1047.73,1047.46,1047.3,1047.38,1047.15,1046.92,1046.44,1045.71,1045.34,1045.03,1044.84,1043.55,1043.3,1044.19,1044.14,1043.45,1044.06,1045.44,1044.77,1044.08,1045.27,1045.41,1046.62,1046.76,1045.8,1046.37,1046.09,1034.54,1034.97,1034.19,1033.36,1022.85,1012.68,1012.69,1013.21,1003.59,1003.66,1003.76,993.934,994.369,994.188,993.656,992.836,991.839,990.784,990.384,989.951,989.641,989.078,988.681,988.264,988.073,987.711,987.233,986.748,986.52,986.279,985.963,985.554,985.303,984.893,984.697,984.799,984.99,984.996,985.016,984.789,984.841,984.677,984.365,1023.6,1022.88,1031.89,1030.68,1029.56,1028.7,1028.05,1027.3,1026.5,1025.97,1025.36,1025.03,1025.18,1025.23,1025,1024.31,1023.88,1023.88,1024.16,1023.35,1024.36,1024.21,1024.11,1024.26,1024.36,1023.97,1023.18,1022.24,1021.43,1020.54,1019.39,1018.22,1017.05,1016.25,1016.06,1015.9,1015.67,1015.49,1015.41,1015.79,1016.65,1017.41,1018.08,1018.32,1018.27,1018.3,1018.52,1018.72,1018.66,1018.27,1017.91,1017.11,1016.23,1015.56,1015.11,1014.71,1014.67,1014.48,1004.08,1003.78,1003.91,1004.1,1004.59,1004.72,1004.48,1004.16,1004.03,1003.63,1003.08,1002.65,1002.14,1001.33,1000.43,999.656,998.95,998.123,997.557,997.161,996.705,996.318,996.269,996.197,996.256,996.101,996.101,995.966,995.882,995.786,995.7,995.441,995.356,995.224,994.055,993.82,993.654,992.571,992.586,992.906,983.353,973.551,963.596,953.559,953.502,953.42,953.343
1060.54,1060.35,1060.32,1060.57,1060.57,1060.54,1060.58,1060.64,1060.61,1060.73,1060.8,1060.67,1060.34,1059.88,1059.48,1059.2,1058.92,1058.49,1057.85,1057.34,1077.02,1076.86,1096.8,1096.53,1106.2,1105.87,1105.59,1105.32,1105.03,1104.65,1104.06,1103.31,1102.66,1101.95,1101.49,1101.02,1100.62,1100.23,1099.81,1099.41,1099.11,1098.9,1098.73,1098.57,1098.5,1098.39,1098.25,1098.17,1098.09,1097.96,1066.74,1055.51,1055.36,1055.12,1055.03,1054.86,1054.55,1054.22,1054,1053.63,1053.19,1052.56,1051.93,1051.12,1050.35,1049.72,1048.98,1048.14,1067.34,1076.47,1085.68,1084.74,1083.94,1083.21,1082.47,1081.79,1071.13,1050.54,1030.06,1029.65,1029.18,1028.64,1028.07,1027.41,1026.71,1026.16,1025.59,1024.85,1024.19,1023.68,1023.31,1023.01,1022.72,1022.37,1022.05,1022.68,1022.47,1022.29,1022.9,1032.53,1052.11,1050.56,1048.98,1058.21,1057.6,1056.8,1055.86,1054.98,1054.07,1053.23,1052.42,1051.69,1051.08,1050.14,1049.17,1048.36,1047.82,1047.41,1046.93,1046.6,1046.28,1045.98,1045.89,1046.17,1046.45,1046.71,1046.76,1046.85,1047.09,1047.37,1047.49,1047.51,1047.22,1046.94,1046.59,1046.35,1046.12,1045.94,1045.6,1045.62,1046.04,1046.4,1046.55,1046.58,1046.78,1046.89,1046.96,1047.29,1047.31,1049.17,1049.13,1049.11,1049.03,1049,1049.18,1049.19,1049.14,1049.27,1049.29,1049.42,1049.51,1049.67,1049.82,1050.01,1050.18,1050.19,1050.06,1049.96,1049.7,1049.52,1049.21,1048.57,1047.6,1046.63,1045.68,1044.84,1033.89,1032.68,1031.72,1030.93,1020.24,1019.89,1019.64,1019.83,1019.67,1018.66,1019.78,1019.85,1019.99,1020.23,1020.34,1020.32,1019.91,1019.6,1018.95,1028.28,1027.71,1037,1046.47,1046.02,1045.53,1045.16,1045.06,1045.08,1045.18,1045.51,1044.73,1044.74,1044.83,1046.04,1046.41,1046.54,1046.66,1046.67,1046.49,1046.37,1046.46,1046.33,1046.12,1045.59,1044,1043.61,1044.33,1044.18,1043.92,1043.7,1043.46,1042.36,1041.66,1042.26,1044.73,1045.16,1044.51,1044.74,1044.91,1045.18,1046.49,1046.77,1045.33,1036.12,1035.57,1033.86,1033.06,1021.08,1012.45,1012.14,991.945,992.26,992.561,992.589,992.676,992.734,993.13,992.958,992.36,991.546,990.657,989.767,989.38,989.072,988.744,988.153,987.903,987.579,987.39,987.028,986.547,986.03,985.86,985.634,985.344,984.875,984.607,984.193,984.019,984.146,984.405,984.448,984.514,984.305,984.369,984.283,984.012,1023.27,1032.45,1031.47,1030.14,1028.8,1027.87,1027.07,1026.16,1025.17,1024.51,1023.74,1023.27,1023.41,1023.53,1023.32,1022.73,1022.36,1022.47,1021.89,1023.21,1023.28,1023.15,1022.04,1023.16,1023.19,1022.67,1021.93,1020.09,1020.33,1019.56,1018.52,1017.47,1016.47,1015.86,1015.81,1015.71,1015.63,1015.49,1015.43,1015.84,1016.71,1017.5,1018.1,1018.3,1018.26,1018.27,1018.42,1018.46,1018.28,1017.86,1017.46,1016.64,1015.79,1015.13,1014.67,1014.33,1004.51,1004.46,1004.19,1003.94,1004.14,1004.31,1004.77,1004.87,1004.55,994.112,983.866,983.333,962.668,962.161,961.66,960.858,960.036,959.218,958.457,957.582,957.006,966.644,966.169,965.774,955.615,954.532,955.538,955.423,955.426,955.33,985.22,995.073,994.918,994.668,994.574,994.416,994.212,993.971,993.817,993.709,993.767,984.085,974.429,964.678,954.706,954.652,954.583,954.482,954.453
1060,1059.81,1059.74,1059.93,1059.97,1060.03,1060.11,1060.29,1060.33,1060.5,1060.64,1060.59,1060.32,1059.99,1059.67,1059.43,1059.16,1058.72,1058.13,1057.65,1057.31,1057.17,1057.06,1056.74,1056.43,1056.13,1056.03,1055.81,1055.6,1055.3,1054.65,1053.88,1053.16,1052.36,1051.8,1051.14,1050.57,1050.02,1049.57,1049.18,1048.85,1048.67,1048.47,1048.38,1048.3,1048.24,1048.06,1047.95,1047.85,1047.68,1047.5,1045.23,1045.03,1044.82,1044.68,1044.54,1044.23,1043.97,1043.79,1043.53,1043.09,1042.55,1041.99,1041.27,1040.62,1039.99,1039.26,1038.33,1037.5,1036.57,1035.58,1034.63,1033.64,1032.65,1031.85,1031.11,1030.35,1029.76,1029.23,1028.78,1028.27,1027.75,1027.1,1026.43,1025.71,1025.13,1024.44,1023.65,1022.96,1022.42,1021.99,1023.78,1023.42,1023.09,1022.71,1022.38,1022.22,1022.05,1021.67,1021.4,1021.07,1020.66,1020.16,1019.41,1018.71,1016.78,1015.84,1013.91,1012.9,1012.04,1011.1,1010.36,1009.75,1008.92,1008.02,1008.09,1007.38,1007.07,1007.52,1006.11,1004.66,1004.23,1004.09,1004.43,1004.82,1005.14,1005.08,1005.13,1005.41,1005.77,1006.01,1006.17,1006.09,1005.89,1005.79,1005.69,1005.58,1005.47,1006.28,1007.44,1008.03,1008.44,1008.68,1008.78,1009,1009.11,1009.2,1009.46,1009.41,1008.95,1008.7,1008.48,1008.22,1008.06,1008.12,1007.91,1007.84,1007.96,1008.07,1008.23,1008.32,1008.43,1008.49,1008.66,1008.83,1008.89,1008.76,1008.59,1008.28,1008.12,1007.83,1007.12,1006.28,1005.44,1004.59,1003.77,1002.75,1001.83,1001.06,1000.38,999.762,999.441,999.214,999.44,999.277,999.256,999.314,999.432,999.627,999.829,999.957,999.924,999.374,998.991,998.467,997.92,997.409,996.759,996.217,995.725,995.206,994.891,994.781,994.74,994.719,994.956,995.085,995.106,995.2,995.329,1015.52,1045.61,1045.75,1045.77,1045.62,1045.59,1045.7,1045.67,1045.54,1045.12,1043.59,1042.14,1043.88,1043.71,1042.46,1043.13,1042.88,1042.69,1040.9,1043.51,1044.01,1044.55,1042.93,1043.24,1043.44,1043.79,1045.23,1045.67,1034.36,1004.13,1004.61,993.846,992.993,993.042,992.204,991.785,991.389,991.509,991.708,991.648,991.618,991.66,991.997,991.693,991.048,990.258,989.411,988.505,988.219,987.773,987.38,986.734,986.471,986.236,985.941,985.597,985.135,984.666,984.621,984.483,984.182,983.771,983.558,983.364,983.432,983.707,984.211,984.455,984.753,984.882,985.13,985.154,984.859,1033.95,1033.1,1031.84,1030.39,1028.78,1027.5,1026.35,1025.18,1023.91,1023.08,1022.11,1021.48,1021.59,1021.79,1021.73,1021.23,1020.95,1021.24,1021.67,1022.12,1022.32,1022.2,1022.06,1022.06,1022.01,1021.38,1020.67,1019.89,1019.22,1018.56,1017.58,1016.71,1015.75,1015.38,1015.58,1015.67,1015.71,1015.69,1015.68,1016.17,1017.1,1017.97,1018.43,1018.5,1018.32,1018.27,1018.39,1018.31,1017.97,997.483,977.173,976.491,975.829,975.233,974.784,974.497,974.831,974.916,974.731,974.603,974.739,974.87,975.31,975.346,974.958,974.395,974.01,963.359,962.541,961.952,961.379,960.55,959.798,958.989,958.15,957.308,956.727,956.378,955.852,955.387,955.205,955.073,955.061,954.986,954.965,954.848,954.673,954.49,954.366,954.123,953.93,953.682,953.439,953.293,963.213,953.151,953.171,953.436,953.792,953.963,954.05,954.011,953.975,953.946,954.005
1059.3,1059.1,1058.99,1059.16,1059.22,1059.31,1059.47,1059.74,1059.88,1060.09,1060.27,1060.28,1060.15,1059.95,1059.71,1059.54,1059.28,1058.85,1058.31,1057.92,1057.56,1057.37,1057.21,1056.91,1056.61,1056.42,1056.41,1056.37,1056.2,1055.86,1055.31,1054.51,1053.78,1052.91,1052.1,1051.3,1050.54,1049.91,1049.39,1049.01,1048.68,1048.59,1048.43,1048.36,1048.35,1048.31,1048.17,1048.03,1047.91,1047.72,1046.34,1045.06,1044.83,1044.57,1044.36,1044.13,1043.75,1043.46,1043.21,1042.9,1042.44,1041.85,1041.24,1040.58,1039.9,1039.18,1038.42,1037.57,1036.65,1035.76,1034.77,1033.8,1032.74,1031.69,1030.94,1030.19,1029.39,1028.79,1028.25,1027.75,1027.2,1026.68,1026.04,1025.32,1024.59,1024,1023.3,1022.43,1021.76,1021.19,1022.87,1022.55,1022.18,1021.84,1021.49,1021.22,1021.08,1020.96,1020.69,1020.51,1020.29,1019.94,1019.52,1018.68,1017.93,1016.92,1015.9,1014.01,1011.97,1011.11,1012.31,1009.49,1009.99,1008.22,1008.46,1008.46,1007.67,1007.24,1006.49,1006.01,1005.56,1005.1,1004.81,1005.08,1005.45,1004.78,1004.62,1004.74,1006.16,1006.6,1006.91,1006.33,1006.42,1006.57,1006.69,1006.82,1007.9,1007.89,1007.71,1008.04,1008.64,1009.08,1009.25,1009.29,1009.48,1009.63,1009.78,1009.89,1009.59,1008.86,1008.38,1007.97,1007.58,1007.33,1007.18,1006.83,1006.7,1006.78,1006.95,1007.05,1007.06,1007.12,1007.09,1007.18,1007.33,1007.38,1007.2,1007.04,1006.74,1006.59,1006.35,1005.74,1005.02,1004.18,1003.28,1002.52,1001.75,1001.05,1000.39,999.699,999.241,998.924,998.724,998.946,998.787,998.72,998.815,998.981,999.228,999.53,999.701,999.767,999.23,998.919,998.509,998.171,997.717,997.104,996.477,995.899,995.359,995.017,994.811,994.653,994.566,994.495,994.504,994.507,994.445,1004.46,1044.52,1044.59,1044.69,1044.78,1044.84,1044.97,1045.17,1045.32,1045.4,1045.43,1044.22,1043.97,1044.57,1044.34,1043.98,1043.66,1043.28,1043.02,1042.95,1043.38,1043.62,1044.13,1044.57,1042.9,1043.14,1043.58,1044.13,1035.76,996.556,995.372,995.795,994.978,994.082,993.128,992.176,991.648,991.015,991.036,991.023,990.714,990.604,990.53,990.732,990.396,989.558,988.631,987.8,986.781,986.518,985.941,985.467,984.579,984.3,984.144,983.906,983.549,983.225,982.923,983.023,982.974,982.815,982.591,982.606,982.621,982.943,983.377,984.091,984.466,984.874,985.337,985.917,986.257,1036.15,1035.26,1034.26,1032.86,1031.22,1029.36,1027.43,1025.66,1023.97,1022.32,1021.22,1020.14,1019.36,1019.34,1019.57,1019.87,1019.7,1019.62,1019.93,1020.41,1020.95,1021.26,1021.21,1021.08,1020.93,1020.74,1020.14,1019.52,1018.8,1018.22,1017.61,1016.77,1016.06,1015.38,1015.11,1015.45,1015.69,1015.85,1015.91,1016.02,1016.47,1017.48,1018.36,1018.76,1018.74,1018.48,1018.34,1018.36,1018.2,1017.79,1017.25,996.912,976.256,975.649,975.143,974.745,974.524,974.963,975.031,974.799,974.639,974.771,974.796,975.106,975.018,974.58,973.98,963.617,962.963,962.253,961.695,961.154,960.375,959.752,959.035,958.232,957.385,956.808,956.361,955.843,955.384,955.143,954.916,954.82,954.751,954.769,954.669,954.554,954.431,954.272,954.016,953.856,953.617,953.388,953.304,953.214,953.125,953.176,953.343,953.562,953.743,953.884,953.856,953.846,953.876,953.999
1058.3,1058.18,1058.06,1058.22,1058.38,1058.55,1058.82,1059.14,1059.37,1059.64,1059.82,1059.89,1059.84,1059.75,1059.6,1059.44,1059.17,1058.75,1058.3,1057.9,1057.49,1057.26,1057,1056.7,1056.44,1056.37,1056.51,1056.62,1056.55,1056.36,1055.84,1055.14,1054.32,1053.37,1052.42,1051.4,1050.5,1049.79,1049.21,1048.8,1048.5,1048.47,1048.37,1048.3,1048.36,1048.37,1048.25,1048.12,1047.94,1047.7,1047.35,1044.96,1044.7,1044.38,1044.09,1043.76,1043.33,1042.84,1042.46,1042.05,1041.47,1040.85,1040.15,1039.45,1038.69,1037.92,1037.08,1036.21,1035.31,1034.48,1033.51,1032.6,1031.58,1030.63,1029.86,1029.24,1028.46,1027.94,1027.38,1026.85,1026.26,1025.75,1025.1,1024.35,1023.63,1022.96,1022.16,1022.39,1021.7,1022.19,1021.76,1021.54,1021.22,1020.93,1020.64,1020.41,1020.33,1020.35,1020.15,1020.08,1019.82,1019.46,1019.04,1018.19,1017.39,1016.27,1015.22,1013.21,1013.18,1012.41,1011.63,1010.89,1010.36,1009.75,1008.93,1007.97,1006.2,1006.69,1005.9,1005.32,1004.81,1004.24,1003.83,1004.02,1004.39,1004.73,1003.66,1003.8,1005.17,1005.6,1006.07,1006.58,1006.93,1007.21,1006.43,1006.69,1007.89,1008.04,1008.06,1008.6,1009.37,1009.84,1010.15,1010.24,1010.46,1010.67,1010.82,1010.84,1010.25,1009.33,1008.59,1008.02,1007.53,1007.11,1006.74,1006.17,1005.9,1005.93,1005.98,1006.02,1005.96,1005.9,1005.92,1005.91,1005.96,1005.99,1005.78,1005.59,1005.33,1005.24,1005.1,1004.56,1003.77,1002.95,1002.21,1001.6,1001.04,1000.41,999.715,998.99,998.571,998.289,998.162,998.384,998.255,998.067,998.15,998.437,998.795,999.133,999.407,999.604,999.195,998.917,998.759,998.692,998.337,997.719,997.061,996.396,995.786,995.415,995.103,994.724,994.312,994.156,993.992,993.872,1003.69,1043.64,1043.58,1043.63,1043.84,1044.09,1044.43,1044.54,1044.66,1044.88,1045.14,1045.61,1045.81,1045.59,1045.12,1044.61,1044.22,1034.06,1033.69,1033.29,1032.89,1032.89,1033,1033.51,1034.09,1033.57,1033.79,1024.48,1025.13,996.861,996.774,996.784,996.182,995.291,994.344,993.424,992.318,991.748,990.913,990.684,990.46,989.93,989.623,989.462,989.529,989.051,988.142,987.1,986.169,984.954,984.697,984.099,983.679,983.079,982.761,982.46,982.141,981.752,981.355,981.107,981.219,981.146,980.946,980.906,981.129,981.557,982.154,982.844,983.703,984.153,984.737,985.67,986.482,1017.06,1027.15,1026.31,1025.29,1023.86,1022.23,1020.22,1017.92,1015.53,1013.38,1011.3,1009.85,1008.52,1007.51,1007.25,1007.4,1007.86,1007.99,1008.08,1008.51,1009.05,1009.68,1010.11,1010.2,1010.1,1009.88,1009.62,1009.03,1008.48,1007.89,1007.4,1006.85,1006.13,1005.49,1005,1004.84,1005.21,1005.59,1005.86,1006.02,1006.17,1006.62,1007.55,1008.36,1008.76,1008.68,1008.37,1008.18,1008.09,1007.8,1007.38,1006.8,1006.42,995.699,965.187,964.539,964.017,963.742,964.132,964.233,964,963.919,964.07,964.154,964.476,964.475,964.169,963.651,963.406,962.88,962.283,961.823,961.288,960.612,960.114,959.435,958.642,957.715,957.119,956.639,956.115,955.602,955.335,955.008,954.817,954.665,954.669,954.567,954.44,954.281,954.047,953.816,953.705,953.41,953.153,953.092,953.003,952.851,952.848,952.915,953.011,953.016,953.1,953.235,953.214,953.21,953.349
1057.11,1056.94,1056.78,1056.99,1057.34,1057.69,1058.04,1058.47,1058.8,1059.13,1059.35,1059.42,1059.4,1059.38,1059.25,1059.16,1058.94,1058.55,1058.13,1057.67,1057.29,1056.99,1056.67,1056.37,1056.18,1056.2,1056.47,1056.68,1056.68,1056.55,1056.11,1055.44,1054.56,1053.5,1052.41,1051.25,1050.17,1049.43,1048.92,1048.57,1048.28,1048.33,1048.2,1048.16,1048.23,1048.28,1048.19,1048.03,1047.82,1047.55,1047.22,1044.84,1044.57,1044.21,1043.82,1043.42,1042.83,1042.28,1041.76,1041.11,1040.44,1039.74,1039.01,1038.22,1037.37,1036.47,1035.55,1034.68,1033.81,1033.03,1032.19,1031.3,1030.41,1029.5,1028.82,1028.21,1027.6,1027.06,1027.65,1027.09,1025.48,1024.89,1024.24,1024.56,1023.7,1023.01,1022.11,1022.28,1021.62,1021.05,1020.71,1020.53,1020.31,1020.13,1019.87,1019.68,1019.74,1019.83,1019.74,1019.72,1019.49,1019.16,1018.78,1017.86,1016.98,1015.96,1014.89,1013.84,1012.79,1012.04,1011.34,1010.61,1010.18,1009.51,1008.72,1007.77,1007.02,1006.45,1005.61,1005.03,1004.47,1003.91,1003.49,1003.66,1003.96,1004.28,1004.23,1003.34,1004.7,1005.11,1005.57,1006.11,1006.51,1006.81,1007.09,1006.38,1007.72,1008.08,1008.26,1008.83,1009.48,1010.04,1010.57,1010.92,1011.33,1011.64,1011.8,1011.82,1011.41,1010.55,1009.71,1008.9,1008.23,1007.44,1006.6,1005.75,1005.22,1005.03,1004.91,1004.96,1005,1004.9,1004.8,1004.78,1004.84,1004.97,1004.75,1004.58,1004.41,1004.33,1004.13,1003.74,1003.07,1002.24,1001.6,1001.12,1000.59,999.949,999.116,998.413,997.885,997.588,997.574,997.861,997.762,997.578,997.643,998.067,998.576,999.014,999.376,999.464,999.08,998.864,998.839,998.898,998.585,998.023,997.339,996.651,996.081,995.767,995.42,994.795,994.39,994.092,993.859,1003.58,1043.28,1043.02,1042.64,1042.49,1042.64,1043.31,1043.99,1044.25,1044.31,1044.42,1044.86,1045.86,1046.39,1046.4,1045.65,1044.87,1044.35,1044.28,1044.07,1043.61,1042.67,1042.24,1042.17,1042.41,1042.81,1043.49,1043.81,1034.65,995.492,996.467,996.678,996.936,996.469,995.586,994.596,993.489,992.267,991.598,990.633,990.207,989.745,989.057,988.709,988.485,988.52,988.108,1007.22,1006.2,1005.38,984.346,984.155,983.716,983.268,982.687,982.302,981.87,981.406,980.863,980.356,979.971,979.991,979.804,979.55,979.533,979.795,980.268,981.075,981.991,982.943,983.598,984.383,985.494,1026.41,1027.14,1037.33,1036.52,1035.51,1034.06,1032.48,1030.56,1028.29,1025.88,1023.54,1021.4,1019.78,1018.26,1017.11,1016.62,1016.55,1016.79,1016.91,1017.01,1017.45,1018.02,1018.58,1018.98,1018.96,1018.87,1018.56,1018.23,1017.54,1016.98,1016.46,1016.08,1015.7,1015.17,1014.64,1014.34,1014.35,1014.78,1015.2,1015.49,1015.67,1015.89,1016.2,1016.96,1017.57,1017.9,1017.77,1017.5,1017.28,1017.05,1016.71,1016.29,1015.84,1015.42,1014.82,994.276,973.587,972.959,972.69,973.047,973.184,973.035,973.003,973.201,973.373,973.789,973.991,973.866,973.611,973.43,973.009,962.48,962.046,961.579,960.859,960.378,959.649,958.784,957.885,957.366,956.899,956.35,955.871,955.522,955.176,954.961,954.769,954.734,954.566,954.413,954.247,954.043,953.822,953.681,953.293,952.986,952.912,952.794,952.612,952.546,952.506,952.503,952.425,952.544,952.677,952.727,952.737,952.898
1055.64,1055.69,1055.47,1055.73,1056.14,1056.7,1057.16,1057.65,1058.07,1058.43,1058.67,1058.79,1058.84,1058.91,1058.85,1058.82,1058.61,1058.18,1057.81,1057.39,1057.04,1056.68,1056.29,1055.97,1055.88,1056.03,1056.44,1056.74,1056.76,1056.59,1056.19,1055.47,1054.52,1053.37,1052.1,1050.81,1049.6,1048.92,1048.5,1048.15,1047.96,1047.98,1047.87,1047.86,1047.95,1048.03,1047.93,1047.84,1047.66,1047.32,1046.97,1046.79,1046.46,1046.14,1044.53,1044.04,1042.25,1042.61,1042.98,1042.21,1041.49,1039.7,1039.82,1038.9,1037.89,1036.88,1035.92,1033.01,1032.28,1031.57,1030.82,1030.05,1029.27,1028.52,1028.92,1027.38,1027.83,1028.44,1027.99,1027.44,1026.82,1026.27,1025.59,1024.76,1023.87,1023.13,1022.26,1021.34,1020.68,1020.21,1019.79,1019.62,1019.44,1019.31,1019.16,1019.04,1019.19,1019.34,1019.33,1019.33,1019.15,1018.94,1018.55,1017.59,1016.7,1015.72,1014.67,1013.65,1012.59,1011.8,1011.13,1010.42,1009.98,1009.45,1008.69,1007.78,1006.98,1006.38,1005.57,1004.98,1004.43,1003.94,1003.5,1003.54,1003.78,1004.05,1004.02,1004.13,1004.46,1004.82,1005.27,1005.82,1006.28,1006.6,1006.87,1007.16,1007.5,1007.86,1008.01,1008.52,1009.07,1009.6,1010.14,1010.6,1011.04,1011.4,1011.59,1011.7,1011.29,1010.32,1009.46,1008.51,1007.61,1006.65,1005.6,1004.65,1003.96,1003.62,1003.56,1003.54,1003.69,1003.7,1003.65,1003.71,1003.73,1003.92,1003.69,1003.48,1003.28,1003.26,1003.08,1002.67,1002.22,1001.51,1000.91,1000.51,1000.15,999.626,998.848,998.149,997.652,997.292,997.317,997.28,997.199,997.16,997.302,997.772,998.404,998.822,999.012,998.908,998.71,998.395,998.229,998.254,997.976,997.567,997.084,996.597,996.303,996.095,995.823,995.296,994.771,994.424,1014.11,1043.72,1043.32,1042.86,1042.31,1042.02,1041.02,1042.75,1043.46,1043.64,1043.49,1043.54,1044.07,1045.38,1046.15,1046.2,1045.47,1044.63,1044.11,1044.18,1043.99,1033.41,1032.12,1031.44,1031.15,1031.26,1031.62,1032.32,1032.67,993.519,994.329,995.405,995.8,996.022,995.518,994.539,993.57,992.457,991.339,990.665,989.729,989.211,988.708,988.019,987.535,987.177,987.1,1006.66,1005.76,1014.93,1014.24,1003.37,993.298,982.973,982.637,982.043,981.586,981.058,980.417,979.802,979.194,978.637,978.487,978.222,978.007,977.849,978.047,978.595,979.635,980.734,981.949,982.748,983.678,1004.77,1025.88,1026.79,1027.19,1026.39,1025.36,1023.84,1022.39,1020.57,1018.53,1016.26,1014.01,1011.83,1010.19,1008.82,1007.54,1006.92,1006.51,1006.41,1006.36,1006.42,1006.73,1007.2,1007.48,1007.7,1007.61,1007.63,1007.45,1007.22,1006.55,1005.92,1005.47,1005.24,1005.07,1004.79,1004.34,1004.06,1004.1,1004.59,1005.1,1005.38,1005.59,1005.72,1005.93,1006.39,1006.72,1006.72,1006.45,1006.03,1005.74,1005.44,1005.05,1004.58,1004.1,1003.76,1003.3,1002.87,982.316,971.633,971.398,971.667,971.852,971.744,971.74,971.911,972.145,972.669,973,973.093,973.09,973.009,972.718,972.322,961.95,961.419,960.693,960.17,959.416,958.556,957.761,957.29,956.897,956.438,955.957,955.654,955.354,955.203,954.976,954.835,954.653,954.44,954.242,954.009,953.797,953.582,953.167,952.833,952.653,952.526,952.343,952.26,952.188,952.114,951.989,952.053,952.212,952.305,952.36,952.523
1054.12,1054.17,1054.01,1054.21,1054.73,1055.33,1055.91,1056.45,1056.89,1057.31,1057.56,1057.73,1057.83,1057.94,1057.93,1057.93,1057.75,1057.43,1057.13,1056.81,1076.39,1076.03,1075.65,1075.43,1075.42,1075.58,1076.13,1076.41,1076.42,1076.22,1075.76,1075.05,1074.06,1072.83,1071.51,1070.14,1069.01,1068.38,1067.98,1067.69,1067.49,1067.54,1067.47,1067.47,1067.54,1067.6,1067.54,1067.49,1067.4,1067.13,1066.76,1056.51,1056.05,1055.54,1054.76,1054.09,1053.21,1052.44,1051.65,1050.86,1050.02,1049.12,1048.15,1047.12,1045.95,1044.92,1043.99,1053.26,1052.63,1050.95,1050.35,1048.73,1048.11,1048.47,1047.98,1047.61,1048.25,1047.85,1047.38,1036.88,1026.31,1025.76,1025.14,1024.32,1023.36,1022.57,1021.66,1020.77,1020.14,1019.66,1019.19,1018.95,1018.81,1018.7,1018.55,1018.47,1018.69,1018.82,1018.78,1028.76,1038.54,1038.32,1037.93,1036.93,1036.07,1035.09,1034.05,1033.07,1032.06,1031.48,1030.81,1030.13,1029.76,1029.33,1028.65,1027.82,1027.01,1026.44,1025.6,1025.07,1024.55,1024.04,1023.62,1023.6,1023.81,1024.05,1023.99,1024.06,1024.34,1024.73,1025.14,1025.66,1026.14,1026.49,1026.82,1027.16,1027.47,1027.78,1027.94,1028.44,1028.91,1029.35,1029.88,1030.38,1030.81,1031.06,1031.22,1031.2,1030.65,1029.58,1028.58,1027.56,1026.51,1025.48,1024.4,1023.3,1022.2,1021.94,1022.05,1022.09,1022.23,1022.31,1022.3,1022.55,1022.65,1022.93,1022.79,1022.65,1022.48,1022.47,1022.25,1021.91,1021.47,1020.92,1020.38,1020.08,1019.84,1019.45,1018.72,1018.02,1017.47,1017.04,1017.02,1016.86,1016.8,1016.74,1017.06,1017.6,1018.16,1018.6,1018.83,1018.69,1018.41,1018.24,1018.12,1018.15,1017.9,1017.68,1017.36,1017.11,1017.04,1016.97,1016.69,1016.14,1015.66,1035.31,1044.93,1044.6,1044.11,1043.51,1042.88,1041.52,1041.47,1042.06,1043.73,1042.85,1041.64,1043.66,1044.22,1045.7,1046.53,1046.66,1045.91,1045.15,1044.59,1044.68,1044.55,1043.94,1042.52,1041.67,1041.38,1041.42,1041.77,1032.43,1032.76,1023.59,1014.42,1015.28,1015.64,1005.78,1005.27,1004.32,1003.37,1002.12,1001.02,1000.33,999.267,998.57,997.915,997.1,1016.47,1015.92,1015.58,1014.94,1034.05,1033.51,1032.94,1032.19,1032.1,1011.89,991.569,981.148,980.687,980.156,979.471,978.782,977.93,977.204,976.985,976.636,976.4,976.247,976.417,976.93,978.235,979.679,981.205,982.069,993.035,1004.24,1015.43,1026.46,1027.12,1026.44,1025.42,1033.96,1032.66,1030.96,1028.94,1026.81,1024.67,1022.49,1020.88,1019.62,1018.36,1017.56,1016.95,1016.63,1016.41,1016.38,1016.54,1016.75,1016.78,1016.76,1016.57,1016.65,1016.58,1016.4,1015.86,1015.26,1014.9,1014.72,1014.76,1014.62,1014.31,1014.16,1014.25,1014.71,1015.24,1015.47,1015.65,1015.68,1015.77,1016.05,1016.23,1016.05,1015.68,1015.19,1014.79,1014.34,1013.82,1013.3,1012.82,1012.43,1011.96,1011.56,1011,1010.46,1010.28,980.498,980.712,980.722,980.858,981.077,981.37,981.835,982.18,982.33,982.492,982.448,982.176,981.855,1001.43,990.876,980.223,979.735,979.014,978.235,977.532,967.153,966.784,966.438,966.043,965.797,965.602,975.424,975.126,974.937,974.714,974.42,974.179,973.91,973.659,973.356,972.957,972.56,972.348,972.193,971.988,961.882,961.782,951.655,951.553,951.641,951.86,951.983,952.031,952.227
1052.97,1053.13,1052.79,1052.97,1053.43,1054.07,1054.68,1055.26,1055.65,1056.03,1056.28,1056.45,1056.6,1056.72,1056.72,1056.72,1056.57,1056.25,1055.91,1055.56,1075.21,1074.83,1094.45,1094.24,1094.16,1094.36,1094.84,1095.08,1094.92,1094.68,1094.21,1093.45,1092.53,1091.46,1090.3,1089.09,1088.16,1087.6,1087.21,1086.94,1086.81,1086.85,1086.78,1086.83,1086.89,1087.02,1087.05,1087.1,1097.03,1096.76,1096.34,1095.92,1095.19,1094.34,1093.41,1092.63,1091.71,1090.94,1090.01,1088.93,1087.84,1086.89,1085.93,1084.88,1083.76,1082.82,1081.94,1081.33,1080.76,1080.27,1069.9,1069.43,1068.92,1068.47,1068.2,1077.94,1077.66,1077.34,1076.96,1076.47,1075.9,1075.35,1074.76,1063.86,1052.87,1041.99,1041.15,1030.17,1029.55,1029.05,1028.57,1028.22,1028.05,1018,1017.97,1057.95,1018.26,1018.42,1028.31,1038.29,1058.03,1037.76,1037.31,1066.39,1065.59,1054.64,1053.61,1052.75,1051.82,1051.32,1050.76,1050.07,1049.74,1049.34,1048.72,1047.88,1047.01,1046.45,1045.67,1045.12,1044.7,1044.24,1043.86,1043.83,1044.07,1044.29,1044.19,1044.18,1044.43,1044.77,1045.11,1045.57,1046.09,1046.45,1046.8,1047.14,1047.46,1047.81,1048.04,1048.49,1048.89,1049.26,1049.75,1050.2,1050.54,1050.75,1050.81,1050.55,1049.82,1048.7,1047.71,1046.49,1045.36,1044.23,1042.93,1041.87,1041.02,1040.9,1041.07,1041.22,1041.43,1041.51,1041.51,1041.75,1041.97,1042.35,1042.33,1052.24,1052.05,1051.86,1051.57,1051.3,1051.04,1050.62,1050.14,1049.83,1049.6,1049.22,1048.63,1047.97,1047.48,1046.95,1046.83,1046.59,1046.45,1046.45,1046.68,1047.2,1047.73,1048.14,1048.31,1048.14,1047.92,1047.84,1047.83,1048.02,1037.96,1037.99,1037.82,1037.85,1038.01,1038.08,1037.84,1037.27,1046.83,1046.48,1046.06,1045.65,1045.06,1044.42,1043.67,1043.31,1043.2,1042.7,1044.27,1044.34,1044.05,1044.02,1044.66,1046.08,1046.87,1047.04,1046.26,1045.51,1044.99,1045.09,1044.91,1044.27,1042.82,1041.9,1041.6,1041.56,1041.9,1042.45,1042.77,1043.43,1044.12,1044.81,1045.16,1045.31,1044.81,1043.79,1042.87,1041.89,1040.93,1040.16,1039.15,1038.32,1037.49,1036.69,1035.97,1035.33,1034.56,1033.7,1033,1032.48,1031.89,1031.34,1031.13,1030.87,1030.56,1020.1,1009.53,988.96,978.266,977.517,976.588,975.701,975.387,974.966,974.733,974.69,974.912,975.514,977.025,998.88,1010.58,1021.7,1022.76,1033.96,1035.24,1036.27,1036.96,1036.49,1035.54,1034.12,1032.81,1031.21,1029.32,1027.27,1025.49,1023.37,1021.72,1020.51,1019.33,1018.43,1017.62,1017.15,1016.83,1016.65,1016.66,1016.64,1016.42,1016.21,1015.95,1016.05,1015.97,1015.82,1015.35,1014.77,1014.47,1014.4,1014.51,1014.48,1014.2,1014.17,1014.27,1014.65,1015.17,1015.39,1015.38,1015.33,1015.29,1015.49,1015.52,1015.23,1014.76,1014.16,1013.7,1013.38,1012.9,1012.27,1011.7,1011.25,1010.91,1010.6,1010.08,1009.55,1009.3,1009.58,999.78,999.912,1000.07,1000.21,1000.51,1001,1001.3,1001.46,1001.65,1001.65,1001.39,1001.04,1000.67,1000.15,1009.62,1009.08,1008.46,1007.82,1007.24,996.926,986.634,986.4,986.178,996.059,995.999,1005.88,1005.39,1005.17,1004.85,1004.48,1004.17,1003.79,1003.51,1003.12,1002.69,1002.27,1002.02,1001.87,1001.7,1001.6,1001.47,1001.34,1001.26,1001.33,1001.58,1001.71,1001.79,1002.02
1052.34,1052.45,1052.16,1052.32,1052.69,1053.16,1053.62,1054.11,1054.48,1054.83,1055.02,1055.06,1055.09,1055.26,1055.28,1055.26,1055.11,1054.77,1054.47,1054.1,1073.82,1073.47,1093.12,1102.86,1102.68,1102.8,1103.22,1103.37,1103.16,1102.73,1102.16,1101.49,1100.62,1099.73,1098.77,1097.67,1096.83,1096.34,1096.05,1095.85,1095.77,1095.85,1095.81,1095.84,1095.88,1096.1,1096.15,1096.16,1096.05,1095.73,1095.22,1094.6,1093.68,1092.62,1091.63,1090.93,1090.02,1088.99,1087.8,1086.51,1085.32,1084.43,1083.67,1082.8,1081.76,1080.76,1079.9,1079.3,1078.87,1078.53,1078.22,1077.94,1077.63,1077.38,1077.28,1077.2,1077.1,1076.93,1076.61,1076.16,1075.56,1075.08,1074.43,1073.49,1072.41,1071.52,1070.61,1069.61,1068.94,1068.45,1067.81,1067.49,1067.41,1037.43,1027.39,1067.37,1047.78,1048.02,1027.99,1057.97,1067.72,1037.37,1037.02,1066.25,1065.5,1064.63,1063.65,1062.85,1061.98,1061.57,1061.12,1060.44,1060,1059.56,1058.94,1058.12,1057.32,1056.82,1056.1,1055.55,1054.12,1053.81,1054.51,1054.53,1054.77,1054.9,1054.61,1054.58,1054.81,1055.08,1055.4,1055.86,1056.31,1056.73,1057.1,1057.46,1057.73,1058.03,1058.35,1058.75,1059.07,1059.26,1059.61,1059.97,1060.19,1060.35,1060.32,1059.8,1058.99,1057.92,1056.87,1055.71,1054.39,1053.12,1051.85,1051,1050.28,1050.28,1050.54,1050.74,1050.92,1051.05,1051.1,1051.29,1051.41,1051.78,1051.73,1051.66,1051.48,1051.31,1051.09,1050.94,1050.77,1050.47,1049.97,1049.7,1049.44,1049.1,1048.56,1048.07,1047.54,1047.02,1046.72,1046.41,1046.24,1046.25,1046.47,1046.92,1047.34,1047.75,1047.64,1047.55,1047.46,1047.52,1047.63,1047.94,1048.09,1048.27,1048.31,1048.65,1048.97,1049.13,1048.92,1048.44,1047.93,1047.6,1047.19,1046.69,1045.99,1045.21,1044.41,1044.01,1043.81,1044.17,1044.68,1044.67,1044.32,1044.26,1044.97,1046.25,1047.03,1047.15,1046.47,1045.69,1045.17,1045.27,1045.1,1044.44,1043.05,1042.13,1041.71,1041.62,1041.82,1042.26,1042.45,1043.04,1043.59,1044.15,1044.45,1044.57,1044.04,1043,1042.16,1041.33,1040.67,1039.99,1039,1038.09,1037.21,1036.31,1035.56,1034.8,1033.85,1033,1032.23,1031.75,1031.19,1030.54,1030.27,1029.95,1029.57,1029.05,1028.4,1017.76,996.95,986.213,975.267,974.404,974.022,973.526,973.351,983.406,1013.67,1014.43,1016.05,1018.02,1029.9,1031.23,1032.38,1033.77,1035.14,1036.21,1036.96,1036.62,1035.65,1034.18,1032.94,1031.45,1029.68,1027.73,1026.12,1024.2,1022.51,1021.43,1020.27,1019.24,1018.28,1017.62,1017.29,1016.93,1016.73,1016.51,1016.06,1015.73,1015.49,1015.61,1015.51,1015.32,1014.88,1014.42,1014.14,1014.08,1014.2,1014.17,1013.96,1013.95,1014.04,1014.44,1014.89,1015.12,1015.05,1014.88,1014.72,1014.81,1014.71,1014.36,1013.91,1013.29,1012.79,1012.56,1012.16,1011.56,1010.89,1010.5,1010.28,1009.96,1009.53,1009.05,1008.77,1008.96,1009.22,1009.38,1009.48,1009.6,1009.8,1010.11,1010.27,1010.43,1010.62,1010.66,1010.41,1010.2,1009.85,1009.38,1008.86,1008.42,1007.86,1007.4,1006.92,1006.73,1006.54,986.419,986.376,986.34,996.429,996.36,1005.8,1005.5,1005.12,1004.66,1004.17,1003.76,1003.44,1002.93,1002.41,1001.92,1001.69,1001.49,1001.34,1001.3,1001.18,1001.03,1000.95,1001.06,1001.31,1001.47,1001.57,1001.81
1051.99,1052.1,1051.82,1051.95,1052.23,1052.56,1052.83,1053.14,1053.35,1053.63,1053.77,1053.76,1053.83,1053.99,1053.94,1053.89,1053.68,1053.36,1053.05,1052.77,1072.56,1072.17,1091.72,1091.43,1091.18,1091.17,1091.39,1091.41,1091.07,1090.51,1089.91,1089.24,1088.51,1087.77,1086.95,1086.04,1085.32,1084.95,1084.74,1084.62,1084.6,1084.77,1084.78,1084.84,1084.96,1085.24,1085.18,1085.11,1084.96,1084.55,1083.98,1093.29,1092.38,1091.31,1090.17,1089.32,1088.21,1087.01,1085.73,1084.39,1083.31,1082.47,1081.84,1080.99,1079.88,1078.9,1078.02,1067.45,1067.08,1066.77,1066.61,1066.46,1066.37,1066.25,1066.25,1066.38,1066.4,1066.38,1076.16,1075.75,1075.19,1074.69,1074.03,1073.05,1071.95,1071.09,1070.11,1069.09,1068.29,1067.71,1067.11,1066.79,1066.69,1036.69,1046.68,1066.69,1067.14,1067.43,1067.56,1057.53,1067.26,1046.94,1046.61,1065.96,1055.34,1054.47,1053.59,1052.87,1052.13,1051.7,1051.29,1050.65,1050.22,1049.78,1049.13,1048.32,1047.53,1047,1046.25,1045.61,1045.16,1044.75,1044.47,1044.54,1044.64,1044.61,1044.5,1044.61,1044.88,1045.15,1045.43,1045.87,1046.32,1046.72,1047.18,1047.5,1047.78,1048.12,1048.51,1048.84,1048.94,1049.06,1049.2,1049.38,1049.48,1049.43,1049.16,1048.55,1047.72,1046.74,1045.69,1044.59,1043.29,1042.12,1041.08,1040.33,1039.71,1039.82,1040.13,1040.36,1040.48,1040.6,1040.65,1040.84,1040.87,1041.19,1041.14,1041.01,1040.88,1040.82,1040.76,1050.62,1050.52,1050.2,1049.77,1049.52,1049.29,1048.99,1048.5,1048.04,1047.47,1046.9,1046.46,1046.05,1045.86,1045.84,1046.04,1046.43,1046.78,1047.07,1046.99,1047.1,1047.19,1047.3,1037.49,1037.92,1038.11,1038.45,1038.56,1039.08,1039.47,1039.65,1039.43,1038.89,1038.42,1038.09,1037.62,1037.14,1036.38,1035.52,1034.72,1034.26,1034.03,1034.33,1034.78,1034.73,1034.27,1034.18,1034.82,1036.05,1036.82,1036.95,1036.33,1035.57,1035.08,1035.22,1035.06,1034.43,1033.06,1032.19,1031.68,1031.48,1031.48,1041.81,1041.89,1042.25,1042.7,1043.05,1043.22,1043.3,1042.74,1041.86,1041.13,1040.42,1039.89,1039.29,1028.44,1027.54,1026.6,1025.74,1024.95,1024.14,1023.15,1022.34,1021.64,1031.08,1030.45,1029.79,1029.42,1029.04,1028.7,1028.15,1027.41,1026.72,995.84,985.116,984.152,983.34,972.941,972.451,992.226,1002.29,1022.74,1023.55,1015.21,1017.23,1019.11,1020.39,1021.55,1023.08,1024.44,1025.45,1026.22,1025.87,1024.96,1023.58,1022.57,1021.32,1019.6,1017.83,1016.34,1014.7,1013.11,1012.09,1011.04,1009.94,1008.84,1008.11,1007.64,1007.19,1006.85,1006.51,1005.85,1005.45,1005.22,1005.27,1005.19,1004.95,1004.51,1004.01,1003.8,1003.77,1003.92,1003.88,1003.62,1003.65,1003.72,1004.04,1004.51,1004.68,1004.55,1004.26,1004.09,1004.06,1003.82,1003.44,1002.99,1002.44,1001.91,1001.67,1001.32,1000.77,1000.11,999.673,999.399,999.123,998.791,998.393,998.055,998.148,998.35,998.555,998.594,998.688,998.844,999.062,999.145,999.352,999.582,999.702,999.544,999.353,999.006,998.514,998.096,997.668,1007.21,1006.99,1006.74,1006.63,1006.56,1006.58,1006.63,1006.73,1006.92,1006.9,1006.3,1005.92,1005.49,1004.99,1004.43,1003.86,1003.5,1002.93,1002.3,1001.83,1001.54,1001.33,1001.24,1001.08,1000.96,1000.79,1000.71,1000.84,1001.13,1001.29,1001.38,991.646
1051.51,1051.68,1051.45,1051.51,1051.69,1051.89,1052.03,1052.09,1052.25,1052.48,1052.59,1052.52,1052.62,1052.73,1052.71,1052.62,1052.43,1052.09,1051.78,1051.49,1071.25,1070.81,1090.28,1089.94,1089.65,1089.47,1089.45,1089.27,1088.77,1088.11,1087.52,1086.97,1086.32,1085.71,1084.99,1084.17,1083.58,1083.34,1083.26,1083.21,1083.25,1083.39,1083.41,1083.47,1083.58,1083.79,1083.76,1083.62,1083.45,1083.14,1082.53,1091.97,1091.12,1089.97,1088.63,1087.75,1086.63,1085.37,1084.03,1082.81,1081.78,1080.84,1080.22,1079.24,1078.02,1076.94,1076.02,1065.44,1065.06,1064.81,1064.71,1064.67,1064.73,1064.78,1065.01,1065.31,1065.54,1065.63,1075.48,1075.2,1074.68,1074.2,1073.57,1072.57,1071.56,1070.61,1069.71,1068.57,1067.71,1067.08,1066.45,1066.14,1066.04,1036.09,1046.06,1066.07,1066.5,1066.84,1066.93,1066.85,1066.63,1046.26,1045.96,1065.45,1054.85,1054.08,1053.18,1052.59,1051.93,1051.57,1051.19,1050.61,1050.16,1049.7,1049.15,1048.47,1047.79,1047.37,1046.76,1046.12,1045.74,1045.45,1045.26,1045.28,1045.35,1045.26,1045.14,1045.15,1045.44,1045.59,1045.79,1046.1,1046.45,1046.79,1047.1,1047.38,1047.58,1047.81,1048.1,1048.35,1048.26,1048.23,1048.22,1048.24,1048.22,1048.08,1047.72,1047.08,1046.19,1045.29,1044.3,1043.33,1042.21,1041.21,1040.27,1039.72,1039.19,1039.33,1039.64,1039.88,1039.98,1040.03,1040.07,1040.34,1040.31,1040.59,1040.53,1040.38,1040.23,1040.28,1050.22,1050.12,1050.02,1049.76,1049.38,1049.2,1049.09,1048.82,1048.31,1047.85,1047.32,1046.83,1046.33,1045.91,1045.68,1045.64,1045.84,1046.21,1046.54,1046.85,1046.7,1046.8,1047.02,1037.19,1037.38,1037.72,1037.98,1038.34,1038.57,1039.11,1039.49,1039.69,1039.45,1038.92,1038.4,1038.05,1037.46,1036.9,1036.13,1035.24,1034.4,1033.95,1033.67,1033.92,1034.34,1034.3,1033.86,1033.7,1034.28,1035.47,1036.19,1036.4,1035.76,1035.06,1034.57,1034.79,1034.72,1034.13,1032.83,1031.88,1031.24,1031.01,1040.89,1041.12,1041.11,1041.4,1041.61,1041.71,1041.84,1041.88,1041.38,1040.67,1040.06,1039.38,1038.9,1028.35,1027.57,1026.71,1025.81,1024.93,1024.16,1023.35,1022.42,1021.61,1030.99,1030.43,1029.81,1029.17,1028.73,1028.37,1028.03,1027.6,1026.96,996.047,985.295,984.531,983.611,982.803,982.361,991.851,991.669,1021.75,1022.16,1012.81,1014.22,1016.22,1017.84,1019.01,1020.11,1021.37,1022.47,1023.32,1024.12,1023.88,1023.13,1022.18,1021.41,1020.47,1019.06,1017.56,1016.33,1014.9,1013.51,1012.66,1011.7,1010.59,1009.38,1008.52,1008,1007.47,1007.02,1006.54,1005.74,1005.2,1004.88,1004.91,1004.83,1004.52,1004.13,1003.71,1003.54,1003.53,1003.68,1003.7,1003.45,1003.46,1003.43,1003.61,1003.95,1003.99,1003.73,1003.33,1003.06,1002.98,1002.72,1002.44,1002.1,1001.59,1001.05,1000.89,1000.62,1000.12,999.422,998.916,998.497,998.205,997.898,997.523,997.056,997.002,997.085,997.285,997.324,997.457,997.56,997.719,997.8,997.948,998.271,998.471,998.351,998.233,998.009,997.592,997.292,996.896,996.552,1006.56,1006.37,1006.41,1006.44,1006.59,1006.72,1006.92,1007.19,1007.25,1006.57,1006.19,1005.75,1005.16,1004.65,1004.08,1003.62,1002.97,1002.3,1001.83,1001.47,1001.2,1001.09,1000.86,1000.76,1000.51,1000.44,1000.51,1000.74,1000.86,1000.85,1000.99
1051.31,1051.42,1051.23,1051.27,1051.3,1051.38,1051.4,1051.29,1051.32,1051.44,1051.48,1051.4,1051.42,1051.57,1051.47,1051.36,1051.14,1050.85,1050.56,1050.18,1069.9,1069.46,1088.89,1088.49,1088.03,1087.68,1087.46,1087.01,1086.35,1085.59,1085,1084.52,1083.9,1083.4,1082.83,1082.18,1081.72,1081.62,1081.64,1081.68,1081.8,1081.78,1081.75,1081.8,1081.85,1081.99,1081.91,1081.79,1081.62,1081.29,1080.87,1090.4,1089.52,1088.17,1086.92,1086.09,1084.99,1083.9,1082.74,1081.59,1080.52,1079.65,1079.01,1078.06,1076.85,1075.72,1074.81,1064.07,1063.71,1063.47,1063.28,1063.23,1063.27,1063.42,1063.79,1064.28,1064.63,1064.85,1074.84,1074.64,1074.11,1073.75,1073.15,1072.19,1071.16,1070.26,1069.3,1068.09,1067.18,1066.54,1065.92,1065.56,1065.45,1035.45,1045.44,1065.44,1065.8,1066.07,1066.14,1066.03,1065.84,1055.52,1045.19,1064.72,1054.22,1053.51,1052.76,1052.29,1051.7,1051.29,1050.9,1050.4,1049.97,1049.43,1048.9,1048.28,1046.72,1046.42,1046.08,1045.56,1045.28,1045.02,1044.86,1043.9,1044.98,1045.87,1045.76,1045.7,1045.88,1045.92,1046.01,1046.2,1046.34,1046.44,1046.58,1046.74,1046.92,1047.11,1047.32,1047.35,1047.15,1047.13,1047.03,1047.05,1046.88,1046.63,1046.14,1045.43,1044.63,1043.84,1042.99,1042.14,1041.16,1040.29,1039.53,1039.17,1038.69,1038.8,1039.07,1039.29,1039.39,1039.42,1039.47,1039.72,1039.65,1039.88,1039.75,1039.51,1039.37,1049.42,1049.33,1049.24,1049.21,1049.15,1048.83,1048.81,1048.78,1048.59,1048.14,1047.7,1047.32,1046.84,1046.28,1045.76,1045.53,1045.53,1045.78,1046.19,1046.43,1046.69,1046.53,1046.59,1036.81,1036.96,1037.04,1037.25,1037.41,1037.82,1038.07,1038.61,1039.11,1039.32,1039.08,1038.66,1037.84,1037.79,1037.1,1036.51,1035.78,1034.94,1034.16,1033.64,1033.28,1033.41,1033.61,1033.44,1032.98,1032.87,1033.32,1034.2,1034.62,1035.12,1034.03,1033.48,1033.06,1033.22,1033.14,1032.61,1031.51,1030.7,1030.38,1040.12,1040,1040.13,1040.16,1040.28,1040.38,1040.39,1040.49,1040.43,1040.03,1039.36,1038.82,1038.13,1027.76,1027.22,1026.46,1025.7,1024.92,1024.15,1023.41,1022.65,1021.81,1031.01,1030.45,1029.96,1029.38,1028.78,1028.31,1028.02,1027.77,1027.43,996.705,985.855,985.09,984.359,983.446,982.623,1022.05,1011.47,1021.22,1021.25,1011.54,1012.1,1013.22,1014.93,1016.43,1017.43,1018.54,1019.55,1020.4,1020.98,1021.54,1021.39,1020.81,1020.13,1019.67,1019.02,1018.11,1017.14,1016.22,1015.06,1013.97,1013.35,1012.58,1011.49,1010.01,1008.99,1008.3,1007.67,1007.1,1006.52,1005.59,1004.86,1004.45,1004.59,1004.49,1004.18,1003.81,1003.33,1003.15,1003.16,1003.39,1003.44,1003.11,1003.08,1002.99,1003.08,1003.26,1003.2,1002.85,1002.35,1002,1001.93,1001.6,1001.34,1001.02,1000.58,1000.23,1000.19,1000.05,999.619,998.896,998.403,997.901,997.59,997.252,996.795,996.063,995.864,996.041,996.36,996.486,996.645,996.794,996.962,997.076,997.271,997.556,997.748,997.59,997.466,997.2,996.765,996.448,996.12,995.831,995.939,1005.83,1006,1006.14,1006.42,1006.65,1006.83,1007.19,1007.32,1006.62,1006.19,1005.71,1005.03,1004.51,1003.89,1003.35,1002.63,1001.89,1001.37,1000.99,1000.65,1000.54,1000.25,1000.12,999.865,999.744,999.721,999.871,999.988,999.926,999.958
1051.22,1051.4,1051.08,1051.04,1050.92,1050.84,1050.74,1050.56,1050.45,1050.47,1050.45,1050.35,1050.29,1050.32,1050.25,1050.09,1049.83,1049.46,1049.21,1048.91,1068.6,1078.14,1097.51,1096.97,1096.36,1095.76,1095.3,1094.63,1093.79,1092.94,1092.37,1091.8,1091.35,1091.02,1090.66,1090.26,1090,1089.99,1090.12,1090.22,1090.29,1090.27,1090.24,1090.23,1090.23,1090.37,1090.23,1090.04,1089.87,1089.55,1089.16,1088.59,1087.63,1086.28,1085.06,1084.29,1083.43,1082.57,1081.57,1080.49,1079.49,1078.66,1078.05,1077.17,1076.01,1074.84,1073.82,1073.03,1072.64,1072.34,1072.05,1071.99,1072.02,1072.16,1072.55,1073.03,1073.44,1073.68,1073.78,1073.73,1073.36,1073.06,1072.55,1071.64,1070.7,1069.85,1068.89,1067.67,1066.72,1066.07,1065.42,1065.03,1064.79,1034.75,1044.68,1064.59,1064.92,1065.14,1065.12,1065.03,1064.87,1064.64,1044.35,1063.87,1063.46,1062.89,1062.29,1061.98,1061.43,1060.96,1060.58,1060.14,1058.75,1057.28,1057.77,1057.11,1055.53,1055.34,1055.18,1054.72,1054.59,1054.37,1054.21,1055.32,1054.47,1054.36,1054.15,1055.01,1056.18,1055.17,1055.2,1055.27,1056.22,1056.17,1056.29,1056.44,1056.44,1056.43,1056.37,1056.16,1055.78,1055.6,1055.35,1055.18,1054.9,1054.47,1053.92,1053.33,1052.7,1052.06,1051.32,1050.63,1049.72,1048.98,1048.43,1048.15,1047.77,1047.91,1048.24,1048.5,1048.65,1048.72,1048.79,1049.04,1048.96,1049.15,1048.98,1048.65,1048.35,1048.21,1047.95,1047.87,1047.98,1048.02,1047.79,1048.24,1048.39,1048.31,1048.04,1047.81,1047.48,1046.94,1046.35,1045.78,1045.55,1045.38,1045.76,1046.16,1046.39,1046.69,1046.5,1046.54,1046.75,1046.91,1046.9,1046.83,1046.9,1047.3,1047.48,1048,1048.45,1048.56,1048.34,1048,1047.38,1046.94,1046.2,1045.49,1044.65,1043.77,1042.96,1042.45,1042.01,1041.91,1041.76,1041.58,1041.18,1041,1041.34,1041.93,1042.25,1042.39,1042.09,1041.81,1041.49,1041.57,1041.51,1041.08,1040.27,1039.76,1039.31,1039.09,1038.95,1039.05,1039.09,1039.11,1039.08,1039.04,1038.98,1038.89,1038.56,1037.91,1037.34,1036.61,1036.26,1035.7,1035.14,1034.52,1033.87,1033.22,1032.6,1031.9,1031.08,1030.39,1029.89,1029.34,1028.77,1028.12,1027.6,1027.3,1027.08,996.803,976.205,975.541,974.847,974.162,973.392,1022.63,1022.14,1021.63,1021.5,1021.38,1021.51,1021.83,1012.66,1014.02,1015.38,1016.29,1017.26,1017.99,1018.55,1028.89,1029.32,1029.2,1028.67,1028.12,1027.7,1027.3,1026.9,1026.34,1025.79,1025.07,1024.41,1024.14,1023.65,1022.72,1021.3,1020.01,1019.21,1018.44,1017.78,1017.02,1015.97,1015.03,1014.43,1014.54,1014.44,1014.1,1013.75,1013.28,1013.03,1012.98,1013.21,1013.22,1012.87,1012.7,1012.53,1012.48,1012.54,1012.33,1011.85,1011.31,1010.95,1010.85,1010.52,1010.31,1010.07,1009.78,1009.55,1009.72,1009.72,1009.31,1008.63,1008.2,1007.68,1007.34,1007,1006.59,1005.87,1005.62,1005.71,1005.98,1006.13,1006.37,1006.42,1006.53,1006.63,1006.73,1006.94,1007.05,1006.83,1006.65,1006.32,1005.94,1005.7,1005.32,1005.13,1005.31,1005.36,1005.63,1005.85,1006.18,1006.5,1006.69,1007.08,1007.24,1006.57,1006.06,1005.52,1004.76,1004.2,1003.58,1003,1002.21,1001.47,1000.99,1000.63,1000.4,1000.34,1000.08,1000.03,999.871,999.837,999.762,999.816,999.875,999.802,999.744
1050.98,1051.26,1050.89,1050.69,1050.42,1050.21,1050,1049.78,1049.62,1049.53,1049.47,1049.29,1049.16,1049.1,1048.94,1048.76,1048.48,1048.12,1047.8,1047.48,1067.13,1066.59,1095.84,1095.14,1094.34,1093.57,1092.94,1092.12,1091.14,1090.35,1089.76,1089.34,1089.05,1088.87,1088.74,1088.56,1088.44,1088.48,1088.59,1088.66,1088.7,1088.67,1088.63,1088.64,1088.58,1088.68,1088.49,1088.27,1088.08,1087.73,1087.28,1086.59,1085.58,1084.42,1083.28,1082.76,1082.11,1081.29,1080.32,1079.28,1078.35,1077.68,1077.21,1076.34,1075.11,1073.92,1072.89,1072.08,1071.6,1071.22,1070.93,1070.85,1070.86,1070.99,1071.33,1071.71,1072.15,1072.42,1072.56,1072.6,1072.35,1072.17,1071.75,1070.99,1070.15,1069.32,1068.42,1067.33,1066.43,1065.74,1065.01,1064.51,1064.22,1054.06,1053.92,1063.78,1063.96,1064.18,1064.12,1064.03,1063.87,1063.66,1063.36,1062.91,1062.51,1061.99,1061.54,1061.26,1059.76,1059.29,1059.96,1059.56,1057.11,1056.71,1056.27,1055.66,1056.22,1055.09,1054.99,1054.68,1054.63,1054.49,1055.35,1055.52,1055.69,1054.62,1054.35,1054.2,1055.32,1055.33,1055.28,1056.3,1056.22,1056.14,1056.21,1056.21,1056.02,1055.73,1055.49,1055.21,1054.85,1054.47,1053.98,1053.5,1052.95,1052.31,1051.71,1051.37,1050.54,1049.73,1048.94,1048.4,1047.76,1047.33,1047.02,1047,1046.78,1047.01,1047.45,1047.79,1047.9,1048.08,1048.14,1048.31,1048.21,1048.23,1048.06,1047.64,1047.22,1046.88,1046.54,1046.35,1046.3,1046.26,1046.15,1046.69,1046.92,1046.99,1046.9,1046.8,1046.7,1046.3,1045.78,1045.28,1045.11,1045.13,1045.62,1046.08,1046.33,1046.59,1046.53,1046.74,1047.05,1047.16,1046.99,1046.81,1046.8,1047.09,1047.21,1047.58,1047.88,1047.84,1047.51,1047.14,1046.55,1046.08,1045.29,1044.55,1043.74,1042.8,1042.12,1041.59,1041.01,1040.44,1039.97,1039.61,1039.33,1039.21,1039.36,1039.6,1039.71,1039.78,1039.77,1039.75,1039.61,1039.59,1039.45,1039.12,1038.67,1038.35,1038.1,1037.99,1037.82,1037.8,1037.72,1037.57,1037.49,1037.36,1037.28,1037.1,1036.67,1036.1,1035.52,1035.03,1034.73,1034.27,1033.84,1033.29,1032.75,1032.18,1031.58,1030.92,1030.19,1029.49,1028.87,1028.33,1027.74,1026.97,1026.46,1026.15,1025.96,985.793,975.338,974.856,974.338,983.826,1023.27,1022.66,1022.33,1021.99,1021.87,1021.84,1021.87,1022.1,1012.68,1013.72,1014.84,1015.45,1016.12,1016.58,1017.01,1017.27,1017.58,1027.5,1027.05,1026.6,1026.3,1026.02,1025.81,1025.41,1024.89,1024.22,1023.7,1023.69,1023.38,1022.67,1021.35,1020.19,1019.46,1018.74,1018.09,1017.26,1016.23,1015.28,1014.77,1014.77,1014.69,1014.36,1014.07,1013.65,1013.4,1013.22,1013.37,1013.22,1012.83,1012.56,1012.25,1012.04,1012.01,1011.75,1011.29,1010.67,1010.31,1010.21,1009.89,1009.71,1009.56,1009.3,1009.17,1009.48,1009.55,1009.17,1008.59,1008.17,1007.6,1007.25,1006.94,1006.56,1005.81,1005.51,1005.5,1005.8,1005.97,1006.24,1006.29,1006.31,1006.3,1006.3,1006.38,1006.41,1006.14,1005.89,1005.72,1005.4,1005.19,1004.86,1004.79,1005.09,1005.22,1005.51,1005.79,1006.04,1006.34,1006.56,1006.93,1007.05,1006.43,1005.87,1005.23,1004.49,1003.9,1003.25,1002.67,1001.82,1001.14,1000.74,1000.48,1000.25,1000.24,1000.06,1000.1,999.987,1000.03,999.923,999.876,999.904,999.84,999.718
1051,1051.07,1050.72,1050.45,1050.04,1049.69,1049.39,1049.1,1048.89,1048.74,1048.61,1048.43,1048.21,1048.05,1047.76,1047.52,1047.18,1046.77,1046.39,1045.94,1045.47,1044.79,1063.99,1063.18,1062.29,1061.39,1060.49,1049.56,1048.68,1047.85,1047.32,1047.04,1046.88,1046.91,1046.94,1046.97,1047,1047.07,1047.17,1047.18,1047.18,1047.12,1047.06,1047.03,1046.96,1047.13,1056.85,1056.57,1056.32,1055.92,1055.45,1084.72,1083.83,1082.75,1081.82,1081.35,1080.68,1079.93,1079.09,1078.28,1077.43,1076.73,1076.24,1075.4,1074.23,1073.06,1072.06,1061.18,1060.68,1040.24,1039.89,1039.75,1049.71,1049.81,1050.14,1050.48,1050.91,1051.19,1071.37,1071.49,1071.38,1071.28,1070.91,1070.31,1069.53,1068.76,1067.87,1066.98,1066.1,1065.33,1064.57,1064.05,1063.71,1063.49,1063.27,1063.02,1063.05,1063.18,1063.14,1063.06,1052.89,1052.64,1052.32,1041.97,1031.66,1031.22,1030.75,1029.53,1029.04,1017.64,1017.38,1018.03,1016.67,1016.27,1015.86,1015.38,1014.93,1014.86,1014.84,1014.57,1014.59,1014.54,1014.44,1014.62,1014.83,1014.83,1014.57,1014.4,1014.45,1015.45,1015.36,1016.33,1016.23,1016.12,1016.17,1016.13,1015.93,1015.69,1015.46,1015.14,1014.79,1014.48,1013.84,1013.1,1011.41,1010.72,1009.98,1010.54,1009.69,1008.8,1008.01,1007.56,1007.14,1006.78,1006.59,1006.66,1006.43,1006.68,1017.05,1017.41,1017.49,1017.56,1017.63,1017.72,1017.59,1017.55,1037.33,1036.97,1036.46,1036.11,1035.82,1035.69,1035.68,1035.57,1035.46,1035.76,1035.96,1036.03,1036.02,1036.02,1035.98,1035.75,1025.3,1024.93,1025,1024.94,1025.49,1026.01,1016.32,1016.69,1016.81,1017.32,1017.69,1017.77,1017.72,1017.55,1007.41,1007.46,1007.31,1007.36,1007.28,1007.03,1006.52,1006.08,1005.48,1004.88,1004.2,1003.42,1002.57,1001.72,1001.02,1000.51,999.878,999.217,998.602,998.145,997.866,997.781,997.872,997.893,1007.87,1007.94,1007.99,1008.05,1007.96,1007.93,1007.79,1007.54,1007.35,1027.11,1026.87,1036.7,1036.49,1036.38,1036.26,1036.15,1035.99,1035.79,1035.7,1025.51,1025.13,1024.64,1024.23,1023.76,1013.62,1003.34,1003.01,1002.47,1012.02,1021.46,1030.84,1030.25,1029.58,1028.84,1028.18,1027.52,1026.9,1026.13,1025.56,1025.17,1024.98,1014.82,1004.51,1014.18,1023.91,1023.61,1023.27,1022.95,1022.71,992.464,992.335,992.42,992.566,982.678,982.972,983.613,984.327,984.655,985.04,985.366,985.476,985.469,985.651,985.661,985.304,984.979,984.799,984.715,984.537,984.167,983.866,983.235,982.803,982.633,982.366,981.852,980.796,979.864,979.295,978.674,978.038,977.332,976.471,975.631,975.156,975.082,974.861,974.479,974.211,973.964,973.703,973.456,973.434,973.193,972.775,972.449,972.019,971.595,971.411,971.179,970.68,970.013,969.721,969.598,969.344,969.2,969.101,968.949,968.875,969.308,969.404,969.094,968.567,968.2,967.649,967.269,966.974,966.632,965.924,965.563,965.509,965.816,965.952,966.183,966.21,966.187,966.104,965.986,965.931,965.924,965.654,965.43,965.333,965.063,974.806,974.582,974.62,975.012,975.207,975.505,995.802,1006.02,1006.26,1006.47,1006.75,1006.79,1006.22,1005.58,1004.95,1004.22,1003.63,1002.99,1002.38,1001.61,1000.98,1000.64,1000.45,1000.27,1000.31,1000.14,1000.24,1000.16,1000.23,1000.15,1000.04,999.978,999.933,999.724
1051.25,1050.88,1050.58,1050.17,1049.71,1049.22,1048.86,1048.48,1048.18,1048.02,1047.87,1047.67,1047.46,1047.24,1046.94,1046.6,1046.12,1045.62,1045.07,1044.47,1043.88,1043.11,1042.18,1041.33,1040.28,1039.26,1038.29,1037.34,1036.54,1035.83,1035.41,1035.29,1035.25,1035.36,1035.5,1035.6,1035.65,1035.71,1035.8,1035.77,1035.69,1035.65,1035.6,1035.55,1035.49,1035.56,1035.22,1034.84,1034.55,1034.13,1033.71,1073.13,1072.33,1071.29,1070.56,1070.16,1069.69,1069.06,1068.3,1067.49,1066.63,1065.94,1065.55,1064.65,1063.43,1062.3,1061.3,1040.44,1039.81,1019.35,1018.93,1018.67,1028.56,1028.6,1028.89,1029.14,1029.57,1029.86,1070.03,1070.21,1070.17,1070.08,1069.77,1069.23,1068.58,1067.88,1067.12,1066.37,1065.51,1064.74,1064.02,1063.52,1063.12,1062.85,1062.61,1062.32,1062.27,1062.4,1062.38,1052.36,1042.24,1041.96,1041.7,1031.41,1011.19,1010.76,1009.3,1008.08,1007.62,1007.24,1007.04,1006.73,1006.34,1005.98,1005.56,1005.12,1004.77,1004.71,1004.72,1004.49,1004.55,1004.5,1004.41,1004.6,1004.73,1004.66,1004.4,1004.21,1004.22,1004.2,1005.11,1004.99,1004.89,1003.8,1003.9,1005.96,1004.75,1004.56,1004.28,1005.11,1004.85,1004.49,1003.91,1003.14,1002.45,1000.77,999.969,998.034,998.3,998.506,997.739,997.266,996.855,996.522,996.339,996.388,996.519,996.663,996.924,997.164,997.239,997.272,997.259,997.226,997.084,1036.99,1036.73,1036.34,1035.85,1035.44,1035.2,1035.1,1035.05,1034.98,1034.91,1035.19,1035.3,1035.38,1035.4,1035.47,1035.47,1015.33,1014.93,1014.77,1015,1015.01,1015.56,1006.16,996.564,997.035,997.312,997.916,998.263,998.341,998.228,997.97,997.72,997.562,997.17,996.907,996.609,996.156,995.463,994.826,994.215,993.587,992.818,992.05,991.271,990.417,989.803,989.207,988.555,987.85,987.195,986.725,986.373,986.203,986.228,986.117,986.099,986.177,986.246,986.351,986.33,986.336,986.252,996.108,1015.97,1015.76,1035.49,1035.28,1035.02,1034.93,1034.8,1034.6,1034.41,1034.24,1014.2,1014.12,1003.92,1003.69,1003.48,993.204,983.253,983.106,982.807,992.441,1002.03,1031.54,1030.92,1030.2,1029.47,1028.68,1027.92,1027.15,1026.44,1025.6,1025.01,1024.64,1014.33,1004.08,1013.78,1023.49,1023.29,1023.09,1023.03,1022.92,972.725,972.583,972.541,972.59,972.76,972.893,972.965,973.211,973.389,973.464,973.685,973.86,973.822,973.56,973.622,973.589,973.28,973.143,973.114,973.14,973.055,972.844,972.61,972.168,971.755,971.589,971.303,970.806,969.938,969.285,968.762,968.26,967.692,967.122,966.395,965.726,965.308,965.12,964.857,964.469,964.227,964.061,963.85,963.604,962.605,962.312,961.912,961.499,960.926,961.341,960.939,960.579,959.991,959.319,959.042,958.89,958.62,958.537,958.525,958.435,958.505,959.058,959.178,958.884,958.386,958.1,957.572,957.249,956.954,956.672,956.04,955.688,955.637,955.883,955.996,956.131,956.14,956.146,956.013,955.861,955.765,955.756,955.465,955.281,955.277,955.043,954.783,954.638,954.727,955.085,955.29,955.626,955.886,976.008,1006.17,1006.31,1006.46,1006.41,1005.85,1005.21,1004.57,1003.91,1003.38,1002.72,1002.22,1001.46,1000.95,1000.65,1000.52,1000.36,1000.39,1000.23,1000.29,1000.21,1000.3,1000.19,1000.07,999.933,999.786,999.539
1050.61,1050.42,1050.16,1049.7,1049.2,1048.67,1048.28,1047.91,1047.66,1047.48,1047.3,1047.07,1046.82,1046.57,1046.18,1045.74,1045.23,1044.54,1043.89,1043.2,1042.6,1041.75,1040.8,1039.88,1038.84,1037.88,1036.92,1036.12,1035.37,1034.77,1034.4,1034.29,1034.3,1034.43,1034.53,1034.61,1034.55,1034.52,1034.53,1034.52,1034.42,1034.31,1034.28,1034.19,1034.06,1034.08,1033.69,1033.26,1032.98,1032.65,1032.23,1071.71,1071.11,1070.35,1069.77,1069.46,1069.06,1068.43,1067.92,1067.23,1066.42,1065.69,1065.06,1064.16,1062.99,1061.81,1060.86,1039.94,1039.25,1018.69,1018.1,1017.76,1027.51,1027.46,1027.68,1027.86,1028.17,1028.45,1068.68,1068.89,1068.92,1068.89,1068.65,1068.28,1067.71,1067.09,1066.46,1065.82,1064.93,1064.15,1063.51,1062.99,1062.58,1062.26,1061.93,1061.56,1061.49,1061.54,1061.51,1051.5,1041.41,1041.2,1040.95,1030.76,1009.63,1009.27,1007.89,1007.67,1007.28,1006.95,1006.75,1006.41,1006.11,1005.79,1005.34,1005.01,1004.76,1004.68,1004.67,1004.48,1004.47,1004.39,1004.21,1004.31,1004.37,1004.23,1003.95,1003.83,1003.8,1003.73,1003.65,1003.59,1003.52,1003.51,1003.62,1003.72,1003.55,1003.39,1004.17,1004.04,1004.84,1004.53,1003.98,1003.3,1002.59,1001.97,1001.23,1000.36,999.616,998.871,998.063,997.612,997.173,996.73,996.479,996.426,996.438,996.454,996.559,996.713,996.767,996.733,996.707,996.676,1036.52,1036.35,1036.12,1035.79,1035.3,1034.96,1034.73,1034.59,1034.48,1034.44,1034.42,1034.81,1034.93,1034.95,1034.93,1034.99,1015.07,1015.03,1014.74,1014.76,1015.09,1015.15,1005.84,996.488,997.082,997.571,997.934,998.657,998.914,998.93,998.738,998.299,997.953,997.514,996.912,996.372,995.794,995.202,994.33,993.61,992.869,992.159,991.425,990.67,989.916,989.171,988.487,987.819,987.148,986.493,985.771,985.272,984.907,984.672,984.512,984.382,984.403,984.545,984.638,984.79,984.863,984.939,994.914,1014.85,1014.8,1034.65,1034.42,1034.28,1034.03,1033.9,1033.81,1033.54,1033.43,1013.39,1013.45,1003.44,1003.37,1003.18,993.098,982.96,983.096,983.033,992.741,1002.47,1032.2,1031.75,1031.09,1030.35,1029.51,1028.57,1027.71,1026.85,1026.09,1025.15,1024.5,1014.11,1003.83,1013.56,1023.35,1023.13,1022.97,1022.8,1022.86,972.873,972.787,972.7,972.613,972.613,972.697,972.738,972.66,972.54,972.381,972.082,972.08,972.026,971.883,971.612,971.591,971.505,971.312,971.275,971.393,971.538,971.616,971.513,971.412,971.044,970.718,970.503,970.265,969.838,969.075,968.449,968.007,967.533,967.115,966.671,966.108,965.48,965.098,964.887,964.653,964.321,964.115,963.931,963.711,963.535,963.538,963.312,962.929,962.431,961.768,961.091,960.494,959.961,959.347,958.718,958.447,958.264,957.985,957.963,957.989,958.006,958.11,958.557,958.645,958.401,958.016,957.777,957.286,957.003,956.777,956.622,956.168,955.9,955.816,955.962,956.055,956.155,956.16,956.124,955.95,955.783,955.697,955.671,955.425,955.252,954.337,955.09,954.891,954.799,954.839,955.075,955.265,955.657,955.799,955.863,975.951,1005.98,1005.96,1005.82,1005.39,1004.77,1004.1,1003.51,1002.99,1002.45,1001.98,1001.35,1000.95,1000.68,1000.56,1000.42,1000.37,1000.18,1000.21,1000.06,1000.08,999.966,999.803,999.62,999.407,999.133
1050.16,1050.04,1049.73,1049.28,1048.75,1048.26,1047.92,1047.53,1047.3,1047.15,1046.92,1046.72,1046.44,1046.1,1045.66,1045.17,1044.56,1043.83,1043.06,1042.39,1041.57,1040.75,1039.73,1038.81,1037.71,1036.8,1035.81,1035.1,1034.42,1033.91,1033.53,1033.47,1033.49,1033.57,1033.65,1033.71,1033.6,1033.55,1033.52,1033.38,1033.28,1033.12,1033.01,1032.88,1032.8,1032.78,1032.36,1032,1031.77,1031.48,1031.19,1070.81,1070.34,1069.83,1069.37,1069.09,1068.77,1068.29,1067.75,1067.04,1066.21,1065.47,1064.61,1063.71,1062.57,1061.41,1060.46,1039.52,1038.77,1018.13,1017.48,1017.06,1026.71,1026.58,1026.63,1026.71,1026.93,1027.14,1067.31,1067.57,1067.6,1067.62,1067.49,1067.22,1066.75,1066.29,1065.72,1065.11,1064.27,1063.54,1062.94,1062.4,1062.02,1061.68,1061.31,1060.94,1060.84,1060.9,1060.87,1050.81,1040.76,1040.6,1040.44,1029.23,1008.14,1007.82,1007.5,1007.32,1006.98,1006.7,1006.49,1006.22,1005.94,1005.65,1005.27,1004.95,1004.76,1004.7,1004.61,1004.38,1004.31,1004.14,1003.9,1003.92,1003.88,1003.69,1003.4,1003.23,1003.15,1003.13,1003.11,1003.07,1003.02,1003.07,1003.21,1003.35,1003.25,1003.14,1003.01,1003.9,1003.72,1003.46,1002.96,1002.37,1002.74,1002.06,1001.4,1000.61,999.837,999.154,998.476,997.921,997.405,996.902,996.607,996.416,996.313,996.215,996.233,996.342,996.339,996.306,996.316,1036.26,1036.13,1035.91,1035.65,1035.28,1034.9,1034.53,1034.26,1034.05,1033.91,1033.85,1033.9,1034.32,1034.47,1034.52,1034.53,1014.57,1014.71,1014.68,1014.53,1014.73,1015.16,1005.24,995.973,996.736,997.33,997.896,998.468,999.157,999.359,999.3,999.09,998.496,997.976,997.345,996.58,995.741,994.976,994.17,993.308,992.523,991.781,991.01,990.249,989.484,988.804,988.06,987.383,986.642,985.874,985.274,984.631,984.156,983.721,983.451,983.214,983.045,983.042,983.186,983.242,983.438,983.474,993.569,1013.65,1013.64,1033.65,1033.57,1033.37,1033.24,1033.05,1032.94,1032.87,1032.71,1012.69,1012.75,1002.86,1002.87,1002.84,992.808,982.811,982.77,982.972,992.978,1002.73,1032.38,1032.08,1031.55,1030.85,1030.01,1029.04,1027.92,1026.95,1026.1,1025.32,1024.47,1013.84,1003.49,1013.22,1023.03,1022.93,1022.8,1022.68,1022.51,972.585,972.574,972.572,972.493,972.363,972.323,972.313,972.127,971.95,971.655,971.231,970.751,970.527,970.341,970.15,969.91,969.857,969.728,969.634,969.75,969.992,970.203,970.363,970.336,970.314,970.062,969.818,969.633,969.469,969.101,968.339,967.792,967.389,966.985,966.632,966.302,965.823,965.249,964.867,964.637,964.425,964.172,964.007,963.821,963.608,963.455,963.565,963.379,963.001,962.48,961.757,960.948,960.249,959.497,958.847,958.204,957.866,957.581,957.31,957.338,957.366,957.396,957.598,957.883,957.899,957.698,957.449,957.249,956.785,956.545,956.393,956.354,956.207,956.028,955.967,956.067,956.176,956.255,956.25,956.2,956.004,955.819,955.716,955.632,955.374,955.144,955.2,954.939,954.722,954.578,954.507,954.58,954.752,955.122,955.29,955.317,955.424,975.393,1005.34,1005.11,1004.69,1004.09,1003.46,1002.92,1002.48,1002.01,1001.62,1001.08,1000.74,1000.6,1000.48,1000.33,1000.2,999.914,999.875,999.677,999.646,999.555,999.326,999.096,998.849,998.614
1049.76,1049.57,1049.25,1048.73,1048.28,1047.81,1047.49,1047.18,1046.97,1046.77,1046.58,1046.36,1046.06,1045.68,1045.19,1044.67,1043.98,1043.16,1042.42,1041.6,1040.79,1039.85,1038.82,1037.83,1036.71,1035.77,1034.96,1034.17,1033.59,1033.14,1032.86,1032.79,1032.8,1032.78,1032.82,1032.84,1032.66,1032.53,1032.46,1032.3,1032.13,1031.94,1031.86,1031.72,1031.59,1031.49,1031.3,1031,1030.86,1030.61,1030.38,1070.01,1069.62,1069.26,1068.95,1068.66,1068.29,1067.72,1067.24,1066.54,1065.77,1065,1064.14,1063.16,1062.08,1060.93,1060.01,1039.11,1038.32,1017.66,1016.92,1016.5,1025.98,1025.8,1025.79,1025.74,1025.86,1025.98,1066.07,1066.3,1066.36,1066.42,1066.39,1066.22,1065.88,1065.46,1065.04,1064.43,1063.69,1062.98,1062.51,1062.02,1061.61,1061.28,1060.93,1060.53,1060.42,1060.42,1060.37,1050.3,1040.2,1039.02,1038.88,1028.76,1008.72,1007.42,1007.19,1007.03,1006.77,1006.52,1006.35,1006.12,1005.84,1005.62,1005.23,1004.95,1004.74,1004.6,1004.38,1004.15,1003.98,1003.77,1003.41,1003.37,1003.18,1002.93,1002.62,1002.51,1002.44,1002.46,1002.42,1002.43,1002.46,1002.59,1002.77,1003.02,1003,1002.98,1003.9,1003.86,1003.72,1003.5,1003,1002.45,1002.83,1002.16,1001.5,1000.8,1000.06,999.371,998.754,998.182,997.577,997.05,996.7,996.466,996.242,996.049,995.995,996.026,996.102,996.106,1036.1,1036.09,1035.95,1035.69,1035.44,1035.11,1034.73,1034.38,1034.11,1033.87,1033.73,1033.59,1033.59,1034.06,1034.23,1034.24,1014.2,1014.26,1014.38,1014.46,1014.53,1014.83,1005.35,995.461,996.217,996.983,997.565,998.171,998.833,999.417,999.546,999.311,999.038,998.439,997.782,997.094,996.177,995.209,994.318,993.477,992.632,991.864,991.096,990.352,989.567,988.818,988.214,987.403,986.704,985.933,985.174,984.471,983.894,983.41,982.965,982.555,982.325,982.138,982.067,982.172,982.201,982.285,992.287,1012.41,1012.54,1032.55,1032.62,1032.52,1032.37,1032.32,1032.2,1032.17,1032.17,1012.04,1012.02,1002.14,1002.28,1002.39,992.385,982.394,982.446,982.479,992.763,1002.82,1032.47,1032.12,1031.7,1031.09,1030.24,1029.38,1028.35,1027.06,1025.98,1025.08,1024.4,1013.6,1003.13,1012.81,1022.58,1022.47,1022.49,1022.42,1022.34,972.14,972.18,972.188,972.162,972.114,971.984,971.872,971.699,971.389,971.103,970.637,970.107,969.586,969.219,968.938,968.679,968.487,968.45,968.348,968.296,968.496,968.77,969.032,969.256,969.343,969.419,969.222,969.123,968.947,968.809,968.491,967.782,967.272,966.903,966.499,966.2,965.904,965.482,964.954,964.56,964.334,964.121,963.803,963.663,963.438,963.253,963.17,963.314,963.172,962.856,962.371,961.714,960.825,960.023,959.289,958.593,957.892,957.465,957.17,956.8,956.852,956.916,957.03,957.122,957.314,957.358,957.201,957.065,956.913,956.431,956.236,956.123,956.231,956.192,956.088,956.056,956.144,956.229,956.276,956.256,956.169,955.918,955.727,955.62,955.452,955.132,954.816,954.868,954.605,954.413,954.221,954.061,953.925,954.073,954.383,954.518,954.501,954.521,954.465,974.356,1004.13,1003.86,1003.57,1003.02,1002.58,1002.16,1001.76,1001.38,1000.9,1000.65,1000.49,1000.13,999.906,999.717,999.386,999.281,999.104,999.067,999.026,998.873,998.608,998.361,998.16
1049.22,1049,1048.6,1048.17,1047.75,1047.33,1047.02,1046.74,1046.58,1046.47,1046.26,1046.04,1045.72,1045.31,1044.74,1044.14,1043.48,1042.61,1041.76,1040.95,1040.04,1039.03,1038.01,1036.93,1035.91,1034.96,1034.21,1033.55,1033.02,1032.61,1032.32,1032.2,1032.19,1032.12,1032.1,1032.02,1031.81,1031.62,1031.46,1031.26,1031.06,1030.85,1030.75,1030.57,1030.42,1030.41,1030.21,1029.95,1029.85,1029.66,1029.44,1069.17,1068.81,1068.54,1068.19,1067.94,1067.57,1067.05,1066.56,1065.92,1065.22,1064.51,1063.68,1062.77,1061.77,1060.68,1059.83,1038.97,1038.18,1017.5,1016.81,1016.29,1025.72,1025.36,1025.21,1024.99,1024.94,1024.97,1064.95,1065.11,1065.11,1065.17,1065.15,1065.16,1064.88,1064.59,1064.22,1063.77,1063.1,1062.51,1062.06,1061.61,1061.25,1060.94,1060.56,1060.16,1060.05,1060.03,1059.92,1049.85,1038.7,1037.54,1037.4,1027.29,1007.31,1007.12,1006.88,1006.74,1006.56,1006.37,1006.29,1006.09,1005.83,1005.65,1005.26,1004.99,1004.78,1004.56,1004.24,1003.95,1003.72,1003.43,1002.96,1002.84,1002.55,1002.23,1001.92,1001.82,1001.7,1001.71,1001.7,1001.77,1001.9,1002.15,1002.4,1002.63,1002.69,1002.76,1002.76,1003.81,1003.7,1003.54,1004.16,1003.59,1003.03,1002.38,1001.79,1001.11,1000.43,999.688,999.052,998.443,997.835,997.28,996.882,996.611,996.291,996.077,995.981,996.023,996.089,1036.12,1035.1,1035.06,1034.99,1034.79,1034.56,1034.28,1034.95,1034.6,1034.35,1034.13,1033.92,1033.79,1033.78,1034.19,1034.23,1014.2,1014.1,1014.18,1014.26,1014.33,1014.42,1004.76,995.307,995.451,996.165,996.89,997.433,998.025,998.655,999.171,999.231,998.984,998.631,997.978,997.355,996.618,995.64,994.634,993.778,992.891,992.124,991.355,990.71,990.011,989.312,988.61,987.995,987.211,986.49,985.694,984.887,984.164,983.451,982.957,982.405,981.985,981.633,981.384,981.321,981.465,981.476,991.577,1011.66,1011.84,1031.95,1032.02,1032.13,1032.02,1031.8,1031.77,1031.63,1031.58,1011.57,1011.4,1001.42,1001.6,1001.8,991.884,981.934,982.011,982.129,992.181,1002.48,1032.55,1032.16,1031.79,1031.32,1030.55,1029.66,1028.66,1027.5,1026.13,1024.88,1024.01,1013.37,1002.57,1012.22,1021.96,1021.76,1021.7,1021.82,1021.83,971.831,971.632,971.665,971.721,971.725,971.701,971.549,971.344,971.037,970.689,970.25,969.701,969.078,968.557,968.126,967.756,967.445,967.23,967.186,967.153,967.149,967.323,967.613,967.899,968.211,968.389,968.553,968.483,968.456,968.345,968.201,967.957,967.3,966.837,966.48,966.099,965.824,965.515,965.164,964.63,964.263,964,963.677,963.288,963.102,962.907,962.714,962.641,962.85,962.683,962.395,962.087,961.486,960.638,959.817,959.058,958.336,957.52,957.072,956.669,956.297,956.334,956.307,956.318,956.353,956.553,956.583,956.454,956.4,956.374,956.001,955.937,956.004,956.287,956.367,956.291,956.291,956.347,956.396,956.337,956.243,956.096,955.776,955.561,955.402,955.217,954.844,954.485,954.506,954.285,954.081,953.877,953.59,953.288,953.348,953.562,953.625,953.603,953.575,953.436,953.254,972.943,1002.75,1002.55,1002.04,1001.6,1001.26,1000.98,1000.6,1000.2,999.904,999.782,999.181,998.925,998.615,998.418,998.306,998.142,998.128,998.133,998.058,997.868,997.632,997.458
1048.74,1048.45,1048.09,1047.65,1047.27,1046.93,1046.65,1046.48,1046.38,1046.19,1046.03,1045.81,1045.51,1045.02,1044.5,1043.82,1043.11,1042.19,1041.31,1040.35,1039.41,1038.38,1037.35,1036.41,1035.41,1034.55,1033.79,1033.21,1032.72,1032.3,1032.02,1031.83,1031.78,1031.67,1031.51,1031.37,1031.05,1030.81,1030.65,1030.41,1030.17,1029.89,1029.79,1029.6,1029.46,1029.45,1029.26,1029.04,1028.96,1028.82,1028.65,1068.41,1068.12,1067.84,1067.52,1067.28,1066.9,1066.44,1065.96,1065.35,1064.67,1064.01,1063.22,1062.47,1061.49,1060.52,1059.76,1038.92,1038.15,1017.49,1016.75,1016.19,1025.54,1025.06,1024.74,1024.41,1024.25,1024.19,1064.05,1064.11,1064.12,1064.07,1064.11,1064.19,1063.96,1063.67,1063.41,1063.05,1062.44,1061.96,1061.61,1061.23,1060.81,1060.58,1060.21,1059.78,1059.66,1059.64,1059.55,1047.34,1037.26,1037.1,1036.99,1026.87,1006.9,1006.74,1006.59,1006.49,1006.32,1006.25,1006.19,1006.02,1005.78,1005.61,1005.27,1005,1004.76,1004.49,1004.16,1003.78,1003.47,1003.1,1002.62,1002.47,1002.04,1001.6,1001.35,1001.24,1001.09,1001.14,1001.17,1001.27,1001.52,1001.87,1002.25,1002.44,1002.52,1002.67,1002.68,1002.72,1003.7,1003.58,1003.21,1002.71,1003.22,1002.64,1002.13,1001.5,1000.83,1000.1,999.453,998.798,998.184,997.598,997.159,996.796,996.469,996.161,996.059,996.029,1036.11,1036.16,1035.17,1034.15,1034.09,1033.94,1034.82,1034.6,1034.29,1035.01,1034.73,1034.53,1034.38,1034.22,1034.13,1034.41,1014.33,1014.27,1014.13,1014.12,1014.14,1014.09,1004.06,994.428,994.971,995.114,995.683,996.308,996.884,997.45,997.996,998.523,998.504,998.18,997.811,997.184,996.499,995.706,994.739,993.746,992.896,992.094,991.376,990.611,989.998,989.345,988.699,988.091,987.488,986.771,986.052,985.216,984.381,983.642,982.969,982.367,981.795,981.309,980.899,980.623,980.551,980.7,990.645,1010.79,1010.84,1031.07,1031.24,1031.31,1031.44,1031.38,1031.2,1031.18,1031.05,1011.02,1010.95,1000.76,1000.76,1000.92,991.136,981.264,981.33,981.447,991.571,1001.67,1032.02,1032.09,1031.68,1031.26,1030.76,1029.8,1028.82,1027.73,1026.5,1025,1023.71,1012.8,1002.14,1011.41,1021.16,1020.95,1020.77,1020.77,1020.96,971.085,971.13,970.966,971.026,971.119,971.124,971.079,970.979,970.715,970.358,969.868,969.372,968.726,968.115,967.51,967.046,966.623,966.327,966.123,966.14,966.125,966.142,966.319,966.623,966.993,967.383,967.677,967.936,967.925,967.995,967.928,967.818,967.582,967.099,966.695,966.372,965.999,965.682,965.388,964.996,964.508,964.096,963.651,963.214,962.685,962.472,962.257,962.017,961.946,962.142,961.978,961.772,961.577,961.109,960.351,959.517,958.806,958.001,957.168,956.664,956.215,955.8,955.822,955.719,955.642,955.645,955.878,955.938,955.845,955.855,955.926,955.701,955.741,955.896,956.293,956.463,956.433,956.421,956.441,956.443,956.266,956.106,955.893,955.553,955.286,955.092,954.857,954.441,954.089,954.095,953.856,953.641,953.414,953.057,952.626,952.676,952.852,952.847,952.728,952.634,952.414,952.136,951.773,971.489,1001.3,1000.92,1000.56,1000.23,999.877,999.526,999.162,998.902,998.732,998.115,997.845,997.601,997.379,997.285,997.231,997.253,997.332,997.309,997.161,996.968,996.79
