2060.59,2061.12,2061.28,2061.71,2062.15,2062.77,2063.46,2064.44,2065.4,2065.97,2066.76,2067.37,2067.43,2067.18,2066.23,2065.01,2063.28,2061.34,2059.18,2056.39,2053.7,2051.5,2049.92,2048.72,2047.84,2047.42,2047.83,2048.56,2049.77,2051.83,2053.73,2055.39,2056.78,2058.51,2060.23,2061.48,2062.66,2063.43,2063.74,2063.72,2063.85,2063.64,2062.9,2062.27,2061.24,2060.54,2060.14,2060,2060.07,2060.11,2060.39,2060.24,2060.2,2060.62,2060.31,2059.33,2057.94,2056.17,2054.27,2052.41,2051.08,2048.86,2046.32,2043.9,2041.73,2039.77,2037.38,2035.31,2032.81,2029.82,2027.32,2025.14,2022.76,2020.86,2019.11,2017.03,2015.56,2014.62,2013.88,2013.26,2012.62,2012.22,2011.63,2010.81,2010.2,2009.46,2008.77,2008.11,2007.47,2007.09,2006.6,2006.5,2006.78,2007.04,2007.03,2007,2007,2007.43,2008.42,2008.69,2008.37,2008.12,2007.6,2007.18,2006.46,2005.75,2004.41,2002.16,2000.23,1998.66,1997.68,1996.31,1995.34,1994.44,1992.99,1991.94,1990.6,1989.79,1988.68,1987.29,1986.02,1984.99,1983.57,1982.54,1981.37,1980.69,1979.69,1978.78,1977.8,1977.1,1976.51,1975.94,1975.65,1974.84,1973.88,1972.86,1971.5,1970.53,1969.45,1968.23,1967.37,1966.79,1966.19,1966.04,1966.04,1965.49,1968.34,1967.71,1970.33,1969.81,1968.99,1968.32,1964.49,1963.75,1963.65,1960.37,1960.09,1959.91,1959.77,1959.47,1959.27,1959.01,1958.82,1958.77,1958.61,1958.59,1958.28,1957.95,1957.75,1957.18,1956.56,1955.33,1954.01,1952.73,1954.42,1956.68,1955.68,1954.36,1953.04,1952.07,1951.18,1950.86,1950.59,1950.3,1949.67,1949.36,1949.28,1949.56,1950.23,1951.04,1951.03,1951.42,1951.59,1951.79,1951.9,1951.67,1951.04,1949.67,1947.88,1946.43,1944.65,1942.41,1940.15,1937.56,1934.97,1932.36,1930.35,1928.43,1926.21,1921.1,1919.57,1917.88,1916.81,1916.18,1915.67,1915.25,1915.33,1918.55,1919.04,1918.96,1918.91,1918.2,1917.68,1917.07,1916.49,1915.43,1915.08,1914.17,1913.77,1913.52,1913.82,1910.57,1907.47,1907.1,1906.94,1906.98,1906.81,1906.38,1906.41,1906.19,1905.88,1906.03,1906.72,1907,1906.49,1906.5,1906.38,1905.98,1905.81,1905.57,1904.62,1903.29,1902.51,1901.98,1901.39,1901.37,1901.19,1900.88,1900.86,1901.18,1901.49,1901.71,1901.82,1901.76,1901.3,1901.32,1901.6,1901.61,1901.31,1901.14,1901.47,1901.59,1902.06,1902.33,1902.27,1902.25,1902.49,1902.57,1902.98,1903.2,1902.83,1902.32,1901.8,1901.02,1899.77,1897.78,1895.82,1892.98,1889.89,1886.85,1883.67,1880.23,1877.35,1874.69,1872.54,1870.6,1869.06,1868.01,1867.69,1868.02,1868.76,1869.66,1870.94,1872.46,1874.02,1875.65,1876.9,1877.82,1878.72,1879.3,1878.81,1877.92,1876.41,1874.83,1873.2,1871.49,1869.36,1867.05,1864.82,1863.34,1862.55,1862.11,1861.75,1861.5,1861.66,1862.13,1862.53,1863.22,1863.91,1864.22,1864.38,1864.47,1864.56,1864.48,1864.38,1864.35,1863.7,1863,1862.13,1861.16,1859.99,1859,1857.9,1857.05,1856.65,1856.56,1856.49,1856.41,1856.41,1856.71,1856.78,1857.21,1857.46,1857.67,1858.01,1858.58,1859.36,1860.22,1861.1,1861.57,1861.88,1862.33,1862.93,1863.52,1863.71,1863.94,1863.76,1863.39,1862.96,1862.38,1861.38,1860.1,1858.65,1856.96,1855.38,1854.01,1852.25,1850.84,1849.94,1849.2,1848.56,1847.86,1847.63,1847.62,1847.82,1848.12,1848.94,1849.48,1850.15,1851.01,1851.93,1852.42,1852.7,1852.58,1852.1,1851.39,1850.26,1848.95,1847.43,1845.5,1843.52,1841.43,1839.46,1837.51,1835.5,1833.17,1831.17,1829.03,1827.13,1825.36,1826.85,1825.58,1827.51,1829.73,1829.3
2059.04,2059.61,2059.74,2060.02,2060.36,2060.79,2061.2,2062.06,2062.85,2063.29,2063.82,2064.32,2064.3,2064.01,2063.11,2062.08,2060.39,2058.45,2056.69,2054.29,2051.96,2049.99,2048.79,2048.12,2047.74,2047.64,2048.4,2049.47,2051.08,2053.42,2055.63,2057.33,2058.98,2061,2062.61,2063.86,2064.92,2065.4,2065.35,2065.06,2064.75,2063.99,2062.8,2061.33,2059.76,2058.49,2057.73,2057.15,2056.54,2056.12,2055.91,2055.36,2055.29,2055.58,2055.25,2054.34,2053.1,2051.77,2049.93,2048.46,2047.46,2045.64,2043.52,2041.64,2039.83,2038.1,2036.36,2034.99,2032.59,2030.28,2027.89,2026.24,2024.08,2022.47,2020.92,2019.11,2017.68,2016.85,2016.25,2015.61,2014.65,2014.03,2013.3,2012.11,2011.26,2010.12,2008.8,2007.7,2006.64,2006.02,2005.11,2004.54,2004.29,2004.22,2004.09,2003.66,2003.44,2003.75,2004.46,2004.58,2004.36,2004.22,2003.98,2003.75,2003.2,2002.7,2001.48,1999.58,1997.92,1996.68,1995.61,1994.49,1993.21,1992.31,1991.27,1990.15,1989.01,1988.19,1987.27,1985.83,1984.66,1983.7,1982.42,1981.5,1980.45,1979.55,1978.44,1978,1976.93,1976.38,1975.81,1975.18,1974.74,1973.83,1972.88,1971.61,1970.14,1968.86,1967.62,1969.22,1967.9,1967.01,1966.35,1966.04,1965.92,1971.36,1971.14,1970.57,1973.18,1975.66,1974.97,1968.29,1967.38,1966.69,1963.42,1960.1,1959.79,1959.4,1959.19,1956.03,1959.16,1958.9,1958.95,1956.15,1956.37,1956.37,1956.29,1956.41,1955.99,1961.74,1961.22,1960.19,1952.86,1966.6,1965.33,1964.08,1962.84,1961.48,1959.85,1958.59,1957.42,1956.85,1956.19,1955.82,1955.39,1954.99,1955.01,1955.32,1955.74,1956.48,1956.47,1956.83,1956.91,1956.91,1957.14,1957.13,1956.42,1955.14,1953.41,1952.14,1950.33,1948.25,1946.17,1943.66,1941.37,1939.03,1937.35,1935.81,1933.85,1932.08,1927.49,1926.09,1925.11,1927.31,1926.59,1926.01,1925.95,1926,1926.14,1925.95,1925.76,1925.17,1924.53,1924.01,1923.37,1922.22,1921.49,1920.56,1920.19,1919.81,1920.04,1913.85,1907.75,1904.14,1903.79,1903.69,1903.62,1903.22,1903.25,1902.92,1902.73,1903.09,1904.26,1905,1904.94,1905.19,1905.73,1905.62,1905.77,1905.9,1905.22,1904.07,1903.2,1902.52,1901.86,1901.59,1901.29,1900.7,1900.17,1900.17,1900.27,1900.24,1900.29,1900.09,1899.63,1899.59,1899.72,1899.7,1899.3,1899.29,1899.69,1899.85,1900.41,1900.76,1900.92,1900.85,1901.15,1901.17,1901.41,1901.27,1900.77,1899.88,1899.01,1897.94,1896.33,1894.23,1892.01,1889.42,1886.51,1883.52,1880.44,1877.2,1874.49,1871.99,1869.97,1868.46,1867.04,1866.05,1865.92,1866.38,1867.11,1867.96,1869.02,1870.72,1872.25,1873.76,1874.99,1875.76,1876.67,1877.26,1876.86,1876.11,1874.65,1873.17,1871.8,1870.3,1868.61,1866.51,1864.26,1863.01,1862.16,1861.65,1861.31,1861.21,1861.46,1861.75,1862.2,1862.91,1863.56,1863.85,1864.07,1864.03,1863.87,1863.93,1863.86,1863.83,1863.17,1862.27,1861.31,1860.3,1859.15,1858.08,1856.95,1856.14,1855.73,1855.6,1855.46,1855.56,1855.67,1855.92,1856.01,1856.49,1856.75,1857.03,1857.26,1857.87,1858.57,1859.19,1860.05,1860.35,1860.44,1860.9,1861.37,1861.79,1862.07,1862.33,1862.14,1861.71,1861.26,1860.73,1859.61,1858.36,1857.02,1855.37,1853.81,1852.3,1850.73,1849.09,1848.29,1847.5,1846.81,1846.07,1845.82,1845.78,1846.03,1846.63,1847.68,1848.41,1849.25,1850.34,1851.3,1851.96,1852.4,1852.31,1851.87,1851.17,1849.99,1848.47,1846.77,1844.77,1842.87,1840.66,1838.61,1836.69,1834.69,1832.54,1830.49,1828.35,1826.53,1824.84,1829.41,1828.27,1827.28,1829.39,1829.18
2058.1,2058.56,2058.87,2058.95,2059.13,2059.53,2059.89,2060.39,2061.1,2061.36,2061.67,2062.06,2061.86,2061.5,2060.71,2059.66,2058.29,2056.63,2055.02,2052.93,2051.05,2049.53,2048.8,2048.62,2048.72,2049.12,2050.02,2051.19,2053.08,2055.42,2057.78,2059.59,2061.39,2063.07,2064.79,2065.87,2066.51,2066.67,2066.21,2065.35,2064.89,2063.57,2061.96,2060.21,2057.91,2056.63,2055.53,2054.63,2053.69,2053.02,2052.47,2051.72,2051.41,2051.5,2051.07,2050.14,2048.73,2047.65,2045.93,2044.9,2044.16,2042.76,2040.99,2039.51,2038.04,2036.74,2035.68,2034.61,2032.75,2030.57,2028.76,2027.14,2025.47,2024.28,2022.79,2021.04,2019.67,2018.72,2018.12,2017.26,2016.28,2015.46,2014.26,2012.73,2011.72,2010.04,2008.32,2006.74,2005.28,2004.29,2002.97,2001.93,2001.26,2000.72,2000.03,1999.46,1999.14,1999.15,1999.39,1999.27,1999.06,1999.11,1999.05,1999.14,1999,1998.61,1997.86,1996.39,1995.27,1994.15,1993.34,1992.24,1991.13,1990.2,1989.14,1987.97,1987.01,1986.21,1985.04,1983.8,1982.54,1981.61,1980.56,1979.69,1978.99,1978.13,1977.3,1976.81,1975.93,1975.28,1974.82,1974.22,1973.64,1972.75,1971.73,1970.33,1971.74,1970.04,1968.67,1967.03,1965.67,1964.45,1966.46,1966,1965.62,1968.19,1967.62,1967.14,1969.58,1971.98,1965.35,1964.54,1963.7,1959.84,1959.22,1955.89,1955.43,1954.97,1954.55,1954.46,1954.69,1954.68,1952.07,1955.58,1956.05,1956.38,1956.68,1957.06,1959.84,1959.75,1959.57,1955.68,1966.72,1965.48,1964.21,1962.95,1961.56,1960.1,1958.32,1956.89,1955.62,1954.86,1954.1,1953.78,1953.18,1952.86,1952.7,1952.65,1953.13,1953.57,1953.27,1953.52,1953.44,1953.4,1953.41,1953.18,1952.81,1951.77,1950.1,1948.86,1947.15,1945,1942.91,1940.59,1938.38,1936.49,1935.09,1933.7,1932.17,1930.8,1929.6,1928.33,1927.45,1926.66,1925.79,1925.18,1924.94,1924.63,1924.71,1924.29,1924.02,1923.31,1922.82,1922.2,1921.27,1920.22,1919.32,1918.46,1917.94,1917.64,1917.89,1905.52,1905.43,1901.86,1901.5,1901.44,1901.32,1900.94,1900.96,1901.02,1900.98,1901.32,1902.59,1903.76,1904.26,1904.83,1905.43,1905.73,1905.96,1905.98,1905.47,1904.16,1903.22,1902.58,1901.98,1901.22,1900.73,1899.9,1899.3,1899.07,1898.99,1898.95,1898.7,1898.51,1898.05,1897.95,1898.13,1898.04,1897.68,1897.59,1898.01,1898.25,1898.63,1899.22,1899.32,1899.43,1899.6,1899.67,1899.59,1899.22,1898.15,1896.95,1895.87,1894.52,1892.93,1890.77,1888.53,1886.03,1883.24,1880.43,1877.7,1874.7,1872.14,1869.96,1868.21,1866.96,1865.74,1864.95,1864.87,1865.31,1865.87,1866.69,1867.68,1868.95,1870.38,1871.6,1872.68,1873.27,1873.98,1874.53,1874.22,1873.52,1872.37,1871.14,1870.03,1868.76,1867.3,1865.75,1863.82,1862.49,1861.81,1861.25,1860.93,1860.88,1861.15,1861.48,1861.76,1862.55,1863.19,1863.44,1863.67,1863.56,1863.37,1863.32,1863.19,1863.2,1862.45,1861.7,1860.88,1859.83,1858.78,1857.73,1856.61,1855.72,1855.32,1855.22,1855.05,1855.18,1855.29,1855.52,1855.68,1856.13,1856.35,1856.29,1856.5,1856.97,1857.53,1858.02,1858.68,1859.1,1859.05,1859.41,1859.93,1860.38,1860.49,1860.7,1860.56,1860.34,1859.91,1859.34,1858.39,1857.12,1855.86,1854.33,1852.58,1851.1,1849.49,1847.92,1847.04,1846.1,1845.36,1844.56,1844.21,1844.13,1844.51,1845.16,1846.14,1846.88,1847.89,1849.02,1850.13,1850.85,1851.39,1851.26,1851.01,1850.35,1848.92,1847.52,1845.77,1843.81,1841.83,1839.63,1837.66,1835.81,1833.92,1831.88,1829.98,1827.94,1826.32,1824.7,1823.28,1828.3,1827.33,1829.62,1829.29
2058.27,2058.72,2059.06,2059.27,2059.12,2059.33,2059.43,2059.7,2060.1,2060.35,2060.44,2060.78,2060.31,2059.87,2059.12,2058.18,2057.01,2055.86,2054.42,2052.85,2051.17,2050.32,2049.97,2050.34,2050.79,2051.4,2052.4,2053.98,2055.55,2058.09,2060.65,2062.32,2063.95,2065.6,2066.95,2067.77,2067.92,2067.71,2066.86,2065.63,2064.67,2063.01,2061.29,2058.97,2056.63,2054.9,2053.51,2052.3,2051.31,2050.51,2049.54,2048.26,2047.89,2047.77,2047.09,2046.01,2044.52,2043.2,2041.56,2040.66,2040.31,2039.17,2037.84,2036.81,2035.68,2035.01,2034.29,2033.54,2032.21,2030.22,2028.7,2027.56,2026.13,2025.11,2023.98,2022.24,2021.09,2020.01,2019.16,2018.33,2017.08,2016.14,2014.77,2012.9,2011.53,2009.3,2007.29,2005.29,2003.42,2002.13,2000.05,1998.51,1997.54,1996.54,1995.52,1994.53,1994.03,1993.69,1993.43,1993.35,1993.29,1993.24,1993.38,1993.9,1994.04,1994.15,1993.78,1993.16,1992.41,1991.58,1991.27,1990.27,1989.18,1988.21,1987.2,1986.17,1984.85,1983.97,1982.99,1981.62,1980.54,1979.6,1978.71,1977.91,1977.31,1976.69,1976.03,1975.5,1974.89,1974.22,1973.75,1973.13,1972.63,1971.68,1970.42,1971.91,1970.08,1968.28,1966.77,1964.87,1963.31,1961.73,1963.47,1962.67,1962.25,1964.56,1964.15,1963.51,1963.03,1962.35,1961.66,1957.76,1956.71,1952.76,1949.07,1951.24,1950.56,1947.22,1949.66,1949.81,1947.13,1947.1,1950.71,1951.39,1952.06,1952.76,1953.38,1956.94,1957,1957.03,1951.3,1965.59,1964.87,1963.85,1962.55,1961.43,1960.02,1958.67,1957,1955.38,1954.31,1953.42,1952.49,1952.33,1951.9,1951.74,1951.44,1951.25,1951.54,1951.83,1951.47,1951.67,1951.31,1951.07,1951.13,1950.82,1950.35,1949.22,1947.68,1946.46,1944.63,1942.39,1940.29,1938.03,1936.1,1934.41,1933.3,1932.3,1931.04,1930.08,1929.18,1928.13,1927.38,1926.72,1925.59,1925,1924.61,1924.13,1923.7,1923.15,1922.74,1921.86,1921.19,1920.8,1919.87,1918.47,1917.58,1916.7,1916.09,1915.97,1916.22,1903.75,1900.96,1900.52,1900.14,1900.17,1900.03,1899.44,1899.6,1899.4,1899.38,1899.92,1901.36,1902.63,1903.42,1904.31,1905.25,1905.61,1905.84,1905.81,1905.38,1904.2,1903.11,1902.44,1901.83,1901.12,1900.38,1899.56,1898.81,1898.41,1898.11,1897.77,1897.32,1896.99,1896.23,1896.18,1896.42,1896.27,1895.99,1896.07,1896.45,1896.77,1897.11,1897.79,1897.91,1897.95,1898.1,1898.16,1897.62,1896.97,1895.62,1894.3,1892.9,1891.48,1889.38,1887.54,1885.28,1883.09,1880.55,1878.16,1875.78,1873.28,1871.03,1869.11,1867.81,1866.8,1865.96,1865.21,1865.11,1865.57,1865.99,1866.58,1867.25,1868.19,1869.18,1869.99,1870.69,1871.11,1871.53,1871.89,1871.41,1870.7,1869.82,1868.91,1868,1867.24,1866.32,1864.99,1863.35,1862.06,1861.32,1860.92,1860.52,1860.49,1860.7,1861.15,1861.21,1861.97,1862.68,1862.74,1862.99,1862.81,1862.39,1862.3,1862.23,1862.35,1861.81,1861.18,1860.54,1859.7,1858.81,1856.02,1854.77,1854.09,1853.67,1855.43,1855.15,1855.22,1855.32,1855.45,1855.5,1855.9,1856,1855.95,1856.09,1856.47,1856.72,1857.18,1857.66,1858.05,1857.98,1858.46,1858.75,1859.2,1859.42,1859.79,1859.78,1859.48,1859.24,1858.58,1857.73,1856.47,1855.22,1853.75,1852.24,1850.58,1849.01,1847.44,1846.39,1845.49,1844.59,1843.79,1843.39,1843.24,1843.53,1844.02,1844.88,1845.66,1846.59,1847.93,1848.91,1849.76,1850.23,1850.07,1849.6,1848.88,1847.66,1846.25,1844.4,1842.56,1840.57,1838.56,1836.52,1835.01,1833.16,1831.28,1829.46,1827.71,1826.14,1824.78,1823.44,1828.44,1827.6,1830.11,1829.56
2058.89,2059.32,2059.56,2059.82,2059.69,2059.59,2059.31,2059.38,2059.61,2059.57,2059.6,2059.78,2059.2,2058.73,2057.89,2057.34,2056.28,2055.33,2054.3,2053.11,2052.11,2051.53,2051.61,2052.42,2053.15,2053.99,2055.11,2056.58,2058.21,2060.52,2063.15,2064.65,2066.07,2067.24,2068.6,2069.06,2068.7,2068.09,2066.81,2065.25,2063.93,2062.26,2060.16,2057.95,2055.36,2053.89,2052.23,2050.83,2049.65,2048.61,2047.45,2045.8,2045.01,2044.6,2044.09,2042.69,2041.05,2039.71,2038.08,2037.45,2037.08,2036.32,2035.33,2034.46,2033.71,2033.15,2032.86,2032.35,2031.27,2029.64,2028.44,2027.36,2026.29,2025.35,2024.44,2022.94,2021.67,2020.5,2019.73,2018.78,2017.25,2016.11,2014.39,2012.21,2010.54,2008.31,2005.82,2003.65,2001.27,1999.74,1997.39,1995.33,1993.92,1992.64,1991.14,1990.03,1989.16,1988.52,1987.73,1987.9,1987.84,1987.81,1988.41,1989.14,1989.51,1989.89,1990.13,1990.07,1989.82,1989.37,1989.34,1988.53,1987.45,1986.66,1985.56,1984.46,1983.05,1982.03,1980.89,1979.57,1978.32,1977.51,1976.8,1975.91,1975.39,1975.01,1974.57,1974.09,1973.51,1973.09,1972.63,1972.01,1971.52,1970.48,1972.28,1970.64,1968.79,1966.92,1965.25,1963.15,1961.2,1962.36,1960.98,1960.04,1962.4,1961.7,1961.27,1960.67,1957.05,1956.13,1952.51,1951.4,1947.09,1946.01,1945.12,1944.01,1943.26,1942.45,1944.79,1941.99,1942.21,1942.18,1942.93,1946.82,1947.58,1948.33,1949.03,1952.86,1953.01,1947.53,1963.04,1962.78,1962.36,1961.52,1960.55,1959.56,1958.27,1957.25,1955.94,1954.65,1953.84,1953.18,1952.52,1952.6,1952.46,1952.1,1951.71,1951.49,1951.64,1951.7,1950.99,1950.79,1950.25,1949.88,1949.78,1949.4,1948.86,1947.66,1945.88,1944.58,1942.72,1940.44,1938.22,1936.02,1934.27,1932.93,1931.73,1931,1930.21,1929.42,1928.83,1928.04,1927.41,1926.82,1925.79,1924.78,1924.39,1923.81,1923.14,1922.66,1922.09,1921.02,1920.44,1919.64,1918.81,1917.49,1916.79,1915.8,1915.17,1915.08,1915.38,1900.2,1900.38,1900.08,1899.57,1899.33,1899.03,1898.62,1898.79,1898.58,1898.58,1898.88,1900.27,1901.42,1902.46,1903.39,1904.24,1904.62,1904.83,1904.6,1904.31,1903.07,1901.94,1901.37,1900.54,1899.99,1899.18,1898.39,1897.7,1897.15,1896.76,1896.46,1895.91,1895.54,1894.96,1894.88,1894.96,1894.84,1894.68,1894.76,1895.12,1895.45,1895.78,1896.28,1896.54,1896.38,1896.69,1896.51,1895.84,1894.88,1893.38,1891.69,1890.25,1888.58,1886.63,1884.45,1882.38,1880.56,1878.24,1876.23,1874.13,1872.07,1870.28,1868.78,1867.81,1866.98,1866.48,1865.71,1865.65,1865.96,1866.06,1866.41,1866.77,1867.23,1867.77,1868.15,1868.38,1868.38,1868.34,1868.59,1868.08,1867.61,1866.71,1865.82,1865.49,1865.22,1864.68,1863.71,1862.48,1861.53,1861.02,1860.7,1860.36,1860.4,1860.47,1860.75,1860.88,1861.48,1861.82,1861.65,1861.6,1861.23,1860.79,1860.58,1860.49,1860.68,1860.33,1860.01,1859.58,1859.06,1858.33,1857.78,1856.88,1856.23,1855.74,1855.6,1855.45,1855.43,1855.42,1855.45,1855.34,1855.54,1855.49,1855.33,1855.26,1855.52,1855.73,1856.03,1856.44,1856.89,1856.86,1857.26,1857.68,1858.19,1858.59,1859.04,1859.14,1858.93,1858.58,1858.29,1857.57,1856.4,1855.35,1853.85,1852.47,1851.16,1849.41,1847.93,1846.84,1845.88,1844.89,1843.88,1843.39,1843.08,1842.91,1843.35,1844.09,1844.81,1845.53,1846.5,1847.51,1848.18,1848.62,1848.49,1848.13,1847.42,1846.14,1844.71,1843.13,1841.41,1839.68,1837.68,1835.97,1834.63,1832.83,1831.35,1829.76,1828.14,1826.72,1825.42,1824.25,1823.44,1828.59,1830.99,1830.64
2060.38,2060.75,2061.03,2061.08,2060.79,2060.61,2060.14,2059.93,2059.87,2059.72,2059.58,2059.66,2058.97,2058.65,2057.97,2057.5,2056.79,2056.22,2055.61,2054.83,2054.01,2053.91,2054.42,2055.44,2056.49,2057.37,2058.17,2059.5,2061.07,2063.28,2065.59,2066.73,2067.57,2068.45,2069.3,2069.52,2068.82,2067.79,2066.27,2064.42,2062.87,2061.22,2059.19,2056.79,2054.46,2052.63,2050.94,2049.47,2048.19,2047.08,2045.37,2043.55,2042.44,2041.64,2040.78,2039.52,2038.02,2036.47,2034.96,2034.3,2034.2,2033.39,2032.71,2032.21,2031.69,2031.29,2031.21,2030.99,2030.01,2028.61,2027.62,2026.65,2025.74,2025,2024.3,2022.72,2021.44,2020.39,2019.19,2018.18,2016.46,2014.94,2013.23,2011,2009.32,2006.79,2004.23,2001.62,1999.3,1997.68,1994.86,1992.52,1990.92,1989.25,1987.74,1986.22,1985.24,1984.49,1983.49,1983.67,1983.5,1983.43,1984.31,1985.33,1986.04,1986.71,1987.34,1987.66,1987.83,1987.91,1987.94,1987.1,1986.22,1985.27,1984.18,1982.88,1981.41,1980.12,1978.78,1977.42,1976.04,1975.04,1974.44,1973.49,1973,1972.75,1972.3,1972.09,1971.63,1971.44,1971.14,1970.7,1970.21,1972.41,1971.1,1969.47,1967.69,1965.69,1963.95,1961.77,1962.61,1960.65,1958.91,1960.82,1960.03,1959.18,1958.56,1954.94,1954.11,1950.36,1949.53,1945.43,1943.85,1942.64,1941.58,1940.34,1939.13,1941.13,1937.07,1936.77,1936.79,1936.88,1940.69,1941.49,1939.21,1942.89,1947.15,1948.32,1943.03,1958.56,1959.44,1959.6,1959.62,1959.29,1958.73,1958.08,1957.03,1956.32,1955.41,1954.62,1953.88,1953.67,1953.25,1953.55,1953.37,1953.32,1953.03,1952.69,1952.68,1952.34,1951.53,1951.18,1950.47,1949.92,1949.64,1949.13,1948.61,1947.24,1945.56,1944.13,1941.85,1939.43,1937.19,1934.87,1933.18,1931.8,1930.75,1930.08,1929.38,1929,1928.72,1927.99,1927.63,1927.01,1925.92,1925.21,1924.64,1923.78,1922.91,1922.28,1921.58,1920.49,1919.65,1918.97,1917.83,1916.61,1915.74,1915.01,1914.59,1914.4,1914.77,1914.83,1900.32,1900.25,1899.84,1899.82,1899.55,1899.15,1899.24,1898.83,1898.71,1898.65,1899.54,1900.67,1901.55,1902.18,1902.83,1902.94,1902.92,1902.68,1902.53,1901.35,1900.23,1899.42,1898.94,1898.41,1897.64,1897.02,1896.41,1895.75,1895.3,1894.98,1894.53,1894.21,1893.75,1893.53,1893.78,1893.57,1893.53,1893.72,1893.96,1894.24,1894.37,1894.66,1894.71,1894.67,1894.82,1894.58,1893.8,1892.69,1891.16,1889.59,1888.09,1886.41,1884.42,1882.55,1880.79,1879.17,1877.14,1875.31,1873.63,1872.08,1870.76,1869.7,1869.01,1868.48,1868.03,1867.46,1867.29,1867.37,1867.12,1866.98,1866.62,1866.56,1866.76,1866.42,1866.35,1865.95,1865.66,1865.62,1865.15,1864.7,1863.91,1863.36,1863.06,1863.04,1862.86,1862.52,1862.19,1861.59,1861.28,1861.04,1860.77,1860.79,1860.67,1860.68,1860.57,1860.5,1860.56,1860.05,1859.86,1859.22,1858.63,1858.43,1858.52,1858.99,1858.84,1858.97,1858.92,1858.82,1858.57,1858.24,1855.64,1855.12,1854.8,1854.46,1854.13,1854.01,1855.81,1855.57,1855.23,1855.29,1855.08,1854.75,1854.66,1854.8,1854.76,1854.99,1855.45,1855.8,1856.05,1856.45,1856.96,1857.56,1857.98,1858.68,1858.61,1858.64,1858.52,1858.34,1857.67,1856.73,1855.69,1854.6,1853.1,1852.14,1850.65,1849.04,1847.73,1846.6,1845.59,1844.42,1843.74,1843.16,1842.63,1842.8,1843.34,1843.98,1844.39,1845.23,1846.1,1846.57,1846.83,1846.7,1846.39,1845.78,1844.55,1843.31,1841.73,1840.36,1838.71,1837.12,1835.46,1834.14,1832.66,1831.3,1829.92,1828.54,1827.35,1826.24,1825.21,1824.38,1829.6,1832.14,1831.77
2061.59,2061.99,2062.18,2062.18,2061.86,2061.46,2060.72,2060.35,2060.23,2059.89,2059.61,2059.47,2058.98,2058.45,2058.07,2057.66,2057.29,2056.89,2056.69,2056.3,2055.85,2056.17,2057.13,2058.47,2059.5,2060.3,2060.98,2062.03,2063.38,2065.07,2066.91,2067.31,2067.8,2068.24,2068.71,2068.55,2067.53,2066.28,2064.7,2063.07,2061.49,2060.04,2058.09,2055.95,2053.56,2051.73,2050.1,2048.49,2047.04,2045.73,2044.17,2042.2,2041.05,2039.99,2039.04,2037.84,2036.18,2034.83,2033.21,2032.23,2032.09,2031.29,2030.81,2030.31,2029.7,2029.47,2029.46,2029.37,2028.67,2027.25,2026.29,2025.52,2024.62,2023.97,2023.27,2021.71,2020.33,2019.07,2017.83,2016.39,2014.59,2013.02,2010.91,2008.64,2006.97,2004.39,2001.76,1999.18,1996.68,1994.97,1992.17,1989.89,1987.85,1986.11,1984.42,1982.85,1981.86,1980.81,1980.08,1980.17,1980,1980.1,1981.3,1982.56,1983.48,1984.54,1985.51,1986.19,1986.66,1986.65,1986.85,1986.06,1984.98,1984.3,1983.06,1981.71,1980.13,1978.63,1977.16,1975.46,1973.85,1972.87,1971.85,1970.67,1970.25,1970.02,1969.72,1969.67,1969.48,1969.45,1969.57,1969.38,1972.19,1971.71,1970.62,1968.88,1967.28,1965.27,1963.62,1964.01,1961.91,1959.73,1957.66,1956.26,1958.39,1957.41,1953.42,1952.65,1948.83,1947.97,1943.95,1942.37,1940.65,1939.25,1937.87,1936.34,1938.06,1933.85,1932.58,1932.22,1932.44,1935.62,1936.29,1934.07,1937.78,1941.51,1942.52,1938.03,1953.84,1954.51,1955.77,1956.33,1956.76,1956.96,1957,1956.54,1955.95,1955.76,1955.38,1955.02,1954.69,1954.88,1954.74,1955.29,1955.55,1955.6,1955.22,1954.75,1954.66,1954.31,1953.16,1952.83,1951.88,1951.09,1950.76,1950.11,1949.54,1948.18,1946.07,1944.44,1941.86,1939.07,1936.53,1934.33,1932.7,1931.15,1929.95,1929.36,1928.67,1928.52,1928.54,1928.04,1927.55,1927.14,1925.9,1925.33,1924.84,1923.96,1922.91,1922.3,1921.61,1920.38,1919.53,1918.63,1917.29,1915.86,1914.88,1914.25,1913.7,1913.62,1914.13,1914.56,1915.46,1900.55,1900.42,1900.42,1900.35,1900.36,1900.42,1900.48,1900.98,1900.82,1901.43,1902.1,1902.75,1903.19,1903.31,1903.05,1902.1,1900.66,1900.13,1898.89,1897.72,1897.06,1896.77,1896.25,1895.77,1895.38,1895.05,1894.37,1894.14,1893.93,1893.66,1893.52,1893.39,1893.29,1893.55,1893.44,1893.32,1893.52,1893.7,1893.89,1893.43,1893.44,1893.43,1893.12,1893.14,1892.71,1891.79,1890.54,1888.88,1887.58,1886.16,1884.48,1882.83,1881.14,1879.6,1878.36,1876.75,1875.4,1874.17,1872.95,1872.1,1871.5,1871.19,1870.74,1870.47,1869.87,1869.63,1869.32,1868.72,1868.05,1867.12,1866.58,1866.23,1865.39,1864.59,1863.61,1862.5,1862.17,1861.63,1861.18,1860.34,1859.94,1859.79,1860.12,1860.57,1860.8,1860.93,1860.89,1860.75,1860.67,1860.48,1860.46,1860.25,1860.14,1859.85,1859.41,1858.9,1858.19,1857.43,1856.7,1855.8,1855.44,1855.6,1856.17,1856.44,1856.87,1857.35,1857.6,1857.83,1858.04,1857.71,1857.27,1856.98,1856.56,1856.21,1855.87,1855.67,1855.37,1854.81,1854.59,1854.24,1853.92,1853.63,1853.69,1853.62,1853.96,1854.46,1854.79,1854.96,1855.65,1856.32,1857.09,1857.81,1858.57,1858.74,1858.84,1859.05,1858.97,1858.59,1857.98,1857.22,1856.2,1855.08,1854.19,1852.72,1851.11,1849.53,1848.08,1846.84,1845.27,1844.29,1843.47,1842.52,1842.4,1842.63,1842.95,1843.25,1843.94,1844.58,1844.71,1844.97,1844.82,1844.68,1844.09,1843.09,1842.14,1840.66,1839.26,1837.92,1836.33,1834.87,1833.6,1832.31,1831.12,1829.91,1828.72,1827.56,1826.42,1825.48,1824.92,1830.27,1832.86,1832.49
2062.92,2063.25,2063.27,2063.18,2062.7,2062.28,2061.45,2060.76,2060.47,2060.02,2059.69,2059.51,2058.86,2058.33,2058.21,2057.95,2057.85,2057.7,2057.76,2057.78,2057.69,2058.45,2059.78,2061.09,2062.33,2062.79,2063.25,2063.75,2064.67,2065.8,2066.87,2066.57,2066.46,2066.52,2066.74,2066.44,2065.28,2064.03,2062.69,2060.91,2059.64,2058.37,2056.57,2054.61,2052.51,2050.76,2049.37,2047.6,2045.98,2044.77,2043.22,2041.23,2039.76,2038.62,2037.26,2035.8,2034.22,2032.81,2031.25,2030.04,2029.71,2028.9,2028.56,2028.09,2027.63,2027.38,2027.38,2027.29,2026.6,2025.56,2024.62,2023.81,2023.16,2022.5,2021.7,2020.1,2018.45,2017.17,2015.63,2014.31,2012.31,2010.49,2008.14,2005.99,2004.12,2001.63,1998.95,1996.37,1993.94,1992.23,1989.41,1987.15,1985.18,1983.37,1981.62,1980.17,1979.14,1978.27,1977.45,1977.65,1977.63,1978.06,1979.36,1980.73,1981.83,1983.11,1984.4,1985.25,1985.88,1986.36,1986.59,1985.62,1984.78,1984.11,1982.93,1981.42,1982.68,1977.87,1979.2,1977.33,1972.58,1971.08,1969.69,1968.29,1967.7,1967.54,1967.5,1967.39,1967.35,1967.44,1967.8,1971.01,1971.18,1970.78,1969.6,1967.84,1966.27,1964.74,1965.84,1963.26,1961.07,1958.6,1956.73,1955.16,1954.26,1953.02,1951.94,1947.91,1947.07,1943.11,1941.85,1940.21,1938.2,1936.41,1934.81,1936.21,1931.93,1930.9,1929.53,1929.46,1932.61,1932.68,1930.44,1933.83,1937.41,1937.95,1932.93,1949.38,1949.77,1950.49,1951.89,1952.9,1954.09,1954.64,1955.01,1955.17,1954.93,1955.34,1955.52,1955.57,1955.87,1956.49,1956.92,1958.07,1958.97,1959.53,1959.21,1959.05,1958.77,1958.38,1957.31,1956.66,1955.63,1954.64,1954.07,1953.28,1952.44,1950.91,1948.57,1946.4,1943.04,1939.41,1936.36,1933.83,1931.71,1930.09,1928.75,1928.05,1927.4,1927.79,1928.15,1928.04,1927.63,1927.13,1926.06,1925.65,1925.2,1924.5,1923.42,1922.85,1921.77,1920.58,1919.78,1918.8,1917.3,1915.82,1914.93,1914.15,1913.68,1913.73,1914.5,1915.39,1916.49,1917.08,1901.79,1902.07,1902.65,1902.82,1903.28,1904.01,1904.97,1904.98,1905.18,1905.66,1905.53,1905.22,1904.36,1903.3,1901.49,1898.99,1897.56,1896.16,1895.1,1894.48,1894.16,1893.87,1893.68,1893.73,1893.58,1893.28,1893.37,1893.53,1893.49,1893.6,1893.74,1893.76,1894,1893.91,1893.86,1894.43,1895.84,1895.8,1895.29,1894.87,1894.62,1894.02,1893.6,1893.21,1892.22,1889.66,1887.57,1886.12,1884.71,1883.35,1881.81,1880.32,1879.1,1878.13,1877.01,1876.1,1875.35,1874.64,1874.16,1874.03,1873.99,1873.84,1873.87,1873.31,1872.87,1872.47,1871.76,1871.06,1869.9,1868.66,1867.94,1866.74,1865.55,1864.12,1862.49,1861.27,1859.84,1859.23,1858.48,1858.01,1858,1858.61,1859.33,1859.93,1860.39,1860.88,1860.94,1860.92,1860.56,1860.22,1859.7,1859.12,1858.34,1857.52,1856.64,1855.6,1854.7,1853.61,1852.55,1852.04,1852.52,1853.22,1854.02,1854.83,1855.77,1856.49,1857.3,1857.89,1857.84,1857.61,1857.52,1857.16,1856.56,1856.16,1855.66,1854.97,1854.15,1853.94,1853.48,1852.99,1852.55,1852.34,1852.38,1852.75,1853.39,1853.9,1854.34,1855.16,1855.98,1856.96,1857.79,1858.69,1859.1,1859.5,1859.73,1860.3,1860.27,1859.92,1859.52,1858.92,1858.12,1857.43,1856.05,1854.08,1852.22,1850.64,1849.09,1847.14,1845.53,1844.13,1842.88,1842.34,1842.25,1842.45,1842.36,1842.76,1843.01,1843.05,1843.13,1843.13,1842.96,1842.52,1841.59,1840.77,1839.52,1838.26,1836.98,1835.67,1834.45,1833.28,1832.03,1830.98,1830.11,1829.16,1828.16,1827.15,1826.43,1825.87,1831.35,1834.12,1833.88
2063.7,2063.91,2064.04,2063.87,2063.26,2062.67,2061.86,2061.08,2060.65,2060.03,2059.6,2059.51,2058.85,2058.34,2058.26,2058.18,2058.26,2058.38,2058.82,2058.93,2058.97,2060.02,2061.63,2062.97,2064.07,2064.16,2064.18,2064.24,2064.82,2065.34,2065.65,2064.79,2064.32,2064.01,2063.99,2063.56,2062.58,2061.35,2060.12,2058.59,2057.7,2056.86,2055.54,2053.93,2052.34,2050.9,2049.62,2047.99,2046.33,2045.02,2043.22,2041.11,2039.52,2037.98,2036.44,2034.69,2032.72,2031.14,2029.39,2028.21,2027.7,2026.85,2026.4,2025.91,2025.55,2025.17,2025,2025.19,2024.55,2023.52,2022.63,2021.85,2020.94,2020.45,2019.53,2017.74,2016.12,2014.59,2013.23,2011.4,2009.47,2007.36,2005.17,2002.98,2001.35,1998.76,1996.22,1993.77,1991.45,1990.05,1987.25,1985.03,1983.2,1981.35,1979.78,1978.26,1977.58,1976.76,1975.97,1976.29,1976.68,1977.12,1978.73,1980.19,1981.3,1982.47,1983.93,1985.06,1985.98,1986.57,1986.76,1985.98,1985.14,1984.43,1983.29,1984.66,1979.6,1980.71,1978.7,1979.7,1977.44,1975.58,1967.95,1966.52,1965.83,1965.48,1965.33,1965.19,1965.09,1965.53,1969.25,1969.69,1970.21,1969.83,1968.77,1967.16,1965.78,1967.53,1965.84,1963.09,1960.8,1958.25,1956.1,1954.8,1953.55,1952.16,1947.72,1946.47,1942.66,1941.64,1940.46,1938.72,1936.3,1934.31,1935.64,1930.94,1930.17,1929.48,1928.36,1931.68,1931.78,1928.94,1932.55,1935.93,1936.52,1930.38,1945.72,1946.86,1946.96,1947.51,1949.04,1950.33,1951.76,1952.56,1953.47,1953.95,1953.97,1954.89,1955.77,1956.64,1957.52,1958.65,1959.68,1961.42,1962.84,1963.85,1963.93,1963.99,1963.9,1963.6,1962.56,1962.04,1960.61,1959.7,1958.73,1957.8,1956.95,1954.95,1952.44,1949.79,1945.69,1941.07,1937.16,1934.19,1931.32,1929.33,1927.89,1927.05,1926.49,1927.35,1928.16,1928.55,1928.17,1927.73,1926.88,1926.21,1925.66,1924.9,1923.7,1922.88,1921.72,1920.4,1919.03,1917.76,1916.27,1914.63,1914.2,1913.73,1913.41,1913.84,1914.97,1916.56,1918.3,1919.54,1920.17,1905.37,1906.23,1907.1,1908.02,1909.09,1910.53,1910.77,1910.69,1910.52,1909.86,1908.61,1906.86,1905.09,1902.29,1898.75,1896.37,1894.46,1893.22,1892.61,1892.26,1892.21,1892.2,1892.59,1892.74,1892.82,1893.33,1893.99,1894.64,1895.13,1895.81,1896.01,1896.51,1896.46,1896,1896.8,1898.36,1897.95,1897.24,1896.62,1895.86,1894.89,1894.57,1894.08,1892.69,1890.96,1888.34,1886.72,1885.13,1883.63,1882.11,1879.78,1878.92,1878.17,1877.67,1877.08,1876.92,1876.77,1876.79,1877.11,1877.44,1877.39,1877.82,1877.81,1877.8,1877.88,1877.73,1877.32,1876.32,1875.1,1874.18,1872.77,1871,1868.87,1866.18,1863.93,1861.6,1860.22,1858.86,1858.1,1857.55,1857.84,1858.41,1859.01,1859.64,1860.08,1860.03,1859.89,1859.22,1858.58,1857.7,1856.68,1855.42,1854.23,1852.87,1851.69,1850.4,1849.23,1848.29,1847.99,1848.41,1849.5,1850.67,1852.06,1853.56,1854.88,1856.03,1857.04,1857.48,1857.55,1857.62,1855.1,1854.47,1853.8,1855.19,1854.22,1853.23,1852.7,1852.16,1851.6,1851.22,1850.94,1850.96,1851.36,1852.08,1852.91,1853.58,1854.59,1855.48,1856.56,1857.82,1858.75,1859.3,1859.95,1860.67,1861.5,1861.65,1861.71,1861.81,1861.73,1861.3,1861.2,1859.65,1857.64,1855.57,1853.52,1851.53,1849.02,1846.84,1844.84,1842.94,1841.87,1841.55,1841.28,1841.05,1841.33,1841.51,1841.31,1841.27,1841.33,1841.46,1841.12,1840.35,1839.81,1838.77,1837.68,1836.79,1835.55,1834.36,1833.23,1832.01,1831.04,1830.23,1829.67,1828.89,1827.94,1827.19,1826.81,1832.32,1835.18,1835.09
2063.94,2064.06,2064.16,2063.88,2063.39,2062.65,2061.76,2061,2060.56,2059.79,2059.39,2059.02,2058.35,2058,2058.1,2058.06,2058.31,2058.57,2059.11,2059.56,2059.9,2060.97,2062.15,2063.31,2064.11,2063.77,2063.46,2062.89,2062.91,2062.71,2062.46,2061.76,2060.85,2060.37,2060.02,2059.72,2058.96,2057.98,2057.01,2055.98,2055.57,2055.23,2054.45,2053.48,2052.21,2051.09,2049.98,2048.53,2046.96,2045.31,2043.39,2041.03,2039.19,2037.42,2035.66,2033.46,2031.45,2029.67,2027.82,2026.4,2025.65,2024.6,2024.01,2023.44,2022.84,2022.53,2022.27,2022.32,2021.8,2020.61,2020.17,2019.29,2018.45,2017.78,2016.66,2014.74,2013.16,2011.67,2009.91,2008.24,2005.99,2003.88,2001.52,1999.69,1998.33,1995.92,1993.59,1991.45,1989.09,1987.78,1985.42,1983.55,1981.82,1980.17,1978.75,1977.76,1977.22,1976.81,1976.03,1976.41,1977.02,1977.73,1979.38,1980.79,1981.99,1983.14,1984.66,1986.1,1986.95,1987.52,1987.38,1986.26,1985.3,1984.53,1986.32,1981.33,1982.09,1982.89,1983.72,1984.47,1976.35,1971.14,1975.17,1970.24,1969.57,1963.23,1963.1,1963.08,1963.29,1966.91,1967.69,1968.35,1969.14,1968.83,1967.89,1966.2,1968.15,1967.19,1965.53,1963.03,1960.4,1957.69,1955.56,1954.1,1952.81,1947.77,1946.05,1941.63,1940.68,1939.84,1938.68,1937.17,1934.83,1933.31,1931.99,1930.48,1929.68,1929.24,1931.26,1931.79,1929.07,1932.12,1935.61,1936.05,1930.5,1945.51,1945.67,1946.39,1946.13,1946.3,1947.72,1949.07,1950.03,1950.83,1951.5,1952.01,1952.52,1953.85,1955.49,1957.01,1958.5,1959.99,1961.38,1963.59,1965.3,1966.59,1966.73,1967.06,1967.52,1967.55,1967.08,1967.15,1966.23,1965.12,1964.51,1963.76,1961.89,1958.9,1955.53,1951.91,1946.42,1940.41,1936.21,1933.23,1930.54,1928.74,1927.73,1926.91,1926.81,1928.14,1929.7,1930.38,1930.03,1929.65,1928.77,1928.07,1927.3,1926.08,1924.96,1923.89,1922.57,1920.93,1919.13,1917.66,1915.91,1914.17,1913.99,1913.9,1914.08,1914.81,1916.42,1918.56,1920.77,1922.79,1924.3,1925.32,1911.79,1913.23,1914.66,1915.78,1917.12,1917.23,1916.73,1915.97,1914.6,1912.79,1910.77,1908.45,1905.32,1901.49,1898.66,1896.5,1895.33,1894.66,1894.41,1894.52,1894.73,1895.32,1896.06,1896.37,1897.45,1898.59,1899.47,1900.02,1900.29,1900.56,1898.4,1897.92,1897.2,1897.82,1898.87,1898.44,1897.88,1897.25,1896.77,1895.46,1895.37,1895.18,1893.37,1891.64,1888.67,1886.8,1884.83,1882.98,1881.39,1878.91,1877.95,1877.48,1877.1,1877.17,1877.6,1877.85,1878.31,1878.95,1879.9,1880.93,1882.02,1882.6,1883.36,1883.96,1884.17,1884.29,1883.35,1882.3,1881.01,1879.12,1876.91,1873.94,1870.43,1867.23,1863.91,1861.8,1859.98,1858.65,1857.55,1857.5,1857.62,1858.14,1858.7,1859.09,1859.04,1858.86,1857.98,1857.13,1855.86,1854.49,1852.99,1851.26,1849.54,1848.19,1846.7,1845.4,1844.5,1844.24,1844.95,1846.05,1847.69,1849.63,1851.33,1853.12,1854.77,1856.1,1856.95,1857.21,1857.32,1856.7,1854.02,1855.2,1854.44,1853.23,1852.11,1851.49,1850.7,1850.15,1849.63,1849.27,1849.21,1849.79,1850.69,1851.72,1852.67,1853.89,1855.13,1856.51,1858.08,1859.24,1859.97,1860.98,1861.89,1863.18,1864.27,1864.77,1865.44,1865.96,1865.99,1865.93,1864.77,1862.48,1859.83,1857.1,1854.52,1851.31,1848.07,1845.53,1843.04,1841.47,1840.87,1840.4,1839.65,1839.64,1839.65,1839.57,1839.39,1839.73,1839.91,1839.88,1839.43,1839.25,1838.49,1837.68,1837.05,1836.08,1834.96,1833.82,1832.61,1831.75,1831.19,1830.6,1829.94,1828.9,1828.21,1827.93,1833.45,1836.52,1836.38
2063.46,2063.46,2063.39,2063.09,2062.47,2061.61,2060.8,2059.91,2059.32,2058.59,2058.02,2057.73,2057.22,2056.84,2057.1,2057.23,2057.41,2057.89,2058.65,2058.92,2059.05,2059.92,2060.9,2061.36,2061.92,2061.29,2060.5,2059.6,2059.25,2058.85,2058.22,2057.26,2056.24,2055.5,2055.34,2055.12,2054.79,2054.25,2053.77,2053.21,2053.32,2053.54,2053.39,2053.03,2052.21,2051.43,2050.44,2049.07,2047.37,2045.77,2043.67,2041.16,2039.12,2037.14,2035.03,2032.48,2030.14,2028.25,2026.2,2024.54,2023.5,2022.23,2021.27,2020.54,2019.82,2019.56,2019.2,2019.08,2018.65,2018.17,2017.69,2016.83,2016,2015.04,2013.75,2011.69,2010.36,2008.8,2007,2004.96,2002.6,2000.27,1998.03,1996.53,1995.5,1993.43,1991.29,1989.1,1987.31,1986.16,1984.28,1982.42,1981.13,1979.93,1978.81,1978.08,1978.09,1978.12,1977.66,1978.34,1979.19,1980,1981.67,1983.06,1984.27,1985.28,1986.88,1988.17,1988.88,1989.12,1988.64,1986.91,1988.49,1987.25,1982.55,1983.15,1986.6,1984.12,1987.72,1982.32,1970.94,1974.94,1972.85,1970.98,1967.33,1964.07,1964.12,1964.07,1964.27,1965.05,1966.1,1966.96,1968.03,1967.85,1966.96,1968.48,1967.73,1967.22,1965.87,1963.32,1960.47,1957.23,1954.24,1952.36,1947.56,1945.25,1940.04,1938.52,1937.33,1936.65,1935.85,1934.81,1933,1931.56,1930.49,1928.89,1927.87,1927.42,1929.64,1927.28,1930.53,1930.75,1934.22,1928.68,1944.22,1944.99,1945.61,1946.51,1946.48,1946.32,1947.4,1948.44,1949.36,1950.36,1950.28,1950.69,1951.55,1953.3,1955.58,1957.72,1959.38,1961.22,1962.84,1965.11,1966.96,1968.03,1967.93,1968.72,1969.38,1970.09,1970.69,1971.29,1970.49,1968.79,1967.69,1966.12,1963.14,1959.36,1954.64,1949.36,1942.36,1936.03,1931.49,1928.18,1925.6,1924.22,1923.47,1923.15,1923.28,1925.26,1927.51,1928.91,1929.13,1929.07,1928.97,1928.65,1928.07,1927.31,1926.29,1925.29,1923.86,1922.28,1920.08,1918.31,1916.86,1915.84,1916.16,1916.53,1917.4,1918.55,1920.44,1923.26,1926.18,1928.7,1930.05,1931.47,1933,1919.16,1920.17,1921.05,1921.91,1921.36,1920.45,1919.05,1917.22,1914.89,1912.69,1910.2,1906.98,1903.28,1900.64,1898.61,1897.68,1897.58,1897.8,1898.16,1898.62,1899.11,1899.62,1900,1900.88,1901.73,1902.21,1902.09,1901.95,1902.07,1899.85,1899.01,1897.97,1898.38,1899.41,1898.84,1898.3,1897.93,1897.47,1896.09,1896.19,1896.1,1894.69,1893.24,1890.53,1888.56,1886.52,1884.37,1882.71,1879.64,1878.47,1877.74,1877.47,1877.78,1878.48,1879.09,1879.7,1880.75,1882.35,1884.25,1886.06,1887.3,1888.78,1889.89,1890.67,1891.35,1890.85,1889.91,1888.08,1885.9,1883.08,1879.64,1875.29,1871.03,1866.87,1864.17,1861.53,1859.55,1857.86,1857.15,1856.97,1857.05,1857.48,1857.78,1857.55,1857.2,1856.14,1855.06,1853.63,1851.87,1850.01,1847.93,1846.17,1844.59,1843.01,1841.88,1841,1840.84,1841.84,1843.22,1845.33,1847.5,1849.31,1851.36,1853.41,1855.13,1856.15,1856.8,1857.03,1856.52,1855.91,1855.34,1855.11,1854.26,1853.25,1852.52,1851.8,1851.31,1850.7,1850.29,1850.35,1850.44,1851.04,1852.16,1853.2,1854.82,1856.19,1857.58,1859.08,1860.35,1861.11,1862.25,1863.48,1864.69,1865.87,1866.77,1867.68,1868.61,1869.04,1869.42,1868.22,1865.88,1863.23,1860.1,1857.12,1853.48,1849.76,1846.46,1843.19,1841.11,1840.08,1839.4,1838.57,1838.28,1838.16,1838.11,1838.2,1838.53,1839.02,1839.23,1839.22,1839.35,1839.04,1838.41,1838.05,1837.28,1836.04,1835.06,1833.86,1832.93,1832.47,1831.89,1831.13,1830.16,1829.42,1829.27,1834.85,1837.82,1837.58
2062.23,2062.17,2062.05,2061.58,2060.92,2059.91,2059.12,2058.21,2057.33,2056.5,2056.11,2055.75,2055.3,2055.19,2055.53,2055.64,2056.2,2056.71,2057.32,2057.57,2057.47,2058.04,2058.42,2058.79,2058.82,2057.77,2056.65,2055.23,2054.55,2054.05,2053.25,2052.03,2051.16,2050.51,2050.35,2050.49,2050.69,2050.58,2050.61,2050.57,2051.14,2051.69,2052.03,2052.06,2051.8,2051.41,2050.7,2049.56,2048.13,2046.62,2044.44,2042.02,2039.97,2038.86,2036.66,2034.11,2031.41,2029.17,2026.74,2024.79,2023.33,2021.41,2020.21,2019.03,2018.01,2017.52,2016.83,2016.73,2016.26,2015.06,2014.32,2013.51,2012.62,2011.75,2010.35,2008.12,2006.87,2005.57,2003.96,2002.21,1999.86,1997.63,1995.66,1994.2,1993.58,1991.62,1989.72,1987.59,1985.78,1984.88,1983.41,1982.03,1980.81,1979.76,1979.24,1978.86,1979.81,1980.25,1980.55,1981.09,1982.17,1983.06,1984.85,1986.09,1986.97,1987.83,1988.58,1989,1989.3,1989.19,1988.74,1989.69,1990.81,1992.28,1990.23,1987.56,1987.92,1988.08,1985.27,1970.72,1977.21,1975.13,1970.2,1968.57,1965.15,1964.87,1961.93,1962.34,1962.63,1963.41,1964.55,1965.71,1966.46,1966.25,1968.65,1967.72,1967.2,1967.25,1966.45,1963.97,1961.07,1957.67,1954.84,1949.66,1947.85,1942.1,1939.63,1938,1936.97,1936.5,1935.67,1934.96,1933.24,1931.5,1930.59,1928.54,1927.29,1926.42,1925.47,1928.76,1928.75,1929.21,1926.84,1936.39,1943.27,1944.61,1945.8,1946.73,1946.6,1946.54,1947.04,1947.75,1948.69,1949.14,1948.72,1948.89,1949.87,1952.02,1954.66,1957.63,1959.75,1962.17,1964.36,1966.93,1968.96,1970.3,1970.36,1971.28,1972.02,1973.02,1974.49,1975.28,1973.88,1971.54,1969.56,1967.27,1963.14,1958.03,1952.79,1945.89,1937.99,1931.54,1927.35,1923.82,1921.54,1920.35,1919.91,1920.06,1920.67,1922.82,1925.44,1927.28,1928.27,1928.62,1928.92,1928.83,1928.78,1928.21,1927.5,1926.61,1925.35,1923.91,1921.5,1919.81,1919,1918.73,1919.81,1920.7,1921.88,1923.5,1925.49,1928.46,1931.5,1933.65,1935.15,1936.14,1937.53,1929.65,1924.48,1925.47,1925.93,1925.03,1923.35,1921.36,1919.17,1916.58,1914.23,1911.87,1908.9,1905.45,1903.03,1901.46,1900.88,1901.07,1901.25,1901.54,1901.76,1902.23,1902.76,1903.08,1903.58,1903.89,1903.89,1903.6,1903.23,1903.05,1900.78,1899.69,1898.28,1898.45,1899.34,1898.65,1898.02,1897.44,1897.06,1895.73,1895.89,1895.87,1894.79,1893.89,1891.43,1889.68,1887.77,1885.71,1883.95,1881.09,1879.76,1878.36,1877.94,1878.57,1879.59,1880.23,1881.34,1882.89,1885.1,1888.21,1890.39,1892.39,1894.52,1896.16,1897.41,1898.54,1898.28,1897.34,1895.35,1892.98,1889.77,1885.64,1880.53,1875.39,1870.41,1867.01,1863.44,1860.85,1858.53,1857.3,1856.62,1856.43,1856.46,1856.5,1856.18,1855.73,1854.74,1853.46,1851.7,1849.75,1847.81,1845.82,1843.91,1842.43,1841.04,1839.75,1839.01,1838.88,1840,1841.31,1843.49,1845.78,1847.86,1849.98,1852.25,1854.15,1855.54,1856.28,1856.73,1856.48,1855.94,1855.67,1855.7,1855.16,1854.28,1853.6,1852.87,1852.49,1852.06,1851.5,1851.31,1851.24,1851.59,1852.56,1853.81,1855.47,1856.77,1857.99,1859.4,1860.5,1861.34,1862.43,1863.77,1865.11,1866.48,1867.64,1869.03,1870.32,1871.26,1871.81,1870.92,1868.58,1865.97,1862.57,1859.18,1855.15,1850.81,1847.09,1843.46,1840.97,1839.58,1838.71,1837.8,1837.27,1837.18,1837.04,1837.08,1837.61,1838.42,1838.76,1839.1,1839.52,1839.41,1839.01,1839,1838.08,1836.75,1835.52,1834.36,1833.35,1832.92,1832.38,1831.54,1830.65,1830.05,1829.91,1835.49,1835.43,1838.41
2057.9,2055.49,2055.29,2054.72,2053.95,2053.08,2052.2,2053.36,2052.55,2049.78,2049.34,2053.44,2053.25,2049.04,2049.44,2049.68,2052.38,2052.8,2053.3,2055.51,2055.17,2055.32,2055.25,2054.91,2054.38,2052.86,2051.2,2049.62,2048.72,2047.82,2046.93,2045.73,2045.18,2044.71,2044.85,2045.28,2045.94,2046.41,2047.03,2047.44,2048.34,2049.63,2050.5,2051.11,2051.35,2051.71,2052.46,2052.32,2051.84,2050.91,2049.01,2047.05,2044.93,2042.96,2040.47,2037.79,2034.37,2031.45,2027.91,2025.28,2023.36,2020.65,2018.72,2016.48,2013.92,2013.2,2012.5,2012.53,2011.85,2010.77,2010.01,2009.58,2008.99,2008.27,2007.09,2005.17,2004.05,2002.98,2002,2000.75,1998.68,1996.3,1994.24,1993.25,1992.39,1990.55,1988.39,1985.84,1984,1982.93,1982.28,1980.8,1979.3,1978.02,1977.18,1976.87,1978.42,1979.35,1980.06,1980.16,1981.05,1982.17,1984.02,1985.92,1987.03,1987.42,1987.63,1987.45,1987.87,1987.69,1987.15,1988.21,1992.12,1990.43,1993.98,1991.34,1988.67,1985.67,1970.55,1979.67,1974.12,1971.8,1967.03,1965.77,1962.6,1962.48,1962.49,1963.48,1964.19,1962.49,1964.39,1965.99,1967.07,1970.1,1970.08,1969.95,1969.66,1970.02,1969.78,1967.51,1964.44,1961.42,1955.43,1953.35,1948.43,1945.16,1942.4,1940.53,1939.33,1938.74,1937.68,1936.3,1934.21,1932.45,1931.1,1928.92,1927.21,1926.12,1928.21,1928.23,1928.22,1925.98,1930.16,1936.94,1938.27,1945.88,1947.11,1947.94,1947.95,1947.8,1947.61,1947.67,1947.89,1948.01,1947.21,1947.58,1948.67,1950.83,1953.72,1956.78,1959.3,1962.37,1965.31,1968.19,1970.91,1972.29,1972.6,1973.87,1974.93,1976.39,1978.1,1978.72,1976.73,1973.33,1970.41,1967.03,1961.74,1955.74,1949.29,1941.47,1933.14,1926.91,1922.63,1919.3,1917.28,1916.54,1916.45,1916.94,1917.82,1920.45,1923.44,1925.71,1927.11,1927.92,1928.95,1929.2,1929.33,1929.18,1928.8,1927.82,1926.54,1925.16,1923,1921.42,1921.1,1921.26,1923.18,1924.57,1926.62,1928.66,1930.7,1933.89,1937,1938.94,1940.04,1940.65,1932.69,1933.32,1927.88,1928.8,1929.18,1927.86,1925.73,1923.34,1920.7,1917.92,1915.65,1913.4,1910.76,1907.77,1905.64,1904.44,1904.29,1904.39,1904.61,1904.74,1905.13,1905.6,1905.86,1905.96,1905.99,1905.57,1905.18,1904.96,1904.54,1904.11,1902.32,1900.96,1899.05,1898.83,1899.5,1898.79,1897.78,1896.77,1896.33,1895.06,1895.39,1895.33,1894.77,1894.67,1892.51,1891.17,1889.82,1888.12,1886.36,1883.8,1882.3,1880.76,1879.82,1880.63,1881.75,1882.56,1883.83,1885.95,1888.69,1892.24,1894.67,1896.63,1899.29,1901.24,1902.8,1904.32,1904.08,1903.29,1901.01,1898.48,1895.18,1890.73,1885.06,1879.33,1873.69,1869.38,1865.32,1862.03,1858.92,1857.24,1856.08,1855.69,1855.38,1855.28,1854.97,1854.52,1853.24,1851.91,1850.24,1848.16,1846.12,1844.12,1842.2,1840.67,1839.19,1838.08,1837.46,1837.22,1838.16,1839.56,1841.89,1844.15,1846.16,1848.44,1850.76,1852.86,1854.47,1855.35,1855.97,1855.7,1855.45,1855.28,1855.47,1855.19,1854.61,1853.89,1853.21,1852.9,1852.6,1852.17,1852.08,1851.77,1851.94,1852.96,1854,1855.53,1856.81,1858.14,1859.24,1860.23,1861.06,1862.3,1863.64,1865.23,1866.7,1868.09,1869.73,1871.56,1872.82,1873.6,1872.83,1870.5,1867.72,1864.26,1860.7,1856.33,1851.47,1847.34,1843.25,1840.57,1838.85,1837.87,1836.8,1836.35,1836.08,1835.94,1836.07,1836.74,1837.71,1838.32,1838.9,1839.53,1839.67,1839.41,1839.26,1838.6,1837.19,1835.86,1834.52,1833.48,1832.79,1832.26,1831.58,1830.73,1830.1,1830.01,1832.88,1832.78,1832.85
2058.48,2055.84,2055.55,2054.79,2054.11,2053.12,2052.41,2051.44,2052.91,2049.83,2049.53,2049.55,2051.71,2051.74,2050.26,2050.51,2050.96,2051.5,2053.36,2055.31,2054.75,2054.69,2054.22,2053.2,2051.8,2049.45,2047.16,2044.28,2042.92,2041.62,2039.68,2038.21,2037.39,2037.14,2037.8,2038.72,2039.73,2040.43,2041.98,2042.98,2045.47,2047.19,2048.41,2049.82,2050.76,2051.68,2052.94,2052.91,2052.78,2051.74,2049.93,2047.88,2045.89,2043.91,2041.34,2038.8,2035.12,2031.56,2027.74,2024.86,2022.49,2019.47,2016.83,2013.86,2010.71,2009.74,2008.99,2008.75,2008.11,2007.03,2006.41,2006.39,2006.03,2005.46,2004.57,2002.91,2001.92,2001.2,2000.58,1999.58,1997.61,1995.15,1993.28,1992.4,1991.71,1990.01,1987.85,1985.11,1983.16,1982.08,1981.67,1980.54,1979.11,1978.08,1977.38,1977.12,1979.1,1980.38,1981.49,1981.22,1981.96,1982.92,1984.51,1986.04,1986.91,1986.62,1986.26,1985.56,1985.84,1985.77,1985.19,1992.4,1993.39,1994.63,1992.18,1989.24,1986.49,1977.06,1979.58,1976.72,1973.98,1968.59,1963.49,1959.48,1959.39,1959.29,1959.36,1960.8,1962,1963.74,1963,1968.3,1969.74,1970.37,1970.88,1971.52,1971.8,1972.38,1972.48,1970.65,1967.91,1961.93,1959.22,1954.09,1951.87,1948.62,1945.5,1943,1941.55,1940.69,1939.47,1937.79,1935.6,1933.5,1931.59,1929.35,1927.9,1926.51,1925.61,1928.55,1925.58,1929.69,1931.33,1935.57,1940.11,1947.91,1949.25,1950.14,1949.94,1949.86,1949.02,1948.51,1948.32,1947.8,1946.75,1946.59,1947.5,1949.22,1952.05,1955.04,1957.83,1961.52,1964.85,1968.25,1971.04,1972.91,1973.7,1975.06,1976.54,1978.26,1980.24,1981.02,1978.88,1975.11,1971.71,1967.36,1961.42,1954.6,1947.77,1939.57,1930.7,1924.5,1920.23,1916.86,1915.4,1914.76,1914.84,1915.48,1916.85,1919.47,1922.42,1924.78,1926.31,1927.42,1928.64,1929.22,1929.21,1929.03,1928.89,1928.1,1926.85,1925.9,1923.88,1922.4,1922.43,1923.94,1926.73,1928.75,1931.31,1933.71,1935.58,1938.29,1941.36,1943.2,1943.9,1944.12,1935.83,1930.3,1930.47,1931.17,1931.62,1930.28,1927.78,1924.68,1921.89,1918.79,1916.53,1914.37,1911.78,1909.18,1907.22,1906.35,1906.38,1906.72,1906.95,1907.13,1907.45,1908.08,1908.4,1908.19,1907.93,1905.16,1904.43,1904.41,1904.43,1905.94,1904.68,1903.14,1901.18,1900.53,1900.43,1899.68,1898.16,1896.59,1895.92,1895.21,1895.68,1895.55,1895.51,1896.28,1894.34,1893.26,1892.6,1891.14,1889.42,1886.91,1885.85,1883.93,1882.67,1883.26,1884.37,1885.1,1886.1,1888.08,1890.82,1894.11,1896.36,1898.42,1901.05,1903.19,1904.86,1906.76,1906.84,1906.21,1904.05,1901.63,1898.43,1893.99,1888.24,1882.13,1876.03,1871.04,1866.53,1862.53,1859.03,1856.98,1855.35,1854.6,1854.24,1853.97,1853.53,1852.98,1851.79,1850.46,1848.7,1846.64,1844.68,1842.73,1841.05,1839.82,1838.39,1837.59,1837.08,1836.92,1838.03,1839.26,1841.53,1843.73,1845.8,1847.99,1850.45,1852.47,1854.36,1855.21,1855.85,1855.99,1855.78,1855.59,1856.01,1855.87,1855.38,1854.79,1854.22,1854.07,1853.76,1853.29,1852.96,1852.61,1852.5,1853.32,1854.21,1855.44,1856.4,1857.37,1858.34,1859.17,1860.09,1861.26,1862.64,1864.15,1865.77,1867.31,1869.15,1871.33,1872.83,1873.71,1873.02,1870.97,1868.16,1864.64,1861.04,1856.44,1851.44,1847.02,1843.03,1840.1,1838.31,1837.04,1835.98,1835.16,1835.03,1834.86,1835.07,1835.7,1836.73,1837.41,1837.97,1838.88,1839.08,1838.87,1838.79,1838.21,1836.78,1835.44,1834.16,1832.98,1832.32,1831.8,1831.06,1830.2,1829.61,1829.52,1832.48,1832.55,1832.49
2056.79,2055.67,2054.86,2054,2053.43,2050.58,2049.77,2048.66,2050.36,2049.64,2047.46,2047.54,2047.95,2050.22,2050.88,2049.48,2050.01,2050.59,2054.08,2053.85,2053.29,2052.67,2051.52,2050.02,2048.25,2044.85,2041.24,2038.23,2036.44,2034.95,2033.55,2032.65,2031.46,2031.54,2034.83,2036.34,2038.28,2039.6,2041.48,2042.88,2044.26,2045.89,2047.83,2050.29,2052.37,2053.91,2054.39,2053.83,2053.5,2052.51,2050.87,2048.75,2046.26,2043.57,2041.44,2039.3,2036.23,2032.37,2028.41,2025.37,2022.34,2018.94,2015.09,2011.62,2007.74,2006.51,2005.55,2005.21,2004.72,2003.61,2003.24,2003.75,2003.79,2003.36,2002.52,2000.98,2000.4,1999.99,1999.93,1999.23,1997.57,1995.19,1993.56,1992.74,1992.24,1990.56,1988.25,1985.02,1982.78,1981.77,1981.22,1980.4,1979.11,1978.64,1977.85,1978.01,1980.54,1981.99,1983.16,1982.64,1983.38,1983.74,1984.55,1985.64,1986.19,1985.41,1984.56,1983.71,1984,1983.67,1986.18,1990.38,1994.69,1993.39,1991.09,1987.9,1984.89,1980.91,1977.22,1973.67,1970.66,1965.19,1956.91,1955.98,1958.85,1955.8,1956.12,1957.63,1959.75,1962.04,1964.66,1967.04,1968.95,1969.81,1970.8,1972.1,1972.89,1973.94,1974.87,1973.49,1967.92,1964.98,1959.67,1957.72,1955.49,1951.85,1948.41,1945.32,1943.61,1942.31,1940.7,1938.42,1935.53,1932.86,1930.59,1928.22,1926.64,1925.32,1924.42,1924.5,1927.89,1929.43,1931.83,1933.9,1942.15,1944.32,1951.82,1952.77,1952.52,1952.54,1951.34,1950.24,1949.25,1948.25,1946.75,1945.96,1946.35,1947.68,1950.19,1953.13,1956,1959.82,1963.42,1966.94,1969.91,1972.06,1972.96,1974.37,1976.17,1978.23,1980.64,1981.16,1978.84,1975.1,1971.14,1966.26,1960.09,1953.09,1945.81,1937.29,1928.64,1922.55,1918.44,1915.36,1914.03,1913.26,1913.49,1914.41,1915.47,1918.16,1921.01,1923.43,1925.19,1926.33,1927.78,1928.57,1928.5,1928.41,1928.31,1927.79,1924.68,1923.82,1922.35,1921.33,1922.06,1925.1,1928.4,1933.22,1936.02,1938.7,1940.37,1942.59,1944.99,1946.25,1946.03,1936.7,1937.46,1931.89,1932,1932.94,1933.52,1932.48,1929.91,1927.07,1924.23,1921.25,1918.97,1916.82,1914.34,1911.9,1910.07,1909.57,1909.45,1909.84,1909.95,1909.99,1910.47,1911.01,1911.29,1911.13,1910.42,1909.06,1907.97,1907.87,1907.74,1906.86,1905.23,1903.41,1901.34,1900.58,1900.61,1899.86,1898.5,1896.72,1896.12,1895.86,1896.7,1896.72,1897.23,1898.45,1896.94,1896.09,1895.57,1894.48,1892.46,1890.12,1889.12,1887.2,1885.55,1885.79,1886.33,1886.8,1887.38,1889.04,1891.43,1894.35,1896.35,1898.4,1901.07,1903.48,1905.35,1907.78,1908.41,1908.23,1906.47,1904.34,1901.2,1896.77,1891.02,1884.71,1877.97,1872.54,1867.31,1863.01,1859.02,1856.4,1854.27,1853.12,1852.15,1851.78,1851.13,1850.57,1849.33,1847.86,1846.41,1844.56,1842.99,1841.53,1840.18,1839.11,1838.07,1837.29,1837.05,1836.9,1837.98,1839.09,1841.24,1843.4,1845.36,1847.52,1849.67,1851.6,1853.53,1854.66,1855.38,1855.79,1855.8,1855.92,1856.52,1856.57,1856.17,1855.83,1855.27,1855.03,1854.48,1853.98,1853.57,1852.95,1852.41,1852.99,1853.63,1854.58,1855.4,1856.07,1856.87,1857.54,1858.25,1859.5,1860.93,1862.39,1864.15,1865.82,1867.7,1870.16,1871.93,1872.71,1872.19,1870.34,1867.67,1864.18,1860.65,1856.08,1850.92,1846.55,1842.62,1839.48,1837.6,1836.24,1834.95,1834.23,1834.07,1833.89,1833.92,1834.53,1835.48,1836.23,1836.74,1837.6,1837.83,1837.88,1837.77,1837.16,1835.63,1834.16,1832.72,1831.65,1831.04,1830.47,1829.7,1828.67,1828.11,1827.99,1828,1830.98,1831.02
2053.52,2051.27,2049.56,2048.54,2048.72,2048.29,2047.67,2046.73,2046.6,2044.51,2046.83,2045.22,2045.61,2045.05,2048.5,2050.61,2051.68,2052.37,2053.68,2053.76,2053.21,2052.12,2050.67,2048.06,2045.48,2042.09,2037.79,2033.56,2031.05,2029.25,2028.27,2028.14,2028.13,2028.84,2031.15,2033.2,2035.45,2037.43,2039.24,2040.5,2042.26,2044.19,2046.61,2050.33,2053.81,2055.56,2056.42,2056,2055.87,2054.76,2053.14,2050.86,2047.62,2044.43,2042.11,2040.1,2037.14,2033.33,2029.36,2025.88,2022.31,2018.45,2013.88,2009.94,2006.03,2004.67,2003.54,2002.99,2002.68,2001.94,2001.98,2003.04,2003.04,2002.7,2001.47,2000,1999.62,1999.5,1999.92,1999.54,1998.18,1996.13,1994.58,1994.19,1993.84,1992.11,1989.71,1985.92,1983.3,1982.01,1981.93,1981.13,1980.22,1980.1,1979.52,1980.18,1982.95,1984.82,1986.03,1985.45,1986.19,1985.35,1985.08,1985.75,1985.85,1984.74,1982.91,1980.96,1980.74,1980.47,1986.3,1991.08,1992.49,1992.18,1990.34,1987.46,1984.31,1979.6,1975.26,1971.4,1965.05,1956.25,1953.71,1955.33,1955.3,1955.03,1952.4,1954.76,1954.33,1953.96,1956.64,1958.8,1963.8,1967.52,1968.82,1970.85,1969.09,1967.18,1968.56,1967.94,1965.53,1962.96,1961.2,1959.45,1957.32,1953.44,1950.31,1947.25,1945.74,1944.81,1943.48,1941.5,1938.99,1936.08,1934.03,1931.37,1929.5,1928.04,1927.14,1927.13,1927.33,1928.87,1934.62,1937.08,1939.71,1944.75,1946.67,1947.52,1947.2,1947.27,1945.77,1944.28,1942.93,1941.53,1939.26,1938.26,1938.05,1939.3,1941.27,1943.76,1946.01,1949.45,1952.84,1955.89,1955.89,1957.61,1958.4,1959.52,1961.3,1963.82,1966.62,1967.17,1965.18,1961.65,1957.61,1952.8,1946.84,1939.97,1935.78,1927.27,1918.96,1913.4,1909.63,1906.39,1905.12,1904.41,1904.61,1905.29,1906.45,1908.73,1911.08,1913.28,1915.17,1916.27,1917.86,1918.93,1918.66,1918.64,1918.83,1918.64,1917.9,1917.75,1917.27,1917.15,1918.11,1921.71,1925.69,1928.32,1931.02,1934.01,1935.28,1936.61,1938.31,1939.23,1938.79,1938.52,1933.52,1933.78,1933.4,1933.62,1934.09,1932.64,1930.36,1927.48,1924.85,1922,1920.21,1918.73,1916.98,1914.89,1913.25,1912.7,1912.74,1913.03,1913.09,1912.95,1913.02,1913.21,1913.34,1912.8,1911.45,1909.76,1908.21,1907.62,1907.42,1906.19,1904.31,1902.53,1900.4,1899.84,1899.97,1899.62,1898.8,1897.53,1897.5,1897.7,1898.93,1899.37,1900.13,1901.78,1900.39,1899.57,1898.9,1897.75,1895.86,1893.15,1892.29,1889.96,1888.2,1888.12,1888.21,1888.35,1888.35,1889.49,1891.54,1894.11,1895.65,1897.67,1900.41,1902.95,1905.15,1908.1,1909.14,1909.56,1907.86,1906.24,1903.48,1899.19,1893.49,1887.04,1879.82,1874.09,1868.58,1864.05,1859.67,1856.57,1853.74,1852.32,1851.05,1850.09,1849.45,1848.79,1847.34,1845.93,1844.58,1842.95,1841.76,1840.78,1839.79,1839.08,1838.03,1837.81,1837.65,1837.77,1838.78,1839.81,1841.79,1843.78,1845.37,1847.3,1849.31,1851.16,1852.77,1854.06,1854.9,1855.33,1855.52,1855.75,1856.41,1856.76,1856.5,1856.12,1855.75,1855.63,1854.98,1854.35,1854.03,1853.18,1852.49,1852.66,1853.06,1853.58,1854.05,1854.36,1854.94,1855.33,1855.94,1857.01,1858.26,1859.56,1861.23,1862.92,1864.81,1867.44,1869.11,1869.93,1869.59,1867.95,1865.76,1862.58,1859.18,1854.91,1849.8,1845.64,1841.75,1838.6,1836.85,1835.4,1834.02,1833.14,1832.87,1832.6,1832.58,1833.18,1834.04,1834.48,1835.16,1835.93,1836.31,1836.22,1836.22,1835.46,1834.17,1832.53,1831.22,1830.1,1829.21,1828.45,1827.53,1826.7,1825.96,1825.6,1825.72,1825.83,1825.64
2048.86,2045.72,2043.47,2042.88,2043.33,2043.33,2043.01,2042.57,2042.91,2043.43,2044.01,2044.49,2042.93,2042.07,2044.56,2049.95,2051.58,2052.71,2054.04,2054.39,2054.5,2052.97,2050.82,2047.21,2043.83,2039.86,2035.47,2031.06,2028.29,2026.76,2026.08,2026.3,2026.43,2027.5,2029.76,2031.66,2034.18,2035.94,2037.41,2038.44,2039.9,2041.44,2043.82,2047.94,2051.74,2054.18,2055.57,2055.26,2055.56,2054.8,2053.87,2052.55,2049.21,2046.16,2043.72,2041.72,2038.49,2034.24,2029.74,2025.41,2021.29,2017.01,2011.52,2007.04,2002.78,2001.35,2000.51,2000.18,1999.81,1998.92,1999.15,2000.16,2000.44,1999.85,1998.62,1996.9,1996.77,1996.99,1998.16,1998.49,1997.75,1996.06,1995.17,1995.33,1995.21,1993.42,1990.7,1986.02,1983.14,1981.2,1981.08,1980.21,1979.66,1979.83,1979.36,1979.85,1982.77,1984.58,1986.02,1985.45,1986.09,1984.68,1983.5,1983.88,1983.95,1982.24,1979.46,1976.89,1975.96,1981.19,1984.44,1986.73,1988.77,1985.63,1975.63,1982.54,1979.46,1971.47,1964.38,1957.7,1954.1,1951.44,1948.77,1947.8,1947.69,1947.69,1948.62,1951.48,1954.59,1952.43,1954.88,1959.86,1964.66,1964.73,1961.18,1965.55,1966.85,1967.93,1969.45,1968.97,1966.79,1964.41,1962.75,1960.84,1958.56,1954.66,1951.94,1949.16,1947.98,1947.29,1946.12,1944.68,1942.78,1940.19,1938.3,1935.73,1933.81,1931.85,1930.95,1930.54,1929.99,1931.39,1934.18,1936.41,1938.88,1941.29,1943.38,1944.19,1944.15,1944.52,1942.94,1941.06,1939.79,1938.05,1935.39,1933.97,1933.33,1933.98,1935.41,1937.15,1938.63,1941.42,1944.12,1946.47,1948.72,1950.01,1950.73,1951.96,1953.89,1956.55,1959.09,1960.16,1958.83,1954.94,1950.97,1946.37,1940.87,1934.33,1927.4,1919.34,1912.01,1907.2,1904.17,1901.52,1900.42,1899.79,1900.13,1900.72,1901.63,1903.49,1905.13,1906.68,1908.29,1909.13,1910.5,1911.26,1910.97,1910.61,1910.91,1910.81,1910.28,1910.63,1910.81,1911.3,1913.09,1917.62,1922.13,1925.01,1927.81,1931.17,1931.95,1932.97,1934.36,1934.79,1934.07,1933.48,1933.86,1933.69,1932.65,1931.88,1931.45,1929.58,1927.61,1925.07,1922.99,1920.68,1919.61,1919.06,1918.31,1917.38,1916.4,1916.07,1915.92,1916.27,1915.96,1915.27,1914.84,1914.53,1914.14,1913.18,1911.4,1909.06,1907.06,1906.01,1905.68,1904.39,1902.45,1900.67,1898.66,1898.2,1898.55,1898.44,1897.91,1897.45,1897.77,1898.7,1900.32,1900.96,1902.28,1904.11,1903.14,1902.42,1901.81,1900.66,1898.71,1895.92,1894.82,1892.63,1890.6,1890.06,1889.75,1889.33,1889.06,1889.67,1891.26,1893.36,1894.58,1896.61,1899.2,1901.99,1904.16,1906.62,1908,1908.37,1906.99,1905.47,1902.67,1898.53,1892.81,1886.96,1880.26,1874.44,1868.81,1864.02,1859.11,1855.92,1852.9,1851.1,1849.39,1848.02,1847.19,1846.53,1845.37,1844.25,1843.05,1841.97,1841.18,1840.37,1839.84,1839.57,1839.01,1838.9,1839.13,1839.39,1840.38,1841.28,1842.99,1844.78,1846.17,1847.64,1849.38,1850.79,1852.44,1853.69,1854.54,1855.09,1855.28,1855.69,1856.55,1856.96,1856.96,1856.67,1856.27,1856.14,1855.62,1855.2,1854.52,1853.43,1852.54,1852.47,1852.35,1852.68,1852.73,1852.67,1852.86,1853.11,1853.6,1854.39,1855.29,1856.25,1857.76,1859.38,1861.29,1863.48,1865.19,1865.97,1865.97,1864.7,1862.92,1860.3,1857.02,1853.04,1848.45,1844.3,1840.91,1837.77,1835.92,1834.54,1833.15,1832.28,1831.94,1831.63,1831.52,1831.94,1832.6,1832.96,1833.39,1834.21,1834.51,1834.34,1834.28,1833.57,1832.03,1830.53,1829.14,1827.82,1826.79,1825.81,1824.76,1823.87,1823,1822.57,1822.6,1822.66,1822.54
2043.98,2040.25,2037.3,2036.42,2036.79,2037.08,2037.36,2037.5,2038.24,2039.01,2039.69,2040.54,2041.4,2041.3,2042.38,2045.71,2049.86,2051.04,2052.8,2053.43,2053.84,2052.09,2049.49,2045.28,2041.63,2037.93,2033.7,2029.31,2026.84,2025.3,2025.11,2025.47,2025.85,2026.8,2028.98,2030.35,2032.39,2033.92,2035.09,2035.57,2036.5,2037.8,2039.6,2043.47,2047.22,2049.7,2051.11,2051.24,2051.77,2051.45,2050.85,2050.34,2047.31,2044.71,2042.34,2040.41,2037.28,2032.67,2027.87,2023.39,2018.75,2014.54,2009.08,2004.4,2000.17,1998.67,1997.96,1997.88,1997.57,1996.87,1996.78,1997.83,1998.32,1997.91,1996.53,1995.04,1994.78,1995.03,1996.5,1997.04,1996.66,1995.33,1994.59,1995.05,1994.39,1992.52,1989.44,1984.48,1981.15,1979.19,1978.98,1978.1,1977.53,1977.85,1977.73,1978.5,1981.41,1983.21,1984.59,1984.39,1984.79,1983.22,1981.82,1981.76,1981.53,1979.33,1976.28,1972.98,1971.34,1979.36,1985.46,1985.16,1984.75,1979.08,1984.49,1982.86,1980.45,1976.18,1969.44,1957.09,1953.95,1951.37,1949.2,1951.31,1951.16,1951.49,1952.72,1955.71,1958.87,1961.9,1963.89,1965.43,1967.31,1962.54,1964.11,1966.19,1967.36,1968.18,1969.57,1969.43,1967.44,1965.1,1963.3,1961.36,1959.32,1955.98,1953.4,1950.97,1950.06,1949.42,1948.61,1947.56,1946.1,1943.83,1942.13,1939.83,1937.9,1935.4,1934,1933.07,1932.18,1933.54,1935.97,1938.05,1940.47,1943.02,1945.37,1946.47,1946.79,1947.05,1945.12,1942.98,1941.38,1939.42,1936.36,1934.52,1933.66,1933.68,1934.5,1935.26,1936.3,1938.39,1940.51,1942.55,1944.46,1945.59,1946.09,1947.07,1949.03,1951.57,1953.84,1955.08,1953.46,1949.36,1945.69,1941.66,1936.28,1930.14,1923.95,1916.34,1910.18,1906.15,1903.98,1901.5,1900.6,1900.15,1900.44,1901.27,1902.34,1903.4,1904.44,1905.27,1906.58,1907.33,1908.7,1909.6,1909.38,1909.06,1909.94,1910.26,1910.3,1911.39,1912.33,1913.34,1916.04,1921.23,1924.1,1928.87,1931.67,1934.6,1934.8,1935.28,1935.98,1935.53,1934.14,1933.1,1932.77,1931.69,1929.8,1928.15,1926.9,1924.44,1922.45,1920.26,1918.65,1916.63,1916.47,1916.7,1916.71,1916.72,1916.71,1917.03,1917.1,1917.51,1917.15,1916.35,1915.77,1915.18,1914.27,1912.84,1910.62,1907.78,1904.99,1903.6,1902.74,1901.15,1898.9,1897.09,1895.41,1894.81,1894.54,1894.71,1894.49,1895.27,1896.39,1897.94,1899.67,1900.63,1902.41,1904.72,1904.36,1904.04,1903.67,1902.71,1900.99,1898.53,1897.51,1895.26,1892.76,1892.08,1891.32,1890.26,1889.4,1889.61,1890.62,1892.34,1892.79,1894.23,1896.42,1898.52,1900.01,1902.02,1902.93,1903.08,1901.39,1899.99,1897.22,1893.46,1888.55,1883.31,1877.47,1872.32,1867.13,1862.71,1858.29,1854.88,1852.06,1850.07,1848.4,1846.92,1845.97,1845.21,1844.33,1843.54,1842.71,1841.95,1841.61,1841.14,1840.93,1841.07,1840.85,1841.02,1841.41,1841.65,1842.46,1843.17,1844.54,1846.01,1847.12,1848.39,1849.71,1850.99,1852.41,1853.44,1854.33,1855.02,1855.31,1855.71,1856.75,1857.3,1857.44,1857.39,1856.98,1856.75,1856.31,1855.77,1855.01,1853.57,1852.4,1852.09,1851.72,1851.51,1851.42,1851,1850.82,1850.76,1851.21,1851.81,1852.37,1853.01,1854.38,1855.83,1857.44,1859.42,1860.89,1861.65,1861.67,1860.71,1859.49,1857.26,1854.64,1851.02,1846.95,1843.31,1840.33,1837.44,1835.56,1834.11,1832.68,1831.67,1831.25,1830.89,1830.68,1830.83,1831.14,1831.26,1831.37,1831.97,1832.09,1831.69,1831.41,1830.69,1828.99,1827.41,1825.9,1824.5,1823.38,1822.15,1821.12,1820.01,1819.13,1818.64,1818.71,1818.78,1818.9
2039.27,2034.85,2031.31,2030.23,2030.55,2031,2031.69,2032.55,2033.97,2034.89,2035.82,2036.74,2037.65,2037.95,2039.22,2042.71,2046.75,2048.15,2049.7,2050.95,2051.5,2049.89,2047.42,2043.55,2040.15,2036.6,2032.84,2028.85,2026.38,2025.06,2024.95,2025.31,2025.68,2026.43,2028.28,2029.45,2031.25,2032.23,2033.02,2032.95,2033.2,2033.7,2035,2038.54,2042.02,2044.41,2045.95,2046.15,2047.11,2047.09,2046.85,2046.58,2043.69,2041.13,2038.89,2037.48,2034.32,2029.88,2025.26,2020.55,2016.12,2012.17,2006.81,2002.47,1998.24,1996.67,1995.98,1996.26,1996.34,1995.51,1995.34,1996.49,1996.89,1996.79,1995.94,1994.64,1994.36,1994.4,1995.84,1996.53,1996.45,1995.2,1994.28,1994.28,1993.23,1991.21,1987.81,1982.79,1979.46,1977.22,1977.13,1976.21,1975.73,1976.19,1976.09,1976.94,1979.53,1981,1982.66,1982.38,1982.62,1980.88,1979.53,1979.13,1978.79,1976.66,1973.18,1969.59,1973.78,1975.64,1982.08,1982.34,1976.43,1983,1982.84,1981.85,1980.13,1973.19,1963.54,1960.09,1953.96,1951.42,1952.23,1951.42,1951.14,1951.33,1952.76,1955.74,1962.17,1971.19,1973.25,1972.93,1968.74,1966.32,1962.95,1967.23,1968.31,1969.01,1970.29,1969.93,1968.17,1965.93,1964.06,1962.41,1960.71,1957.9,1955.71,1953.45,1952.7,1952.18,1951.45,1950.64,1949.19,1946.69,1944.72,1942.26,1940.26,1937.56,1936.24,1934.96,1933.77,1934.9,1937.25,1938.97,1941.19,1943.49,1945.68,1946.59,1947.22,1947.63,1945.81,1943.68,1941.83,1939.82,1936.98,1935.27,1933.88,1933.34,1933.63,1934.21,1934.7,1936.65,1938.62,1940.44,1942.49,1943.63,1944.33,1945.18,1946.91,1948.87,1950.76,1950.92,1948.71,1944.69,1940.95,1936.52,1932.05,1926.91,1921.72,1914.94,1909.41,1906.37,1904.27,1901.73,1900.9,1900.26,1900,1900.74,1901.6,1902.12,1902.18,1902.7,1904.19,1905.09,1906.62,1907.87,1907.82,1907.82,1909.51,1910.49,1911.15,1912.76,1914.31,1916.01,1919.17,1924.77,1929.37,1931.74,1933.88,1936.51,1936.52,1936.15,1936.58,1935.19,1932.92,1931.05,1930.14,1928.57,1925.88,1923.66,1922.01,1919.23,1917.43,1915.51,1914.07,1912.47,1912.27,1912.24,1912.55,1913.06,1913.51,1914.24,1914.71,1915.53,1915.3,1914.74,1914.17,1913.48,1912.38,1910.77,1908.32,1904.97,1901.95,1900.53,1899.61,1897.84,1895.77,1894.37,1893.15,1892.78,1893.02,1893.28,1892.79,1894.08,1895.32,1897.27,1898.92,1899.78,1902.19,1904.68,1905.02,1905.31,1905.63,1905.25,1903.56,1901.55,1901.03,1898.75,1896.06,1895.12,1893.6,1890.21,1890.78,1890.42,1890.76,1890.98,1890.56,1891.07,1892.18,1893.54,1894.58,1895.94,1896.48,1896.41,1895.19,1894.03,1891.75,1888.5,1884.15,1879.81,1874.7,1870.08,1865.27,1861.18,1857.2,1854.19,1851.35,1849.39,1847.69,1846.16,1845.05,1844.34,1843.57,1842.93,1842.29,1841.94,1841.83,1841.69,1841.83,1842.27,1842.38,1842.62,1842.94,1843.29,1844.15,1844.73,1846.01,1847.16,1847.96,1848.95,1849.92,1850.94,1852.16,1853.2,1853.92,1854.73,1855.14,1855.68,1856.79,1857.58,1857.81,1857.85,1857.78,1857.67,1857.09,1856.56,1855.68,1854.31,1852.69,1851.86,1851.14,1850.58,1850.04,1849.08,1848.46,1848.24,1848.35,1848.71,1848.91,1849.09,1849.88,1850.87,1851.98,1853.78,1854.96,1855.59,1855.85,1855.5,1854.81,1853.43,1851.46,1848.71,1845.49,1842.36,1839.72,1837.21,1835.43,1833.98,1832.5,1831.44,1830.89,1830.21,1829.69,1829.56,1829.46,1829.09,1828.93,1829.14,1828.88,1828.2,1827.74,1826.71,1825.11,1823.44,1821.92,1820.5,1819.16,1817.95,1816.76,1815.74,1814.92,1814.48,1814.42,1814.76,1814.89
2037.3,2031.95,2028.21,2027,2027.16,2027.63,2028.33,2029.33,2030.9,2032.12,2033.12,2034.27,2035.25,2035.37,2038.76,2040.4,2044.4,2045.82,2047.67,2049.16,2050.09,2048.65,2046.66,2043.09,2040.18,2036.99,2033.46,2030.14,2027.96,2026.77,2026.61,2026.92,2026.93,2027.57,2028.93,2029.74,2030.98,2031.37,2031.71,2031.05,2030.69,2030.67,2031.26,2034.61,2037.94,2040.24,2041.45,2041.53,2042.67,2042.9,2042.84,2042.74,2040.14,2037.73,2035.94,2034.52,2031.87,2027.28,2022.64,2017.85,2013.66,2009.76,2004.69,2000.44,1996.4,1995.16,1994.87,1995.29,1995.78,1995.31,1995.33,1996.38,1997.03,1996.79,1996.33,1995.15,1994.4,1993.94,1995.32,1995.78,1995.45,1994.2,1993.3,1992.74,1991.27,1989.06,1985.92,1980.9,1977.72,1975.38,1975.18,1974.34,1973.67,1974.04,1973.89,1974.61,1976.73,1978.18,1979.56,1979.29,1979.09,1977.23,1975.79,1975.36,1975.16,1973,1969.78,1966.24,1970.55,1972.81,1976.4,1974.43,1981.21,1982.25,1982.37,1981.9,1974.67,1970.86,1964.14,1960.9,1957.61,1954.85,1952.54,1951.76,1951.26,1951.2,1958.59,1964.69,1968.21,1971.21,1973.69,1975.72,1968.68,1967.39,1965.97,1968.28,1969.06,1969.39,1970.35,1970.03,1968.45,1966.93,1965.92,1964.77,1963.48,1961.48,1959.82,1957.74,1957.26,1956.62,1955.73,1954.59,1952.99,1950.26,1948.32,1946.2,1944.29,1941.66,1940.22,1938.91,1937.41,1938.24,1940.23,1941.97,1943.77,1945.18,1946.43,1946.95,1947.43,1947.74,1945.43,1943.25,1941.37,1939.13,1936.93,1935.33,1934.09,1932.96,1932.55,1932.69,1933.06,1935.08,1937.13,1938.85,1940.83,1942.62,1943.7,1944.31,1945.81,1947.27,1947.87,1947.44,1945.68,1942.44,1939.01,1935.1,1931.32,1926.99,1922.68,1917.58,1913.21,1910.56,1908.69,1906.55,1905.29,1904.1,1903.53,1903.83,1904.38,1904.02,1903.41,1903.12,1903.96,1904.69,1905.83,1906.9,1906.68,1906.73,1908.5,1909.96,1910.84,1912.56,1914.51,1916.65,1919.78,1924.96,1928.84,1930.82,1932.57,1934.81,1934.73,1933.99,1933.67,1931.99,1929.46,1927.72,1926.71,1925.12,1922.6,1920.29,1918.75,1916.33,1914.52,1912.67,1911.27,1909.74,1909.28,1909.08,1909.22,1909.51,1909.8,1910.37,1911.06,1911.66,1911.19,1910.32,1910.16,1909.82,1908.6,1907.04,1904.58,1901.53,1898.64,1897.56,1897,1895.24,1893.2,1892.04,1890.98,1890.99,1891.5,1892.11,1891.42,1893.06,1894.33,1896.58,1898.23,1899.06,1901.51,1904.12,1904.71,1905.37,1905.84,1905.98,1904.84,1903.52,1903.54,1901.53,1898.8,1897.35,1895.46,1893.68,1889.8,1890.84,1890.19,1889.17,1887.69,1887.18,1887.59,1888.35,1888.5,1889.51,1889.59,1889.45,1888.56,1887.7,1885.76,1883.11,1879.67,1875.99,1871.69,1867.63,1863.52,1859.93,1856.47,1853.53,1851.03,1849.16,1847.48,1845.97,1844.93,1844.19,1843.39,1842.74,1842.41,1842.24,1842.33,1842.56,1842.69,1843.32,1843.48,1843.87,1844.29,1844.78,1845.32,1845.8,1846.7,1847.88,1848.54,1849.43,1850.23,1851.04,1851.93,1852.71,1853.37,1854,1854.21,1854.69,1855.41,1855.9,1856.07,1855.9,1855.67,1855.66,1855.26,1854.56,1853.79,1852.48,1851.11,1850.28,1849.1,1848.37,1847.52,1846.44,1845.85,1845.6,1845.66,1845.75,1845.9,1846.09,1846.68,1847.39,1848.42,1849.97,1850.76,1851.3,1851.76,1851.74,1851.52,1850.46,1848.87,1846.74,1844.06,1841.54,1839.31,1837.12,1835.52,1834.11,1832.5,1831.31,1830.7,1829.78,1829,1828.31,1827.73,1826.79,1826.29,1826.05,1825.39,1824.4,1823.64,1822.42,1820.88,1819.1,1817.57,1815.99,1814.53,1813.17,1811.88,1810.88,1810.09,1809.62,1809.77,1809.94,1810.31
2035.72,2030.28,2026.38,2025.14,2025.18,2025.68,2026.5,2027.31,2028.78,2030.16,2031.04,2032.09,2033.17,2033.35,2036.53,2038.22,2042.24,2043.88,2045.65,2047.23,2048.6,2047.72,2046.22,2043.07,2040.74,2038,2035.06,2031.84,2030.18,2029.01,2028.68,2028.99,2028.75,2028.95,2030.09,2030.55,2031.28,2031.19,2030.96,2030.1,2029.23,2028.63,2028.98,2031.41,2034.58,2036.5,2037.61,2037.62,2038.42,2038.55,2038.69,2038.68,2036.14,2033.65,2031.95,2030.58,2028.1,2023.85,2019.59,2015.19,2011.09,2007.25,2002.26,1998.26,1994.28,1993.22,1993.26,1994.05,1994.91,1994.77,1995.27,1996.65,1997.27,1997.38,1996.52,1995.56,1994.44,1993.84,1994.73,1994.68,1994.23,1992.67,1991.54,1990.62,1988.81,1986.67,1983.94,1979.36,1976.04,1973.6,1972.96,1972.39,1971.94,1972.43,1971.93,1972.23,1973.76,1974.73,1975.75,1975.6,1975.2,1973.12,1971.68,1971.08,1970.83,1968.91,1966.32,1963.62,1962.1,1964.68,1968.22,1975.15,1979.14,1980.61,1978.3,1972.21,1971,1967.43,1964.3,1961.19,1958.15,1955.7,1953.13,1952.21,1951.43,1957.34,1961.81,1964.56,1968.14,1971.42,1974.19,1976.54,1969.83,1968.65,1967.28,1969.14,1969.81,1969.51,1969.95,1969.45,1967.86,1966.37,1965.61,1964.93,1963.97,1962.19,1960.82,1959,1958.8,1958.06,1957.06,1956.08,1954.7,1952.44,1950.84,1949.34,1947.98,1945.75,1944.52,1943.34,1942.16,1942.7,1944.45,1945.71,1946.84,1947.47,1947.65,1947.76,1947.83,1947.66,1945.54,1943.02,1941.08,1938.88,1936.84,1935.61,1934.48,1933.1,1932.25,1932.07,1932.18,1933.69,1935.65,1937.11,1938.84,1940.21,1941.34,1942.03,1943.56,1944.7,1944.73,1944.18,1943.02,1940.31,1937.85,1934.75,1931.82,1928.06,1924.56,1920.82,1917.2,1914.82,1913.14,1910.86,1909.33,1907.81,1906.81,1906.63,1906.83,1905.95,1904.59,1903.9,1904.34,1904.87,1905.7,1906.42,1906.17,1906.11,1907.75,1909.26,1910.27,1911.99,1914.22,1916.29,1918.88,1923.41,1926.59,1928.2,1929.8,1932.05,1932.23,1931.42,1930.98,1929.63,1927.31,1925.53,1924.48,1922.95,1920.31,1917.8,1916.1,1913.83,1912.06,1910.42,1908.78,1907.09,1906.22,1905.77,1905.72,1906.07,1906.36,1906.95,1907.25,1907.54,1907.25,1906.79,1906.59,1906.3,1905.19,1903.58,1901.34,1898.59,1895.97,1894.97,1894.3,1892.62,1890.85,1890,1889.25,1889.46,1890.1,1891.03,1890.84,1892.63,1893.92,1896.47,1898.28,1899.4,1901.71,1903.96,1904.73,1905.64,1906.4,1906.88,1906.18,1905.2,1905.73,1903.98,1901.53,1899.92,1895.61,1895.15,1892.62,1888.61,1889.02,1886.79,1884.23,1882.72,1882.25,1882.33,1882.1,1882.5,1882.28,1882.21,1881.75,1881.2,1879.98,1878.05,1875.48,1872.59,1869.13,1865.65,1862.26,1859.26,1855.99,1853.61,1851.22,1849.21,1847.79,1846.29,1845.06,1844.27,1843.52,1842.95,1842.73,1842.73,1842.86,1843.1,1843.3,1843.86,1844.07,1844.38,1844.88,1845.37,1845.7,1846.25,1847.3,1848.26,1848.92,1849.53,1850.31,1850.79,1851.49,1852.07,1852.6,1853.1,1853.25,1853.44,1853.95,1854.31,1854.32,1854.24,1854.06,1853.96,1853.39,1852.82,1852.16,1851,1849.77,1848.78,1847.63,1846.48,1845.6,1844.5,1843.78,1843.45,1843.45,1843.42,1843.55,1843.7,1844.28,1844.81,1845.75,1847.06,1847.64,1848.1,1848.64,1848.64,1848.58,1848.1,1847.08,1845.31,1843.18,1841.1,1839.34,1837.45,1836.13,1834.44,1832.81,1831.65,1830.93,1829.91,1828.86,1827.67,1826.53,1825.36,1824.29,1823.61,1822.6,1821.37,1820.29,1818.9,1817.31,1815.68,1813.98,1812.41,1810.85,1809.4,1808.06,1806.97,1806.07,1805.52,1805.44,1805.78,1806.07
2034.4,2028.88,2024.93,2023.56,2023.56,2023.89,2024.32,2025.22,2026.69,2028.06,2028.88,2029.74,2030.76,2031.01,2034.23,2035.7,2040.2,2041.79,2043.73,2045.48,2047.32,2046.58,2045.88,2043.49,2041.48,2039.45,2036.92,2034.15,2032.78,2031.82,2031.55,2031.35,2031.09,2030.97,2031.72,2031.62,2032.06,2031.59,2030.91,2029.5,2028.25,2027.13,2026.71,2028.84,2031.5,2032.83,2033.29,2032.77,2032.97,2032.61,2032.58,2032.32,2029.91,2027.59,2026.01,2024.57,2022.72,2019.2,2015.67,2011.8,2007.94,2004.62,1999.84,1996.61,1994.02,1993.37,1993.66,1994.42,1995.44,1995.66,1996.52,1997.88,1998.49,1998.23,1997.23,1995.94,1994.35,1993.29,1993.53,1992.83,1991.89,1990.36,1989.04,1988.06,1986.29,1986.59,1986.62,1978.16,1977.55,1977.83,1974.84,1972.09,1972.1,1973.2,1973.28,1973.47,1974.49,1974.94,1975.53,1975.74,1975.36,1973.19,1971.19,1970.52,1970.16,1968.73,1966.57,1963.97,1959.66,1958.73,1970.93,1974.53,1975.43,1977.03,1974.8,1973.82,1973.01,1969.99,1964.46,1961.76,1959.28,1956.92,1954.26,1953.12,1958.3,1961.02,1962.45,1964.76,1968.23,1971,1973.37,1975.84,1966.85,1965.73,1964.08,1965.44,1965.9,1967.3,1967.23,1966.33,1964.67,1962.81,1961.96,1961.21,1960.7,1959.04,1958.01,1957.02,1957.25,1957.02,1956.82,1956.7,1956.04,1954.53,1953.62,1952.44,1951.68,1949.72,1948.6,1947.62,1946.17,1946.35,1946.79,1946.71,1946.82,1947.06,1946.49,1946.18,1945.79,1945.1,1942.9,1941.3,1939.97,1938.23,1936.32,1935.41,1934.17,1932.65,1931.93,1931.84,1931.94,1932.86,1934.14,1935.23,1936.38,1937.6,1938.56,1939.19,1940.98,1941.74,1941.54,1941.06,1940.3,1938.76,1936.82,1934.71,1932.4,1929.69,1926.97,1924.22,1921.42,1919.06,1917.34,1914.89,1912.99,1911.07,1909.91,1909.33,1909.15,1907.88,1906.17,1904.9,1904.82,1904.83,1905.42,1905.87,1905.31,1905.16,1907.4,1908.9,1909.91,1911.75,1913.7,1915.7,1918.17,1921.92,1924.16,1925.41,1926.49,1928.5,1928.97,1928.34,1927.87,1926.36,1924.4,1923.14,1922.51,1921.16,1918.55,1915.97,1914.05,1911.89,1909.99,1908.24,1906.55,1904.65,1903.66,1903.02,1902.96,1903.06,1903.15,1903.44,1903.54,1903.88,1903.6,1903.15,1902.61,1902.29,1901.25,1899.79,1897.85,1895.57,1893.02,1892,1891.08,1889.43,1888.07,1887.52,1886.95,1887.54,1888.23,1889.39,1889.77,1891.07,1893.08,1895.53,1897.6,1898.86,1900.79,1902.58,1903.31,1904.13,1904.87,1905.18,1904.89,1904.53,1905.25,1904.5,1902.56,1900.47,1895.86,1893.01,1891.93,1889.28,1886.5,1883.29,1880.48,1878.36,1877.14,1876.82,1876.14,1876.14,1876.05,1876.04,1876.31,1876.27,1875.45,1874.22,1872.6,1870.33,1867.48,1864.68,1861.91,1859.28,1856.41,1854.3,1852.03,1849.99,1848.71,1847.16,1845.76,1844.93,1844.3,1843.69,1843.52,1843.59,1844.02,1844.18,1844.42,1843.09,1843.13,1843.41,1843.88,1844.25,1846.7,1847.04,1847.91,1848.71,1849.41,1849.92,1850.3,1850.71,1851.08,1851.41,1851.7,1852.17,1852.31,1852.39,1852.83,1852.96,1853.03,1852.89,1852.87,1852.76,1852.23,1851.61,1850.82,1849.79,1848.62,1847.69,1846.56,1845.37,1844.38,1843.27,1842.51,1842.34,1842.14,1842.18,1842.15,1842.32,1842.62,1843.14,1843.94,1844.84,1845.36,1845.68,1846.04,1846.16,1846.24,1846.03,1845.15,1843.96,1842.23,1840.65,1839.1,1837.47,1836.16,1834.69,1832.97,1831.81,1830.97,1829.79,1828.66,1827.17,1825.68,1824.09,1822.66,1821.73,1820.19,1818.59,1817.24,1815.74,1814.11,1812.45,1810.81,1809.01,1807.37,1805.89,1804.46,1803.35,1802.53,1801.69,1801.56,1801.75,1802.12
2032.53,2026.89,2022.38,2021.03,2020.86,2021.19,2021.58,2022.38,2023.78,2025.12,2026.03,2026.79,2027.92,2028.12,2031.3,2032.94,2037.37,2038.93,2040.42,2042.87,2044.93,2044.96,2044.97,2043.24,2041.92,2040.87,2039.26,2037.09,2036.11,2035.42,2035.22,2035.2,2034.65,2034.4,2034.54,2034.09,2034.12,2033.21,2032.11,2030.27,2028.5,2026.96,2025.97,2027.25,2029.32,2029.97,2029.89,2029.1,2028.79,2028.05,2027.68,2027.54,2025.31,2022.89,2021.39,2019.98,2018.39,2015.31,2012.23,2008.5,2004.83,2002.03,1997.83,1995.33,1993.3,1992.91,1993.33,1994.71,1995.73,1996.79,1997.47,1998.62,1998.95,1998.61,1997.05,1995.27,1993.59,1991.87,1991.23,1990.02,1988.78,1987.36,1985.76,1984.4,1985.12,1987.76,1981.49,1980.19,1978.01,1978.28,1973.08,1970.69,1970.76,1971.76,1971.97,1971.99,1972.53,1972.78,1973.24,1973.75,1973.14,1971.62,1969.88,1968.97,1969.06,1968.23,1966.7,1964.59,1961.99,1960.66,1975.61,1976.37,1976.92,1974.87,1972.35,1972.54,1974.8,1975.62,1973.71,1962.48,1960.17,1958.32,1964.98,1963.87,1962.82,1962.58,1964.23,1966.43,1969.45,1971.75,1973.89,1976.4,1975.31,1967.98,1965.77,1966.24,1966.3,1965.21,1964.53,1963.06,1960.73,1958.55,1957.54,1957.13,1956.81,1955.85,1955.66,1955.36,1956.15,1956.43,1956.54,1956.88,1956.74,1956.08,1955.62,1954.51,1953.82,1952.38,1951.35,1950.64,1949.35,1948.89,1947.94,1946.83,1946.12,1945.47,1944.2,1943.38,1942.75,1941.59,1939.85,1938.79,1938.08,1936.97,1935.51,1935.17,1933.95,1932.84,1932.22,1931.91,1931.96,1932.56,1933.11,1933.73,1934.44,1935.55,1936.42,1936.84,1938.05,1938.61,1938.62,1938.08,1937.31,1936.01,1934.77,1932.97,1931.34,1929.12,1926.89,1924.61,1922.47,1920.59,1918.92,1916.34,1914.18,1912.06,1910.76,1909.81,1909.55,1908.11,1906.28,1904.8,1904.95,1904.73,1905.1,1905.16,1904.8,1904.79,1907.13,1908.76,1909.81,1911.41,1913.44,1915.06,1917.31,1919.92,1921.59,1922.41,1923.54,1925.09,1925.62,1924.95,1924.91,1923.33,1921.43,1920.71,1920.16,1918.82,1916.27,1913.7,1911.5,1909.18,1907.42,1905.67,1904.05,1902,1901.32,1901.47,1901.67,1901.61,1901.42,1901.38,1901.09,1901.17,1900.72,1899.64,1898.89,1895.96,1894.76,1895.17,1893.29,1891,1888.57,1887.27,1885.96,1884.38,1883.37,1882.45,1882.46,1883.19,1884.69,1886.48,1888.13,1890.3,1892.25,1894.47,1896.41,1897.98,1899.61,1901.28,1902.11,1902.69,1903.23,1903.56,1903.83,1903.74,1904.19,1903.71,1902.18,1898.23,1893.57,1892.37,1889.37,1888.21,1885.31,1881.72,1878.75,1876.1,1874.87,1874.14,1873.61,1873.56,1873.27,1873.32,1873.75,1874.01,1873.56,1872.58,1871.34,1869.57,1867.44,1865.2,1863,1860.53,1858.04,1855.97,1853.9,1851.94,1850.41,1848.86,1847.12,1846.22,1845.38,1844.69,1844.41,1844.5,1844.86,1844.94,1845.32,1845.78,1845.61,1845.83,1846.26,1846.71,1847.11,1847.47,1848.05,1848.73,1849.39,1849.81,1850.03,1850.12,1850.29,1850.32,1850.37,1850.69,1850.6,1850.64,1850.91,1851.15,1851.11,1851.11,1850.96,1850.81,1850.31,1849.9,1849.25,1848.23,1847.32,1846.54,1845.35,1844.57,1843.65,1842.78,1842.15,1842.04,1841.99,1841.76,1841.93,1842.22,1842.55,1842.91,1843.71,1844.36,1844.53,1844.65,1844.89,1844.94,1845.1,1844.79,1844.15,1843.02,1841.47,1840.31,1838.79,1837.38,1836.1,1834.69,1833.08,1831.74,1830.96,1829.75,1828.46,1826.89,1825.18,1823.31,1821.82,1820.39,1818.54,1816.69,1814.94,1813.31,1811.58,1809.89,1808.16,1806.39,1804.46,1803.1,1801.55,1800.33,1799.46,1798.64,1798.28,1798.49,1798.81
2029.97,2024.9,2020.42,2019.34,2019.15,2019.19,2019.55,2020.42,2021.52,2022.72,2023.4,2024.02,2025.22,2025.11,2028.27,2029.91,2034.08,2035.6,2037.03,2039.43,2041.73,2041.95,2042.27,2041.05,2040.6,2040.47,2040.01,2036.63,2036.2,2038.01,2038.1,2037.77,2037.44,2036.82,2035.43,2034.19,2033.29,2032.24,2031.68,2029.78,2028.07,2026.24,2024.77,2024.91,2025.87,2025.77,2025.3,2024.47,2024.04,2023.03,2022.67,2022.82,2021.22,2019.43,2017.66,2015.71,2013.9,2011.16,2008.29,2004.49,2001.46,1999.06,1995.87,1993.98,1992.33,1992.3,1993.31,1994.58,1996.37,1997.15,1997.72,1998.03,1997.97,1996.87,1994.72,1992.61,1990.49,1988.08,1986.41,1984.56,1983.35,1982.12,1981.19,1980.08,1980.81,1981.3,1982.27,1979.97,1978.61,1972.22,1969.17,1968.99,1969.03,1969.96,1970.29,1970.11,1970.2,1970.18,1970.52,1971.21,1971.3,1969.91,1968.38,1967.72,1967.95,1967.48,1966.02,1964.14,1961.32,1959.76,1965.3,1968.49,1968.7,1965.92,1969.28,1970.02,1970.08,1972.04,1970.68,1962.95,1961.45,1963.13,1964.28,1966.34,1965.14,1965.11,1966.61,1968.54,1970.81,1972.57,1974.47,1973.76,1969.11,1964.58,1964.39,1964.17,1963.67,1961.91,1960.56,1958.67,1955.97,1953.95,1953.01,1952.88,1952.98,1952.72,1953.41,1953.7,1955.07,1955.88,1956.21,1957.41,1958.22,1958.15,1958.33,1957.71,1957.19,1955.9,1954.97,1954.47,1952.48,1951.07,1949.11,1946.89,1945.09,1943.87,1941.91,1940.51,1939.49,1938.33,1936.94,1936.68,1936.51,1936.04,1934.96,1934.91,1934.04,1933.21,1932.89,1932.56,1932.5,1932.81,1933.31,1933.79,1934.07,1934.85,1935.71,1936.12,1936.91,1937.31,1936.79,1936.13,1935.38,1934.39,1933.37,1931.69,1930.18,1928.27,1926.53,1924.51,1922.61,1920.5,1919.02,1914.36,1914.12,1912.25,1911.07,1910.31,1910.18,1908.78,1907.31,1905.9,1905.61,1905.37,1905.5,1905.53,1905.15,1905.05,1907.28,1908.71,1910,1911.38,1913.08,1914.35,1916.01,1917.83,1918.78,1919.17,1920.08,1921.3,1921.81,1921.6,1921.64,1920.68,1919.47,1918.73,1918.04,1916.26,1913.7,1911.05,1908.47,1906.22,1904.16,1902.46,1900.61,1898.8,1898.07,1898.49,1898.53,1898.79,1898.59,1896.07,1897.72,1897.7,1894.87,1893.8,1894.46,1891.01,1889.01,1887.53,1887.82,1885.91,1882.16,1880.6,1879.42,1880.23,1877.93,1880.01,1880.44,1881.51,1882.95,1884.83,1887.04,1889.62,1891.7,1893.82,1895.57,1897.21,1898.55,1900.09,1900.6,1901.21,1901.63,1902.11,1902.5,1902.74,1903.17,1902.83,1901.51,1899.98,1895.25,1892.1,1891.15,1887.92,1884.63,1881.46,1878.28,1875.41,1873.91,1872.86,1872.08,1871.64,1871.42,1871.52,1871.88,1872.31,1872.03,1871.48,1870.77,1869.41,1867.78,1866.23,1864.26,1862.19,1860.06,1858.19,1856.12,1854.14,1852.31,1850.55,1848.94,1847.92,1847.03,1846.23,1845.87,1845.79,1846.14,1846.33,1846.58,1846.83,1846.6,1846.66,1847.06,1847.33,1847.63,1847.82,1848.27,1848.78,1849.09,1849.49,1849.54,1849.5,1849.22,1849.02,1848.82,1848.66,1848.5,1848.54,1848.72,1848.89,1848.83,1848.97,1849.01,1849.03,1848.83,1848.56,1848.03,1847.31,1846.55,1845.93,1845.11,1844.41,1843.71,1842.89,1842.21,1842.23,1842.34,1842.35,1842.44,1842.67,1843.04,1843.33,1844.02,1844.62,1844.5,1844.43,1844.55,1844.54,1844.3,1844.13,1843.42,1842.47,1841.03,1839.66,1838.36,1837.1,1835.9,1834.48,1832.81,1831.73,1830.96,1829.75,1828.39,1826.81,1824.9,1822.91,1821.23,1819.64,1817.61,1815.4,1813.57,1811.71,1809.91,1808.32,1806.61,1804.57,1802.74,1801.22,1799.67,1798.49,1797.6,1796.66,1796.08,1796.1,1796.5
2028.71,2024.41,2020.97,2019.92,2019.05,2018.94,2019.24,2020.22,2021,2021.61,2021.88,2022.55,2023.3,2021.76,2024.24,2026.31,2027.9,2029.24,2030.41,2032.58,2034.54,2035.01,2035.64,2034.99,2035.31,2035.67,2035.69,2035.48,2035.98,2036.19,2036.35,2036.02,2035.61,2034.59,2033.18,2031.9,2030.4,2028.28,2026.27,2023.87,2023.85,2021.91,2019.74,2018.78,2018.55,2018.05,2017.53,2016.83,2016.32,2016.06,2015.95,2016.26,2015.32,2014.07,2012.51,2010.69,2008.85,2006.44,2003.54,2000.38,1997.77,1995.91,1993.66,1992.04,1990.8,1991.1,1991.93,1993.81,1995.48,1996.19,1996.25,1996.08,1995.65,1994.24,1991.65,1989.41,1986.84,1984.31,1981.92,1979.89,1978.15,1977.19,1976.66,1975.53,1973.87,1974.63,1973.78,1972.46,1971.73,1970.72,1967.37,1967.03,1967.18,1967.9,1968.09,1967.46,1967.17,1966.66,1966.79,1967.69,1967.84,1967.36,1966.39,1966.22,1966.78,1966.56,1965.3,1963.63,1960.69,1958.68,1960.66,1966.32,1972.2,1971.35,1971.58,1972.68,1973.07,1973.29,1969.99,1966.5,1965.93,1965.09,1970.27,1969.84,1968.8,1968.8,1969.97,1971.21,1972.5,1973.91,1975.42,1974.14,1974.91,1966.43,1968.61,1964.59,1960.52,1958.71,1957.28,1955.22,1952.47,1950.58,1949.68,1949.91,1950.38,1950.58,1951.54,1952.13,1953.61,1954.27,1954.48,1955.3,1955.86,1956.08,1956,1955.53,1955.1,1953.88,1953.02,1952.55,1950.8,1949.06,1946.15,1943.32,1941.06,1939.62,1937.27,1935.88,1934.7,1933.67,1932.83,1933.26,1933.73,1933.71,1933.14,1933.53,1933.44,1932.66,1932.59,1932.26,1932.44,1932.94,1933.42,1933.8,1934.01,1934.64,1935.58,1936.18,1937.07,1936.67,1935.79,1935.08,1934.21,1933.07,1931.97,1930.21,1928.41,1926.4,1924.7,1922.67,1920.57,1918.34,1916.65,1914.23,1912.67,1911.06,1910.41,1910.27,1910.68,1909.62,1908.61,1907.68,1907.5,1907.24,1907.24,1906.97,1906.28,1905.74,1906.91,1908.01,1909.09,1909.87,1910.93,1911.77,1913.32,1914.76,1915.78,1916.25,1917.22,1918.08,1918.76,1918.99,1919.17,1918.25,1916.85,1915.74,1914.79,1913.01,1910.52,1908.07,1905.57,1903.01,1900.99,1899.24,1897.39,1895.91,1895.18,1895.22,1895.23,1895.58,1895.36,1895.06,1894.68,1894.29,1891.41,1890.11,1888.9,1887.46,1885.57,1884.12,1882.75,1881.29,1881.43,1878.23,1877.1,1878.05,1875.99,1876.26,1876.67,1877.72,1879.57,1881.45,1883.72,1888.07,1890.29,1892.36,1893.97,1895.28,1896.67,1898.05,1898.39,1899.11,1899.88,1900.58,1901.12,1901.52,1902.09,1902.03,1900.85,1899.4,1896.84,1891.88,1888.98,1887.48,1884.41,1881.22,1876.12,1875.02,1873.33,1872.1,1871.28,1870.46,1870.23,1870.47,1870.62,1871.26,1871.38,1871.03,1870.74,1869.84,1868.81,1867.44,1865.92,1863.84,1861.8,1860.2,1858.17,1856.08,1854.28,1852.5,1850.77,1849.69,1848.88,1848.01,1847.44,1847.39,1847.86,1847.97,1848.06,1848.31,1848.11,1848.11,1848.48,1848.57,1848.83,1848.9,1849.11,1849.5,1849.61,1849.65,1849.55,1849.05,1848.67,1848.11,1847.62,1847.31,1846.84,1846.74,1846.95,1847.07,1847.17,1847.33,1847.51,1847.58,1847.51,1847.46,1847.04,1846.46,1845.87,1845.44,1844.74,1844.24,1843.76,1843,1842.71,1842.84,1843.17,1843.24,1843.44,1843.83,1844.11,1844.49,1844.92,1845.26,1845.02,1844.88,1844.81,1844.42,1844.16,1843.72,1843.02,1841.93,1840.69,1839.38,1837.94,1836.55,1835.35,1833.78,1832.35,1831.25,1830.37,1829.1,1827.8,1826.2,1824.38,1822.41,1820.68,1819.06,1816.79,1814.52,1812.64,1810.61,1809.01,1807.44,1805.77,1803.7,1801.88,1800.43,1798.97,1797.69,1796.78,1795.7,1794.95,1794.98,1795.24
2027.69,2023.88,2020.87,2018.81,2017.18,2016.52,2016.64,2017.35,2017.86,2018.32,2018.44,2019.19,2020.21,2019.52,2021.04,2022.11,2023.06,2023.98,2025.09,2026.99,2028.42,2029.3,2030.43,2031.03,2032.21,2035.33,2036.15,2036.59,2037.31,2037.58,2037.8,2037.61,2037.17,2036.29,2034.77,2033.15,2031.17,2028.92,2026.85,2024.55,2022.26,2019.8,2017.67,2016.16,2015.05,2013.96,2012.89,2011.8,2010.86,2009.82,2009.32,2009.14,2008.21,2007.1,2005.93,2004.68,2003.45,2001.7,1999.46,1997.03,1995.31,1993.96,1992.87,1992,1990.97,1991.24,1992.18,1993.78,1995.48,1996.38,1996.24,1995.7,1994.66,1992.45,1989.54,1987.09,1984.42,1981.46,1978.74,1976.34,1974.44,1973.83,1973.96,1973.52,1971.86,1972.84,1972.39,1971.63,1971.41,1970.42,1967.24,1966.75,1966.65,1967.36,1967.43,1966.66,1966.15,1965.45,1965.33,1965.93,1966.36,1966.32,1965.78,1965.98,1966.7,1966.66,1965.57,1964.27,1961.4,1959.22,1957.82,1962.52,1964.45,1969.36,1969.36,1970.41,1971.09,1971.79,1968.99,1968.76,1969.08,1969.22,1971.68,1971.11,1970.1,1969.87,1970.46,1971.01,1971.82,1972.53,1970.34,1971.75,1968.7,1968.75,1967.51,1960.05,1958.97,1954.36,1952.97,1950.93,1948.54,1947.12,1946.66,1947.18,1948.03,1948.44,1949.24,1949.63,1951.14,1951.78,1951.65,1952.28,1952.45,1952.2,1951.8,1951.22,1950.74,1949.74,1948.93,1948.65,1947.16,1945.58,1942.77,1939.94,1937.63,1936.01,1933.54,1932.04,1931.12,1930.1,1929.49,1930.35,1931.23,1931.61,1931.3,1932.46,1932.75,1932.16,1932.33,1932.29,1932.77,1933.53,1934.13,1934.43,1934.4,1935.11,1935.88,1936.3,1936.8,1936.27,1935.33,1934.28,1933.37,1932.17,1930.74,1928.78,1926.87,1924.68,1922.57,1920.3,1918.24,1915.9,1913.91,1911.58,1910.32,1909.31,1909.12,1909.36,1910.07,1909.57,1909.22,1908.95,1909.23,1908.98,1908.96,1908.65,1907.93,1907.56,1908.61,1909.45,1910.34,1910.65,1911.39,1911.75,1912.78,1913.56,1914.03,1914.14,1914.84,1915.11,1915.5,1915.45,1915.32,1914.37,1913.11,1911.87,1910.77,1908.97,1906.67,1904.42,1902,1899.77,1897.57,1896.16,1894.64,1893.32,1892.6,1892.53,1892.35,1892.79,1892.57,1892.19,1891.65,1891.26,1890.22,1889.08,1888.11,1886.81,1885.22,1883.91,1882.96,1881.5,1879.87,1878.67,1877.56,1876.73,1876.65,1876.93,1877.45,1878.54,1880.25,1882.17,1884.27,1886.74,1888.9,1891.1,1892.65,1893.82,1895.03,1896.41,1896.74,1897.43,1898.44,1899.17,1899.86,1900.23,1900.84,1900.85,1899.71,1898.53,1896.09,1893.26,1890.39,1887.22,1884.01,1880.98,1877.88,1875.02,1873.05,1871.62,1870.75,1869.93,1869.66,1869.7,1870.17,1870.8,1871.05,1871.01,1871.11,1870.26,1869.56,1868.55,1867.05,1865.21,1863.49,1861.87,1859.87,1857.85,1856.04,1854.21,1852.58,1851.5,1850.58,1849.73,1849.33,1849.19,1849.61,1849.76,1849.93,1849.98,1849.75,1849.7,1849.99,1850.22,1850.35,1850.23,1850.22,1850.33,1850.33,1850.01,1849.5,1848.67,1847.84,1846.91,1846.19,1845.6,1845.02,1844.74,1844.77,1845.03,1845.18,1845.41,1845.52,1845.77,1845.96,1845.97,1845.73,1845.31,1844.87,1844.67,1844.19,1843.96,1843.69,1843.24,1842.89,1843.36,1843.71,1844.01,1844.32,1844.74,1845.15,1845.44,1845.71,1846.16,1845.74,1845.25,1845.14,1844.4,1844.06,1843.31,1842.43,1841.19,1839.76,1838.56,1837.22,1835.75,1834.37,1832.8,1831.23,1830.21,1829.38,1828.36,1826.89,1825.35,1823.58,1821.72,1819.91,1818.45,1815.97,1813.76,1811.79,1810.01,1808.42,1807.02,1805.52,1803.43,1801.7,1800.41,1798.82,1797.53,1796.53,1795.34,1794.29,1794.07,1794.09
2026.49,2023.1,2020.51,2018.55,2016.84,2016.02,2015.86,2016.11,2016.31,2016.79,2016.97,2017.79,2018.58,2019.31,2020.2,2021.07,2021.89,2022.55,2023.33,2024.89,2026.26,2027.18,2028.92,2030.19,2031.65,2032.98,2033.71,2034.6,2035.45,2035.71,2036.12,2035.97,2035.62,2034.55,2033.32,2031.6,2029.83,2027.54,2025.52,2023.14,2020.76,2018.35,2016.21,2014.45,2013.23,2011.89,2010.44,2008.92,2007.68,2006.6,2005.72,2005.03,2004.21,2003.01,2002.09,2001.52,2000.61,1999.25,1997.62,1995.56,1994.32,1993.26,1992.44,1991.61,1990.77,1991.17,1991.6,1993.04,1994.63,1995.51,1995.04,1994.61,1993.44,1990.9,1987.6,1985.14,1982.53,1979.81,1977.12,1974.78,1972.97,1972.31,1972.97,1972.92,1971.71,1973.02,1972.62,1972.07,1971.87,1971.07,1967.83,1967.07,1966.86,1967.36,1967.02,1966.1,1965.41,1964.68,1964.52,1965.07,1965.45,1965.62,1965.26,1965.55,1966.44,1966.41,1965.56,1964.5,1961.83,1959.29,1957.71,1955.55,1959.92,1958.48,1964.3,1968.12,1968.87,1969.59,1969.57,1969.35,1970.22,1970.7,1970.39,1969.97,1969.32,1968.67,1968.91,1969.29,1969.71,1966.81,1969.78,1970.44,1969.85,1963.06,1958.62,1953.8,1952.44,1951.39,1950.82,1946.47,1945.07,1944.3,1944.42,1945.23,1946.39,1947.08,1947.69,1947.61,1948.53,1948.66,1948.18,1948.06,1947.81,1947.28,1946.65,1945.68,1944.94,1944.15,1943.83,1943.73,1942.5,1941.19,1938.54,1935.54,1933.45,1932.21,1929.36,1928.24,1927.72,1927.26,1927.34,1928.67,1930.04,1930.91,1931.36,1932.82,1933.3,1933.05,1933.31,1933.53,1934.05,1934.86,1935.39,1935.51,1935.27,1935.67,1936.33,1936.42,1936.67,1936.1,1934.92,1933.86,1932.53,1931.25,1929.52,1927.29,1925.18,1922.76,1920.43,1918.1,1916.02,1913.67,1911.65,1909.49,1908.82,1908.2,1908.31,1908.85,1909.78,1909.62,1909.74,1909.89,1910.5,1910.14,1910.01,1909.58,1909.03,1908.56,1909.28,1909.73,1910.27,1910.23,1910.64,1910.58,1911.01,1911.43,1911.55,1911.38,1911.73,1911.68,1911.78,1911.46,1910.98,1910.16,1908.88,1907.48,1906.35,1904.86,1902.83,1900.8,1898.8,1896.79,1895,1893.79,1892.61,1891.57,1890.95,1890.95,1890.81,1890.97,1890.77,1890.12,1889.44,1888.79,1887.72,1886.61,1885.56,1884.37,1882.69,1881.6,1880.62,1879.39,1878.01,1876.97,1876.14,1875.55,1875.42,1875.64,1876.3,1877.27,1878.96,1880.7,1882.79,1885.02,1887.1,1889.38,1891.01,1892.29,1893.5,1894.79,1895.01,1895.67,1896.91,1897.76,1898.35,1898.91,1899.39,1899.38,1898.41,1897.42,1895.09,1892.35,1889.7,1886.81,1883.7,1880.98,1877.94,1875.02,1873.22,1871.87,1870.89,1869.75,1869.52,1869.75,1870.03,1870.52,1871.01,1871.06,1871.44,1870.89,1870.17,1869.16,1867.8,1866.22,1864.35,1862.96,1861.05,1859.05,1857.31,1855.53,1854.08,1852.97,1852.22,1851.33,1850.93,1850.96,1851.37,1851.66,1851.93,1852.14,1852.05,1852.19,1852.4,1852.57,1852.61,1852.44,1852.04,1851.87,1851.43,1850.6,1849.68,1848.35,1846.95,1845.55,1844.39,1843.54,1842.81,1842.32,1842.44,1842.65,1842.77,1843.16,1843.47,1843.99,1844.14,1844.35,1844.38,1844.24,1844.08,1844.01,1843.85,1843.82,1843.83,1843.56,1843.49,1843.96,1844.45,1844.86,1845.3,1845.8,1846.15,1846.36,1846.68,1846.82,1846.27,1845.69,1845.33,1844.37,1843.64,1842.81,1841.74,1840.43,1838.98,1837.67,1836.24,1834.66,1833.17,1831.6,1830.04,1829.03,1828.04,1826.94,1825.65,1824.2,1822.62,1820.77,1819.26,1817.8,1815.43,1813.27,1811.33,1809.7,1808.25,1806.93,1805.7,1803.94,1802.22,1801,1799.53,1798.3,1797.13,1795.67,1794.37,1793.73,1793.48
2025.06,2022.31,2019.81,2018.18,2016.4,2015.72,2015.2,2015.06,2015.01,2015.22,2015.52,2016.22,2017.04,2017.7,2018.56,2019.34,2019.98,2020.61,2021.39,2022.63,2024.04,2025.12,2026.76,2028.27,2029.69,2031.08,2031.94,2032.77,2033.77,2034.16,2034.59,2034.46,2034.24,2033.19,2031.97,2030.54,2028.55,2026.14,2023.97,2021.48,2019.11,2016.79,2014.53,2012.63,2011.12,2009.9,2008.06,2006.28,2004.83,2003.45,2002.48,2001.95,2001.14,2000.22,1999.25,1999.03,1998.56,1997.76,1996.31,1994.73,1993.4,1992.44,1991.66,1990.76,1990.26,1990.34,1990.95,1992.14,1993.45,1994.36,1993.84,1993.23,1991.9,1989.3,1985.8,1983.14,1980.46,1977.88,1975.43,1973.14,1971.15,1970.53,1971.6,1971.98,1971.1,1970.4,1972.42,1971.81,1971.7,1971.12,1967.92,1966.74,1966.32,1966.63,1966.01,1965.08,1964.34,1963.61,1963.54,1964.09,1964.84,1965.06,1964.76,1965.02,1965.92,1965.87,1965.19,1964.3,1961.44,1958.67,1956.6,1954.13,1951.79,1956.03,1955.86,1962.36,1965.77,1966.66,1967.02,1967.18,1968.8,1969.8,1969.94,1969.48,1969.27,1968.69,1968.68,1968.65,1965.48,1965.1,1964.44,1964.2,1962.5,1952.26,1950.4,1948.27,1947.08,1946.58,1946.7,1946,1942.15,1942.19,1942.64,1943.51,1944.84,1945.87,1946.16,1945.58,1945.92,1945.44,1944.57,1943.93,1943.41,1942.53,1941.72,1940.44,1939.75,1939.26,1939.12,1939.49,1938.2,1936.86,1934.21,1931.44,1929.48,1928.09,1925.05,1924.28,1924.44,1924.62,1925.44,1927.31,1929.27,1930.71,1931.92,1933.9,1934.46,1934.14,1934.79,1934.85,1935.3,1935.79,1936.2,1936.1,1935.74,1935.96,1936.19,1936.12,1936.18,1935.24,1934.05,1932.8,1931.21,1929.81,1928.02,1925.65,1923.42,1920.72,1918.31,1916.07,1914.13,1912.03,1909.74,1907.94,1907.41,1907.11,1907.51,1908.07,1908.87,1909.01,1909.35,1909.82,1910.69,1910.19,1909.96,1909.39,1908.87,1908.32,1908.72,1908.95,1909.33,1909.09,1909.18,1908.72,1908.84,1908.77,1908.76,1908.33,1908.22,1907.82,1907.66,1907.09,1906.42,1905.45,1904.09,1902.54,1901.81,1900.19,1898.36,1896.75,1895.2,1893.66,1892.07,1891.27,1890.46,1889.92,1889.22,1889.36,1889.19,1889.31,1888.8,1888.15,1887.3,1886.54,1885.27,1884.19,1882.87,1881.74,1880.41,1879.39,1878.36,1877.33,1876.11,1875.36,1874.61,1874.17,1874.14,1874.23,1874.86,1876.06,1877.56,1879.39,1881.35,1883.46,1885.48,1887.94,1889.58,1890.91,1892.04,1893.33,1893.59,1894.23,1895.39,1896.44,1896.75,1897.16,1897.71,1897.64,1896.75,1895.83,1893.65,1891.27,1888.88,1886.13,1883.38,1880.88,1878.29,1875.56,1873.79,1872.27,1871.18,1870.06,1869.7,1869.95,1869.96,1870.59,1870.99,1871.22,1871.42,1870.96,1870.33,1869.35,1868,1866.36,1864.64,1863.23,1861.46,1859.39,1857.85,1856.21,1854.6,1853.83,1853.1,1852.46,1852.24,1852.28,1852.76,1853.26,1853.7,1854.04,1854.19,1854.39,1854.61,1854.98,1854.92,1854.43,1853.84,1853.32,1852.41,1851.04,1849.37,1847.62,1845.71,1843.85,1842.46,1841.25,1840.22,1839.86,1839.81,1840.06,1840.31,1840.7,1841.17,1841.84,1842.25,1842.74,1842.97,1843.06,1843.24,1843.45,1843.53,1843.74,1843.87,1843.91,1843.86,1844.62,1845.11,1845.44,1845.98,1846.68,1847.05,1847.19,1847.33,1847.39,1846.53,1845.94,1845.28,1844.39,1843.33,1842.24,1841.08,1839.74,1838.17,1836.81,1835.26,1833.49,1831.86,1830.32,1828.57,1827.58,1826.7,1825.74,1824.24,1822.78,1821.22,1819.65,1818.2,1816.93,1814.68,1812.84,1810.97,1809.63,1808.35,1807.22,1806.05,1804.3,1802.92,1801.78,1800.29,1799.01,1797.71,1796.06,1794.61,1793.65,1793.03
2022.53,2020.21,2017.9,2016.16,2014.63,2013.87,2013.42,2013.14,2013.17,2013.51,2013.68,2014.26,2015.16,2015.52,2016.31,2017.21,2018.04,2018.52,2019.33,2020.55,2021.81,2022.95,2024.68,2026.1,2027.52,2028.8,2029.75,2030.52,2031.58,2031.87,2032.21,2032.18,2032.05,2031.07,2029.84,2028.46,2026.35,2024,2021.74,2019.13,2016.65,2014.36,2011.89,2009.84,2008.25,2006.78,2004.89,2003.11,2001.6,2000.15,1999.07,1998.47,1997.89,1996.98,1996.52,1996.59,1996.51,1995.8,1994.7,1993.31,1992.05,1991.23,1990.64,1990.19,1989.56,1989.68,1990.06,1991.5,1992.58,1993.21,1992.48,1991.85,1990.34,1987.42,1983.69,1981.07,1978.31,1976.17,1973.64,1971.7,1969.9,1969.46,1970.44,1971.05,1970.2,1969.72,1971.65,1971.08,1971.07,1970.54,1967.25,1966.13,1965.67,1965.86,1965.23,1964.17,1963.43,1962.67,1962.7,1963.27,1964.16,1964.51,1964.35,1964.64,1965.16,1964.9,1964.22,1963.08,1960.13,1956.96,1954.85,1952.53,1950.38,1948.38,1951.51,1954.93,1964.38,1965.63,1960.39,1960.72,1956.18,1954.3,1954.73,1963.26,1966.15,1968.76,1968.49,1965.13,1964.47,1963.94,1954.11,1959.39,1951.52,1949.7,1950.41,1945.2,1943.91,1943.86,1944.24,1943.67,1943.05,1940.35,1941.28,1942.09,1943.47,1944.57,1944.6,1943.63,1943.54,1942.51,1941.14,1939.85,1939.04,1938.15,1937.22,1936.01,1935.3,1935.11,1935.26,1935.45,1934.16,1932.74,1930.19,1927.35,1925.32,1923.44,1920.35,1919.89,1920.45,1921.56,1923.27,1925.65,1928.31,1930.52,1932.61,1935.06,1935.67,1935.51,1936.16,1936.03,1936.46,1936.66,1937.01,1936.69,1936.04,1936.03,1936.13,1935.61,1935.36,1934.4,1933.07,1931.45,1929.76,1928.26,1926.61,1924.16,1921.98,1919.27,1917,1914.85,1912.79,1910.71,1908.58,1906.69,1906.34,1906.28,1906.84,1907.51,1908.3,1908.59,1909.06,1909.83,1910.59,1910.07,1909.84,1909.04,1908.17,1907.56,1907.72,1907.73,1907.81,1907.41,1906.98,1906.46,1906.41,1906.05,1905.79,1904.97,1904.53,1903.8,1903.05,1902.22,1901.32,1900.3,1898.97,1897.66,1896.74,1895.4,1894.19,1892.73,1891.53,1890.34,1889.37,1888.84,1888.41,1887.96,1887.56,1887.79,1887.65,1887.56,1886.93,1886.09,1885.23,1884.24,1883.1,1881.78,1880.48,1879.38,1877.97,1877.01,1876.15,1875.35,1874.25,1873.55,1873.05,1872.69,1872.67,1872.99,1873.52,1874.72,1876.16,1877.86,1879.79,1881.61,1883.46,1886.09,1887.62,1888.8,1889.81,1891.1,1891.34,1892.16,1893.34,1894.25,1894.43,1895,1895.73,1895.67,1894.79,1894.12,1892.49,1890.38,1888.33,1885.89,1883.41,1881.28,1878.88,1876.45,1874.57,1872.99,1871.87,1870.67,1870.09,1870.07,1870.24,1870.61,1869.04,1869.02,1869.25,1868.66,1867.95,1867.17,1865.87,1864.16,1862.38,1861,1859.39,1859.37,1858.11,1856.45,1855.03,1854.31,1853.83,1853.57,1853.28,1853.53,1854.3,1854.83,1855.52,1856.19,1856.54,1857,1857.53,1857.72,1857.66,1856.88,1856.06,1855.08,1853.72,1851.78,1849.64,1847.29,1844.99,1842.67,1840.91,1839.49,1838.27,1837.59,1837.55,1837.71,1838.13,1838.59,1839.33,1840.12,1840.81,1841.35,1841.83,1842.06,1842.52,1843.11,1843.4,1843.61,1844.09,1844.16,1844.38,1845.05,1845.63,1846.04,1846.53,1847.07,1847.52,1847.56,1847.65,1847.34,1846.58,1845.8,1845,1843.83,1842.6,1841.66,1840.16,1838.72,1837.16,1835.63,1834.01,1832.17,1830.44,1828.64,1826.98,1825.99,1825.09,1823.91,1822.43,1821.12,1819.65,1818.17,1817.11,1815.86,1813.93,1812.15,1810.64,1809.44,1808.41,1807.49,1806.7,1805.16,1803.76,1802.85,1801.48,1800.1,1798.77,1796.97,1795.12,1793.99,1793.05
