33.144,38.6173,25.8507,21.2253,29.65,43.2693,55.2687,58.388,55.4173,51.636,51.3833,40.4313,21.706,17.5553,15.7433,13.2687,15.8767,15.87,16.6613,14.1333,14.038,13.066,11.32,7.24533,6.416,10.3527,11.0707,10.32,6.39067,8.75067,4.81467,4.82733,4.03267,4.04133,4.04733,4.058,3.25467,4.806,4.83,3.18067,3.984,4.86067,8.10933,10.55,12.9687,15.3267,18.6573,30.056,45.506,51.3293,48.8,57.8687,53.7373,62.2647,68.5207,76.9753,71.2427,63.8927,51.5247,41.2227,32.6467,38.8853,49.7347,87.4853,118.082,131.773,158.708,182.209,214.165,264.45,300.315,343.221,383.234,455.397,498.647,528.889,547.693,590.266,620.299,630.899,628.599,612.335,617.33,601.217,597.009,630.771,637.507,601.694,553.092,466.223,369.106,267.426,168.369,82.1793,32.6907,12.824,5.16067,5.09467,3.65133,5.058,5.032,5.00333,4.27267,4.234,2.788,13.0773,9.12133,2.05333,5.882,5.84933,7.67533,6.26933,9.33333,12.238,17.8787,26.656,26.658,20.6427,23.3127,8.63667,0,0,0,0,0,0,0,0,1.52467,3.87267,16.9693,45.48,106.568,164.715,249.089,298.571,363.362,399.131,421.602,421.301,421.197,434.864,424.729,418.255,426.466,411.301,395.811,395.109,393.903,377.497,357.293,359.478,358.665,337.347,341.159,371.661,414.335,428.259,447.791,462.365,477.639,488.251,483.371,485.036,468.419,419.785,303.249,315.857,310.599,280.813,228.349,172.537,128.587,98.276,63.0527,37.7227,21.61,11.0867,6.82067,6.80933,6.088,5.38,3.35667,3.34733,3.338,3.32467,3.30733,3.918,3.89467,4.51533,4.484,5.13267,5.76733,7.64267,8.31133,8.97,8.35333,9.67533,9.74133,7.76067,9.056,10.356,15.012,19.696,28.3707,37.454,47.29,59.8647,72.42,90.7093,117.621,135.741,158.315,170.525,176.245,187.237,184.19,184.262,172.552,151.186,132.891,110.105,81.2687,62.5827,38.2513,18.55,7.2,2.542,2.532,2.53667,5.77067,5.802,31.5033,100.053,191.239,285.277,425.935,498.651,436.679,260.118,120.806,52.0107,16.462,6.59533,3.13867,3.13267,3.12533,4.40133,5.78467,15.232,21.3707,28.7833,38.1253,52.2627,57.002,59.712,55.026,46.2453,34.0007,33.6573,34.6387,54.9367,126.096,219.941,373.531,504.235,627.775,733.919,867.383,985.106,1095.1,1271.59,1409.15,1535.52,1774.69,2046.79,2323.88,2607.86,2831.58,3124.97,3455.14,3744.5,4066.99,4436.38,4624.14,4746.33,4824.91,4880.89,4923.62,4960.8,4991.78,5011.26,5022.72,5043.61,5048.68,5049.62,5047.53,5043.65,5036.66,5026.27,5006.25,4983.93,4957.88,4926.85,4895.75,4864.84,4837.11,4809.81,4784.41,4761.4,4727.98,4721.38,4710.71,4704.66,4678.08,4658.58,4639,4619.49,4592.13,4564.73,4519.04,4448.38,4419.16,4392.04,4318.25,4259.74,4172.57,4124.83,4025.84,3952.02,3898.77,3842,3829.91,3855.38,3879.68,4015.12,4288.26,4468.15,4569.84,4662.02,4715.38,4772.03,4823.38,4869.83,4913.28,4950.9,4983.3,5009.99,5033.12,5051.39,5066.33,5077.16,5083.01,5085.27,5085.48,5082.66,5078.2,5070.16,5059.43,5047.24,5031.35,5011.43,4987.33,4959.63,4932.7,4871.37,4525.34,3114.55,873.883,74.316,3.23267,0,0,0,0,0,3.57133,67.028,321.272,723.089,960.66,1035.17,1074.47,1117.85,1164.29,1185.04,1202.94,1245.58,1265.94,1269.71,1273.3,1259.19,1252.73,1254.3,1260.4,1262.99,1264.16,1266.94,1267.8,1261.63,1258.8,1250.19,1245.1,1247.36,1238.88
200.597,315.895,413.063,430.765,462.771,533.853,574.663,611.785,610.418,613.936,588.639,532.551,463.669,403.793,374.404,371.303,356.491,342.481,351.922,331.774,301.373,266.27,270.536,257.201,218.656,177.567,171.095,163.695,151.611,130.709,116.582,100.102,101.805,98.982,108.967,128.861,158.086,189.871,205.021,213.501,219.311,229.219,245.2,270.673,289.536,339.129,365.845,385.812,403.402,420.268,425.421,413.268,415.608,422.357,471.385,499.129,518.422,499.362,495.731,458.524,414.412,373.353,360.353,376.612,380.555,394.507,401.163,420.143,446.262,466.799,483.779,492.077,503.207,530.133,569.022,584.853,547.838,536.658,548.91,505.703,481.614,441.328,415.566,411.551,414.601,428.065,435.237,399.265,314.773,184.691,124.547,75.3513,49.8413,31.6567,13.788,6.12933,2.19067,2.18333,2.17533,2.168,2.15667,2.14333,1.40733,7.43067,10.6273,10.614,10.5773,19.9813,17.4827,13.536,9.60933,40.2573,54.4687,87.1687,110.423,124.333,118.07,99.8873,87.6173,64.248,49.4287,14.3213,5.65133,0,0.693333,0.702,0.712667,0.72,0.721333,2.276,5.53933,24.1267,61.7227,112.014,177.416,228.228,266.125,299.8,327.409,337.565,330.459,339.029,321.883,311.965,317.926,313.938,320.021,303.354,301.9,286.693,289.741,277.909,275.353,279.389,292.041,311.345,347.413,377.24,395.593,407.549,412.612,433.333,448.425,455.191,448.351,419.192,353.411,332.017,324.7,311.863,275.529,237.617,193.55,167.7,115.729,78.74,54.5347,30.8267,15.4513,6.88133,6.15333,6.148,5.41,4.00333,3.30533,3.29733,3.93667,3.26533,3.25,3.25,3.85467,4.51267,5.14933,7.02533,7.694,8.35333,8.34267,10.2793,9.704,8.36467,8.42,9.71133,14.3953,19.0793,28.3693,37.4527,47.288,60.54,72.4533,92.0767,115.652,136.406,159.558,171.729,178.172,188.511,190.54,188.866,181.265,162.134,147.111,124.949,104.13,79.9673,63.5767,40.5033,27.3067,11.1893,3.19067,2.53867,2.54333,2.548,2.554,2.558,5.67,5.668,14.76,22.4173,9.45733,9.42667,6.236,3.16067,3.15467,3.14667,3.14067,3.134,3.774,6.48,15.9793,26.0367,39.4553,59.6373,74.4227,81.9027,81.1973,73.8207,65.8027,56.37,44.876,36.688,31.9913,20.5153,15.9153,18.3687,17.7433,24.1427,31.9667,32.7647,36.5887,52.2587,58.2133,76.6493,88.1847,93.152,111.417,136.663,179.588,239.54,353.83,479.449,626.723,913.494,1359,2071.56,2838.31,3652.68,4332.57,4693.1,4856.15,4928.32,4964.81,4987.94,5012.44,5022.9,5026.96,5027.91,5025.04,5019.35,5012.52,5000.08,4982.28,4957.96,4937.43,4906.28,4880.04,4848.72,4822.96,4748.77,4633.67,4536.64,4461.35,4385.28,4256.4,4063.24,3877.53,3585.75,3200.01,2833.11,2439.96,2141.43,1913.83,1723.56,1661.43,1701.23,1705.39,1728.48,1681.88,1609.38,1566.34,1613.38,1669.66,1741.46,2021.25,2427.33,3094.88,3788.48,4268.73,4446.81,4545.26,4653.95,4720.75,4771.74,4821.39,4865.15,4904.66,4939.42,4969.42,4993.89,5015.05,5033.51,5046.7,5055.35,5059.24,5060.77,5059.88,5058.06,5054,5048.78,5040.15,5028.66,5012.78,4995.36,4971.89,4943.97,4880.45,4513.66,3020.44,863.703,56.674,3.23267,0,0,0,0,0,0,24.1727,245.523,656.924,913.242,1014.46,1056.75,1073.27,1119.58,1164.35,1185.91,1204.41,1241.42,1263.17,1268.1,1267.9,1259.2,1254.86,1251.66,1258.1,1260.7,1261.07,1261.22,1259.73,1259.57,1259.34,1254.79,1248.66,1247.5,1244.84
270.518,392.211,506.572,580.641,590.128,574.159,591.215,623.831,671.74,679.467,679.174,661.074,655.527,658.887,636.39,646.095,624.573,613.736,610.129,581.157,571.953,551.084,546.334,524.849,497.151,483.622,448.17,421.209,407.416,380.136,369.513,344.074,334.557,339.747,345.221,378.134,401.451,455.18,483.505,502.267,499.79,529.619,551.918,530.508,525.921,559.513,549.336,557.311,555.191,566.071,577.1,566.113,572.117,599.838,616.615,637.387,646.947,646.047,646.098,615.529,586.272,556.421,541.335,541.119,555.877,556.667,544.992,556.643,580.52,595.494,615.437,634.946,642.839,693.319,715.985,745.547,753.664,733.469,740.625,706.837,681.825,633.423,623.396,588.966,533.049,510.594,472.023,401.416,309.108,188.253,103.274,53.2187,36.3113,25.494,12.38,6.902,3.69733,2.936,2.18333,2.17667,2.16667,2.16133,1.41933,4.59733,5.30733,10.0647,29.404,45.41,54.376,61.8593,74.612,123.371,162.017,167.021,177.427,151.707,129.148,98.6393,68.362,44.1433,14.4813,2.93267,0,0,0,0,0,0,3.166,9.63133,22.4367,48.3233,87.7727,134.609,159.742,201.252,237.26,285.321,321.855,386.339,412.159,427.907,421.849,426.147,420.301,415.883,403.596,400.451,391.625,393.551,402.766,385.161,374.491,374.278,366.083,375.071,397.255,412.895,437.819,435.7,455.816,458.733,464.409,468.888,482.64,468.263,414.108,399.611,403.346,370.365,342.968,299.974,244.987,219.522,161.591,109.452,79.5047,47.1573,22.0087,11.228,9.72667,8.24067,6.122,4.69533,3.99267,3.974,3.94933,3.92933,3.9,3.87467,3.85467,5.13133,5.76667,7.642,8.308,8.96533,8.956,10.2767,10.3407,8.36267,9.05333,10.356,15.0087,19.694,28.3693,37.4527,47.288,59.892,71.7607,90.068,117.039,141.112,163.081,177.313,188.259,196.643,197.481,205,195.995,180.07,166.348,144.761,118.308,98.7287,77.7633,53.2613,33.468,19.29,8.60067,4.57667,3.22733,2.55133,2.556,2.55867,2.56,2.558,2.556,3.192,3.188,3.18,3.172,3.16067,3.15467,3.14667,3.14067,3.134,3.774,7.16467,18.6593,28.732,42.88,62.9933,77.926,84.7327,82.674,75.306,65.1193,57.03,48.2467,38.7093,35.34,27.3247,23.3067,23.902,22.682,21.972,19.266,18.5387,19.8553,24.9873,25.0193,29.4793,30.646,33.3627,43.0047,48.1493,52.1373,59.33,69.356,65.4567,62.3693,48.1967,34.4,23.6373,15.004,14.378,28.4893,83.7813,349.661,1088.36,1941.64,2817.2,3552.68,3996.71,4206,4299.79,4323.48,4253.76,4152.96,3984.81,3789.18,3387.34,3013.09,2413.81,1950.96,1268.08,639.072,283.438,139.771,85.7873,41.9233,35.8907,19.5193,13.4273,10.118,13.246,13.966,19.9707,22.7913,26.3513,29.078,27.6087,29.6707,30.4747,29.164,22.66,26.4847,24.9933,31.106,28.6973,25.734,31.372,64.5593,201.325,614.483,1614.03,2915.73,3554.46,3798.89,4101.44,4390.89,4625.78,4753.57,4835.74,4878.94,4917.08,4947.91,4972,4991.37,5007.72,5020.45,5027.39,5031.15,5032.36,5031.73,5031.78,5030.62,5027.44,5020.08,5009.61,4982.82,4925.48,4681.83,3818.4,2316.39,704.655,57.9853,2.91133,0,0,0,0,0,3.31467,19.1853,152.757,444.244,800.683,975.891,1034.84,1071.12,1093.28,1113.79,1164.13,1203.75,1225.81,1235.99,1254.84,1265.9,1264.36,1268.8,1267.34,1258.15,1256.74,1257.59,1261.61,1262.24,1263.24,1261.91,1260.34,1262.78,1262.54,1253.62,1253.24,1246.92
283.521,394.449,513.528,609.671,658.923,667.419,678.713,706.453,740.976,738.368,726.614,742.755,739.021,720.659,710.509,702.063,670.12,649.286,620.81,592.13,589.525,574.331,533.159,513.689,477.096,444.457,413.623,369.851,364.276,346.865,341.382,334.31,337.881,345.29,353.356,381.071,408.491,453.151,482.127,504.675,544.509,566.239,618.669,647.365,666.32,694.463,702.963,704.307,692.26,688.251,714.623,723.592,725.9,741.344,734.522,730.005,726.385,727.541,731.117,705.881,685.855,674.775,650.703,653.84,656.229,673.974,663.445,673.803,685.269,711.141,751.685,760.35,772.694,780.189,811.623,850.34,855.523,837.754,813.927,793.361,799.97,783.025,790.571,769.497,744.317,721.985,705.646,671.321,608.21,515.811,390.833,278.115,202.892,119.123,57.764,18.7447,7.77267,4.52267,3.69867,2.96933,2.20533,1.47067,1.474,4.692,7.13333,12.5967,9.38933,6.41467,0,3.664,3.61533,13.104,19.1093,21.7133,34.118,40.0267,36.1807,38.9127,26.72,8.69533,0,0,0,0,0,0,0,0.782,7.424,26.194,62.9367,110.107,175.493,268.528,322.951,406.894,442.869,466.474,492.896,501.971,502.05,507.637,495.905,476.622,445.145,424.413,413.441,404.551,379.648,362.413,369.4,337.421,325.283,328.065,333.704,334.769,333.251,347.295,377.767,376.667,390.054,407.157,415.108,420.014,426.767,438.888,440.271,447.953,462.333,444.926,404.477,346.205,295.801,249.13,190.447,135.214,93.6547,58.296,33.7433,14.906,10.5173,9.742,6.84,6.10467,5.388,4.008,4.62933,3.27867,3.25867,3.23467,4.47067,5.11667,5.74867,6.29667,5.71267,8.942,8.32933,9.64667,10.31,7.67333,9.026,10.3313,14.992,19.0447,28.348,36.148,47.2673,59.2153,70.4373,86.044,114.935,140.871,166.08,184.333,200.193,205.431,215.707,224.309,226.109,221.312,209.915,194.331,170.376,140.902,106.645,78.79,50.158,32.864,16.6513,7.92533,3.22733,3.23333,3.23667,3.23733,3.23867,3.23667,3.23467,3.192,3.188,3.18,3.172,3.16067,3.15467,3.14667,3.806,4.44733,5.07333,14.5973,23.982,32.744,54.3693,75.2087,95.0247,101.945,102.539,93.8727,87.032,80.2387,68.794,58.58,54.582,45.5853,41.528,39.4113,36.2693,35.498,35.46,33.434,35.9833,39.916,43.6907,50.686,57.2687,64.1693,78.7627,87.83,105.123,113.589,121.205,126.631,125.613,109.976,90.338,65.6707,42.3453,23.7287,14.4933,5.16733,19.3793,78.37,285.865,645.989,1139.91,1559.86,1856.74,2021.79,2021.44,1947.99,1799.08,1629.47,1319.38,1039.62,747.409,469.862,229.167,52.2287,20.364,8.088,1.93267,1.932,1.93,1.93,1.92733,2.618,8.39467,15.5927,24.7907,36.27,44.942,56.5307,63.39,64.1473,61.446,50.202,44.4747,44.3767,36.5233,29.836,18.6433,9.844,4.51,3.69533,6.19733,13.774,82.144,294.979,569.385,791.389,1070.15,1493.66,2097.28,2866.42,3566.95,4164.34,4541.26,4756.71,4844.4,4917.27,4940,4965.59,4972.71,4979.72,4982.49,4980.62,4985.2,4983.86,4980.13,4979.52,4967.12,4943.4,4769.88,4171.32,2639.52,813.466,62.572,6.34133,0,0,0,0,0,0,3.18333,45.364,220.673,536.549,766.648,912.205,1001.26,1042.23,1090.22,1123.13,1157.75,1199.9,1227.72,1239.16,1253.35,1257.17,1267.77,1268.98,1267.75,1267.33,1262.68,1253.83,1256.42,1256.21,1259.44,1262.47,1262.22,1260.73,1258.93,1256.08,1252.32,1257,1248.19
280.225,389.361,501.973,604.488,667.275,684.973,680.319,689.615,714.361,721.452,730.414,744.341,747.073,723.889,722.825,704.877,678.441,642.769,614.588,589.102,585.65,566.121,518.289,471.474,443.19,408.387,363.906,335.709,315.045,297.214,286.018,277.323,274.755,290.166,307.122,327.583,356.747,403.644,434.228,475.131,500.79,533.391,564.572,606.547,621.787,643.807,663.854,676.657,668.363,677.962,697.417,708.993,734.895,727.961,735.281,744.183,745.905,736.427,734.401,702.322,694.105,674.669,663.431,672.566,658.225,654.915,648.727,666.427,678.198,699.563,727.684,749.774,770.901,815.103,842.855,858.701,882.87,869.737,827.315,819.075,864.356,846.913,829.52,832.117,754.587,727.083,681.658,651.869,556.403,397.834,240.291,175.862,109.073,64.1407,27.1247,8.66333,3.754,2.28533,2.28533,3.00667,1.508,3.93733,14.0093,16.7027,46.1547,69.0953,115.203,121.986,85.4153,88.05,133.504,165.403,220.708,253.973,257.223,240.045,203.723,140.36,96.194,56.116,8.844,0,0,0,0,0,0,1.69,6.93067,25.912,47.4127,85.3747,161.478,237.974,296.325,349.889,366.292,397.151,420.973,418.961,417.543,402.667,412.417,384.032,368.567,339.459,329.935,313.487,296.191,283.97,279.961,271.333,259.962,262.966,264.681,268.257,265.452,252.503,270.932,287.931,301.399,323.915,353.312,354.408,369.91,383.109,406.579,431.106,433.912,412.607,387.666,350.925,298.579,259.745,199.255,148.003,98.8447,64.2573,36.6873,16.3547,9.85533,9.076,6.15,3.36467,4.98667,7.302,41.8687,48.4093,50.06,53.6447,54.3393,51.3213,44.9713,48.8527,33.6593,109.236,65.2033,46.72,30.2433,22.1313,10.9367,11.818,9.11667,14.4413,16.6167,24.372,31.5793,42.2873,52.746,63.8987,93.9967,112.274,125.241,145.167,163.467,174.437,189.905,207.039,214.225,214.143,212.659,201.535,178.213,154.026,120.817,88.9387,60.1953,35.6367,22.2233,10.0433,4.624,3.23667,3.23867,3.23933,3.24067,3.23867,3.238,3.86867,3.188,3.18,2.53933,3.154,3.14733,3.78867,4.44733,5.074,5.748,17.3187,28.7227,44.8933,68.4267,96.2467,117.189,136.059,146.905,146.516,136.901,126.831,120.101,104.491,97.634,90.17,75.7987,64.8513,62.3307,60.282,60.154,63.232,69.0113,75.538,77.4387,93.6247,109.576,117.187,129.86,141.815,155.247,174.368,186.499,198.639,188.54,177.78,156.513,138.853,106.306,72.7247,41.9353,19.808,7.79267,7.06267,26.112,84.97,163.813,323.727,457.96,588.836,608.077,596.351,556.007,444.477,293.711,168.833,92.0707,46.7673,4.96933,4.94733,1.92933,2.64933,2.64667,7.59067,13.278,21.2027,28.5,45.596,62.752,82.902,91.3773,100.592,102.881,100.225,91.2747,86.632,82.1287,67.0153,61.5013,53.8367,40.9827,32.1293,18.662,9.854,4.51867,4.32933,3.64333,8.30267,24.974,45.3893,49.074,58.6747,74.012,142.893,222.258,427.716,877.949,1412.86,2252.83,3115.75,3901.12,4376.47,4627.15,4766.69,4842.93,4866.36,4889.27,4902.21,4914.73,4910.61,4905.16,4910.91,4878,4653.49,3884.03,2060.68,375.956,18.9127,0,0,0,0,0,0.819333,3.996,8.03333,30.8233,166.738,469.112,744.558,856.407,931.416,1004.51,1043.78,1105.6,1141.76,1186.55,1219.71,1243.94,1254.11,1261.19,1264.71,1267.94,1268.54,1269.21,1267.17,1262.8,1256.74,1256.77,1262.38,1261.35,1264.01,1266.64,1264.31,1259.11,1255.54,1253.44,1256.18,1249.12
70.4347,117.975,188.915,304.9,403.259,514.117,544.648,535.675,520.299,568.273,609.371,641.982,630.315,622.303,629.811,633.565,620.737,612.805,582.235,560.898,542.338,523.674,491.216,459.365,417.91,381.321,346.678,323.318,298.827,277.717,261.47,262.301,269.807,280.291,291.312,315.905,343.235,386.805,411.105,456.059,482.876,524.397,546.109,591.404,617.081,616.89,630.586,646.93,655.547,640.839,666.06,692.778,718.769,709.668,729.267,737.217,721.939,709.811,697.135,674.206,644.409,632.799,626.983,640.153,599.347,581.093,596.938,605.705,609.036,620.525,629.801,659.767,700.564,731.879,735.156,756.695,797.753,813.157,796.562,822.277,827.305,814.754,773.594,745.297,747.69,727.065,694.179,647.15,585.687,487.106,392.521,289.184,199.411,101.731,46.624,12.0367,4.734,3.13333,2.30333,0.788,0,0,0,3.338,32.75,45.868,88.5987,88.4933,157.907,180.609,153.599,205.072,349.249,370.55,309.669,243.892,176.109,116.381,84.5727,38.346,8.802,0,0,0,0,0,0,0,4.392,13.6093,35.85,84.054,168.379,264.584,314.514,360.427,378.924,373.948,362.373,352.431,341.045,328.721,319.08,274.438,253.5,224.526,200.572,155.256,136.279,122.81,115.342,88.0473,78.1033,63.182,69.3087,71.9673,80.1473,90.11,113.291,124.177,132.962,165.179,176.796,224.404,251.994,259.141,281.409,315.691,321.513,317.733,304.473,273.959,218.098,176.449,134.511,96.0673,67.33,46.816,30.0267,10.1067,5.688,5.666,1.43267,3.08667,47.876,274.705,1107,1949.92,2213.86,2377.98,2431.08,2432.28,2618.55,2642.9,3191.78,3691.29,3600.44,3114.76,2616.44,2080.02,1419.37,862.111,429.575,153.781,63.9853,17.2267,2.61467,0,0,0,0,0.621333,1.292,2.592,4.58733,7.952,13.354,20.154,30.232,48.408,70.7913,93.67,97.5013,99.0727,93.1287,75.574,57.37,33.8527,10.1007,1.424,3.37667,2.66733,2.02667,0.682,4.26467,4.204,4.20267,1.95133,1.95067,1.94733,1.25733,1.25333,1.24933,2.53467,3.19467,3.188,6.55333,18.0873,29.3987,48.6093,74.2147,115.664,135.569,150.529,152.811,157.521,155.018,156.352,158.769,154.048,151.758,134.562,122.045,108.843,103.237,92.9647,94.2427,97.4853,105.856,108.927,120.679,138.567,151.145,167.515,187.423,202.355,214.267,226.345,235.847,248.266,250.08,238.616,216.929,195.455,169.489,130.149,88.122,50.258,17.9573,7.87867,3.11267,6.32,22.64,61.3973,96.85,138.94,127.539,105.694,67.4,31.1493,8.74667,2.52667,2.532,2.53067,3.18067,4.11067,9.91533,21.2787,40.0513,65.46,90.2667,116.841,138.693,160.623,174.729,174.513,170.134,163.221,152.839,144.421,127.491,116.629,106.604,84.0687,73.2327,64.912,45.4793,32.1607,20.6633,13.2413,5.07867,4.262,4.26867,11.322,9.874,12.81,12.8707,9.99467,19.4133,19.524,28.916,41.8413,105.883,243.307,503.085,1036.46,1761.67,2500.76,3164.12,3642.75,3990.37,4175.36,4290.74,4389.39,4431.62,4468.34,4494.19,4423.46,4079.83,3060.94,1261.82,150.462,6.30267,0,0,0,0,0.745333,4.86133,11.1447,21.6207,53.57,148.045,312.607,598.971,800.075,864.27,916.981,993.681,1048.06,1105.37,1159.21,1206.83,1237.03,1254.14,1259.73,1262.08,1265.22,1268.8,1268.81,1268.84,1267.13,1264.42,1261.36,1260.74,1264.68,1262.88,1265.62,1270.1,1267.29,1263.19,1256.13,1256.49,1252.58,1254.65
251.893,356.837,474.241,564.383,632.549,679.82,684.4,679.337,623.172,586.679,616.343,628.697,617.85,608.123,619.203,617.517,614.373,590.596,567.071,532.207,502.072,467.106,425.27,394.848,365.147,349.099,323.39,299.682,283.118,276.911,257.429,246.404,237.733,258.098,258.24,263.195,295.049,342.06,384.515,402.091,430.005,480.068,507.316,554.266,579.373,575.219,582.783,584.626,576.837,580.007,617.975,618.241,638.212,668.983,671.237,690.761,681.646,666.965,652.375,623.474,615.368,617.931,621.951,598.787,568.317,536.647,524.899,515.463,526.877,554.133,558.384,589.451,609.449,640.748,677.421,663.079,701.438,730.854,740.519,751.005,738.369,730.194,712.149,697.356,695.106,652.909,594.881,540.61,452.931,364.269,281.11,202.837,130.331,64.3133,21.8607,4,2.35133,0.838,0,0,0.733333,3.89133,7.2,9.77533,42.1633,68.2647,117.195,189.58,294.703,423.787,443.578,474.782,480.949,399.84,385.938,300.101,218.411,130.089,66.336,32.748,11.866,0,0,0,0,0,0,0,3.55933,10.332,32.8187,64.1127,134.175,221.794,300.617,348.711,382.136,407.275,394.427,399.991,386.218,359.777,356.302,350.479,338.241,324.531,293.762,251.682,213.429,177.681,157.269,120.551,90.4093,74.0707,66.3373,57.3013,52.5133,57.2193,78.0027,84.7673,106.813,112.434,142.499,171.019,211.263,239.692,246.411,257.083,267.89,258.786,240.725,206.855,172.2,122.928,92.604,67.0913,48.1907,33.416,22.1607,10.7793,4.97533,2.89067,4.582,77.4267,410.949,1488.32,2723.08,3593.53,3958.17,4100.87,4176.75,4130.06,4042.29,3859.49,2649.56,4079.68,4089.69,3966.15,3744.45,3349.05,2770.11,2011.34,1181.71,576.257,197.409,69.7407,17.2667,2.632,0,0,0,0,0,1.30933,0,0,0.683333,4.74667,15.0273,30.5467,46.8667,58.2587,59.376,70.31,66.2413,60.4013,46.1887,25.1067,9.514,0.648667,0.649333,0,0,0,0,0,0,0,0,0,0,0,0,0,0.668667,0.668667,1.298,2.64533,5.314,12.7987,15.524,24.494,32.7053,34.7507,40.9787,35.902,26.8147,18.5587,11.1267,12.43,15.8207,15.7927,17.0693,23.088,27.06,33.9653,40.7987,48.114,57.156,77.2353,94.1333,117.185,141.606,159.077,172.079,182.283,189.196,197.564,216.593,232.055,240.951,243.941,231.795,234.271,221.692,183.259,142.582,96.4713,47.532,19.9907,13.2993,3.76733,3.12267,6.306,6.30267,6.3,6.304,6.27667,6.286,3.132,2.52867,3.13667,2.53267,3.94467,11.34,22.9307,50.2353,80.3013,112.873,142.9,177.911,197.799,209.261,215.601,207.509,198.163,196.977,185.283,165.493,151.84,134.209,123.756,113.797,93.3787,82.2793,67.812,50.562,32.612,22.1453,12.6267,5.15,3.64467,4.26133,2.73333,1.97933,1.244,4.03667,4.64,4.638,4.66067,1.24333,4.40333,13.958,29.748,108.935,279.757,620.929,1051.1,1563.85,2546.35,3032.35,3295.75,3444.01,3556.17,3616.52,3626.8,3032.35,2649.7,1723.59,553.814,38.0327,0,0,0,0,0,0.798667,4.05067,7.99867,35.8,90.194,176.977,261.811,389.219,650.682,809.995,852.156,912.711,998.462,1091.98,1136.96,1187.51,1226.19,1250.99,1258.43,1263.57,1265.37,1266.33,1268.47,1268.61,1270.53,1269.84,1267.44,1265.06,1264.94,1266.55,1268.74,1269.86,1270.34,1270.3,1270.56,1266.25,1259.85,1259.13,1256.97
244.701,340.971,465.465,566.279,613.537,655.252,657.832,643.615,603.932,516.571,474.506,473.108,506.89,531.904,563.549,566.568,566.159,539.307,520.957,497.204,468.663,431.985,402.243,341.709,328.068,323.44,302.433,271.184,246.373,212.501,192.82,175.013,165.151,165.17,166.585,178.303,207.739,266.013,321.449,379.889,436.304,478.629,515.236,568.996,590.225,599.439,588.877,605.071,611.385,623.481,657.416,659.151,671.877,667.243,693.064,692.915,677.144,666.405,676.976,639.134,639.03,632.188,609.849,600.153,565.606,543.516,526.649,522.211,514.611,551.185,575.587,569.217,599.054,602.946,650.188,663.661,684.101,690.529,733.037,718.579,721.875,695.661,677.039,650.373,624.269,586.285,542.841,476.337,420.737,334.513,265.779,192.127,115.711,57.1953,19.314,6.512,2.42133,1.58,0.777333,1.53133,0,3.18267,6.518,3.338,42.3207,58.7927,117.717,190.505,292.538,438.602,560.292,620.773,636.175,576.432,488.371,336.732,225.933,146.791,92.126,42.6513,11.998,0,0,0,0,0,0,0,3.55467,12.1213,30.394,67.6153,128.099,192.69,255.951,306.568,352.599,383.033,381.133,378.249,340.568,316.765,312.586,303.37,281.056,257.775,251.535,226.173,205.58,191.473,185.767,179.68,167.725,164.867,165.483,161.332,167.354,182.171,187.534,197.094,190.74,193.653,220.398,252.658,275.149,283.079,307.385,319.543,303.707,293.319,278.823,249.509,222.374,182.617,143.339,109.059,65.9973,46.702,24.8913,13.7353,7.85867,6.766,37.4247,194.871,1758.51,3118.35,3907.47,4228.01,4308.4,4329.28,4357.27,4296.96,4337.47,4312.82,4233.13,4227.33,4178.95,4100.88,3941.97,3720.84,3402.34,2879.06,2022.39,1136.38,528.419,182.023,67.7007,14.5353,2.632,0,0,0,0.680667,1.37333,2.06467,2.02933,3.42733,11.714,29.454,46.568,61.6947,75.378,76.7953,76.6613,71.8693,56.0127,37.6933,14.3167,2.73067,0,0,0.684,0.683333,0.682,0,2.054,2.054,2.04867,0.666667,0,0,0,0,0,0,0,0,3.40067,4.05867,6.14733,6.83933,7.564,10.3593,11.0653,14.3833,14.7347,10.428,8.912,9.59933,11.004,8.83,8.13267,8.87667,8.91667,8.95067,10.3513,10.3553,14.3413,16.352,18.35,25.1433,33.2007,43.7827,60.012,76.12,97.7147,113.974,141.888,190.964,243.309,284.721,299.82,303.079,299.008,277.827,256.948,192.275,115.609,52.3167,27.68,12.78,4.05867,2.696,2.02133,2.02067,1.95533,1.96133,1.96133,1.26933,1.23733,1.92733,1.93067,6.10067,15.6933,30.974,60.3887,93.8387,115.364,148.141,170.592,199.827,219.557,232.759,227.96,223.575,205.912,195.535,183.626,160.931,145.333,131.893,119.197,105.47,89.4553,78.0433,65.9147,47.8827,32.0627,22.128,12.632,5.152,4.948,3.53733,1.99933,1.24533,1.246,0.630667,0.629333,1.242,1.24267,1.23667,0.629333,8.22533,13.9367,33.072,108.335,227.133,481.385,785.911,1798.51,2291.05,2380.39,2464.97,2258.81,2048.89,1749.75,817.769,377.034,91.308,0,0,0,0,0,0,0,0.8,4.05533,7.20067,42.2053,131.048,255.753,349.793,452.805,645.105,765.516,808.843,887.667,1003.26,1099.93,1156.7,1198.6,1232.45,1251.71,1257.56,1263.78,1265.74,1268.56,1269.98,1270.32,1273.12,1274.16,1271.13,1270.64,1268.66,1270.55,1271.16,1273.01,1273.62,1274.6,1275.86,1270.75,1272.05,1270.49,1264.17
119.856,184.406,289.47,381.468,444.697,489.867,512.593,538.672,546.715,536.401,458.371,423.451,435.757,453.064,488.567,502.901,515.001,498.61,487.754,460.905,397.343,14.2693,4.078,4.07933,4.986,6.772,12.0633,24.3933,28.1507,29.8347,23.7473,18.1293,9.45,6.83467,7.704,11.1847,24.044,36.6787,66.4527,122.673,209.236,286.351,339.952,359.261,359.648,359.363,360.328,388.259,396.832,423.491,456.149,452.053,472.133,500.891,501.186,498.763,494.241,460.004,450.749,401.808,384.236,380.988,395.949,393.126,392.544,379.039,398.065,393.08,421.917,435.507,453.709,453.999,490.215,499.126,524.743,557.607,582.069,598.811,588.921,587.28,594.005,596.701,599.048,575.616,546.055,512.508,483.114,405.199,355.076,282.007,223.372,153.231,84.5993,38.2513,18.3873,6.39467,3.18333,1.534,0.774667,0.776,0,0,3.338,6.64933,35.882,58.8993,111.473,174.149,279.577,405.824,507.667,565.09,577.549,489.505,375.328,237.809,147.421,83.8,39.8273,15.086,0,0,0,0,0,0,0,0,6.3,15.6407,34.998,71.812,114.257,172.363,212.294,254.58,298.524,310.769,323.587,311.063,280.743,256.807,220.705,206.261,187.905,181.073,164.323,150.549,134.229,127.241,110.189,105.888,105.955,103.939,99.4987,105.699,106.491,110.509,128.228,122.172,122.093,130.626,153.819,176.115,195.722,186.914,180.056,186.678,194.736,191.007,171.747,151.201,134.306,111.773,80.614,63.9793,31.2033,15.5567,11.712,7.87067,4.31,17.532,75.5307,404.655,1665.13,2901.46,3588.82,3857.62,3981.3,4086.21,4063.03,4256.55,4341.98,4340.49,4305.37,4240.78,4136.09,3990.33,3803.96,3407.17,2811.69,2210.85,1610.07,1052.38,649.519,303.731,101.272,30.7387,8.47267,0,0,0,3.51867,4.21733,6.96067,15.3473,35.33,47.0527,53.0027,65.2593,65.9593,63.2907,60.4467,61.132,50.9007,29.6807,15.8773,3.46467,0,0.685333,0.686667,0.685333,0.684,0.683333,0.683333,2.05067,2.05,2.72533,0.685333,0.686667,0,0,0,0,0,0,0,0.691333,2.11,2.10867,1.41533,2.10933,3.484,6.97733,9.878,7.898,5.082,6.354,8.40333,8.356,9.734,9.04667,8.37733,8.32333,6.94667,8.3,8.24467,11.758,15.1893,15.2653,22.53,35.382,49.1627,70.7187,89.8373,117.243,139.133,173.173,227.684,260.481,302.841,309.862,300.907,301.678,295.566,280.029,241.351,161.358,96.7273,58.198,31.2447,16.2807,4.69867,3.324,1.96933,1.96933,1.974,1.97533,1.976,1.92733,1.93,2.54733,9.43533,24.688,54.9967,98.4267,133.735,181.099,212.81,256.465,285.429,297.474,294.429,289.062,271.507,256.876,227.331,212.705,180.997,161.615,140.374,118.509,105.822,90.332,72.5653,59.1913,42.5447,30.568,21.38,13.298,5.77267,3.422,3.33867,2.12467,2.59333,1.85867,1.86067,1.85867,1.85667,1.86067,1.86267,1.86533,1.86667,1.25267,1.25467,6.972,13.4127,47.942,213.823,727.348,1143.48,1321.62,1155.8,776.51,589.001,373.809,77.604,9.19267,0,0,0,0,0,0,0,0,3.202,4.06,21.5427,72.456,189.651,334.328,408.107,524.197,658.955,737.535,798.497,887.09,1009.56,1098.5,1163.69,1211.6,1241.46,1253.37,1259.48,1264.14,1267.84,1270.72,1272.37,1273.59,1275.76,1276.04,1274.66,1273.5,1274.13,1274.31,1275.06,1278.55,1279.82,1280.84,1278.89,1278.94,1275.37,1271.33,1270.18
0,0,0,0,0,1.82267,1.80733,2.758,5.57733,11.764,7.178,1.73467,0,0,0.946,0.948,3.74133,9.126,15.1027,20.436,2.79133,0,15.6827,35.41,13.394,9.80733,8.49333,3.284,14.5967,21.8227,17.3447,20.3887,31.4613,73.9307,144.507,29.9247,10.1067,4.02933,1.63667,5.012,8.42067,18.4927,15.698,8.90733,7.272,5.62533,4.734,7.23133,8.05,9.70467,12.1687,8.036,8.04533,8.81467,11.3847,19.5853,21.2493,31.1493,32.804,40.2093,57.79,76.6607,89.684,94.0367,80.5673,72.748,88.2387,109.133,108.424,124.072,121.314,128.249,164.847,191.762,229.048,271.383,312.488,320.357,337.314,331.573,327.486,342.677,339.853,348.601,325.163,289.202,273.777,225.476,194.685,154.547,119.326,81.1267,43.456,21.116,10.526,2.498,0,0,0,0,0,0,0,3.284,6.59467,16.5053,43.0307,92.29,155.323,241.372,317.021,359.379,360.308,253.413,145.241,89.932,41.4533,15.708,9.39067,6.34267,0,0,0,0,0,0,0,0,1.79667,8.14067,23.0347,48.764,80.3847,135.105,172.957,199.483,214.191,231.067,246.011,228.909,209.729,169.477,153.195,134.579,129.827,120.783,104.259,90.1927,94.3613,83.0987,77.3733,67.6147,68.35,72.5407,69.442,66.0947,76.9673,81.5573,83.8773,92.742,106.879,109.277,137.302,144.481,156.155,154.784,150.268,154.472,152.703,142.909,129.437,117.393,105.162,80.4647,68.8427,40.5367,26.706,15.3927,11.634,5.71067,2.76,9.77867,102.418,472.33,1699.88,3060.66,3776.98,4162.14,4303.1,4335.4,4421.87,4416.54,4395.48,4372.63,4340.09,4309.89,4272.61,4220.53,4153.58,4014.05,3664.09,3054.37,2068.55,1204.61,607.756,265.713,117.415,43.1027,2.64867,0,0,0,0,0,2.83133,9.12867,18.144,45.2033,61.7727,77.076,86.67,86.4947,81.5433,70.354,59.226,47.5473,31.0433,14.534,7.59533,2.75067,3.41,5.478,1.34467,2.034,4.07133,5.42267,5.38933,5.35133,4.028,1.34067,1.338,2.65267,1.98333,1.31867,0,0.666667,0.667333,2.02933,3.50133,6.97867,9.81133,16.178,26.082,33.4407,43.8347,60.49,81.334,105.232,114.133,120.924,116.843,108.336,110.469,100.695,104.987,114.846,120.129,135.041,143.133,160.85,197.793,230.758,256.922,292.983,311.645,334.731,358.898,397.024,431.511,464.269,457.1,459.378,453.418,451.404,445.441,425.01,393.047,327.853,277.664,214.955,164.991,103.383,50.896,19.9393,8.09333,2.59867,3.35933,3.37,1.99067,3.38133,4.98867,22.5787,46.3993,90.6333,137.639,186.918,241.123,287.589,331.987,366.716,395.835,403.116,400.08,379.941,354.547,327.784,289.879,250.718,219.057,192.079,159.354,137.271,110.066,93.272,71.116,56.6327,44.316,24.2147,8.06067,3.524,4.32933,1.24333,1.24333,1.24267,1.24533,1.246,4.26267,4.284,4.94667,4.35267,10.6327,11.302,27.1407,64.416,173.866,292.67,571.525,980.53,1555.87,2227.68,2463.94,2419.6,2170.98,1806.36,1245.85,798.991,276.907,34.3853,0,0,0,0,0,0,0,0,1.57133,3.99133,38.1713,120.919,294.535,408.994,509.714,596.639,711.879,777.631,827.426,908.745,1016.89,1076.57,1131.2,1173.77,1219.97,1244.47,1252.29,1262.12,1263.12,1272.87,1276.28,1277.53,1278.06,1278.26,1277.76,1275.71,1276.27,1276.56,1278.04,1278.83,1281.69,1282.67,1282.41,1279.99,1276.54,1274.38,1273.4
857.438,914.288,878.035,820.803,746.113,710.232,674.721,611.092,555.335,626.295,688.416,794.263,881.089,886.53,947.999,926.67,893.311,659.021,532.778,803.818,1125.68,1481.42,2077.2,2148.47,2192.45,2394.84,2603.19,2724.55,2810.77,2662.63,2672.64,2505.04,2549.15,2952.95,3249.26,3206.51,2988.48,2808.12,2430.02,2045.74,1379.8,703.264,422.858,176.707,46.326,12.4687,1.644,0.85,1.59467,1.59933,1.60067,1.60467,0.855333,2.352,1.59067,0.860667,0.862667,0.862667,1.71067,1.716,1.72133,1.718,1.72,1.72,1.72333,1.72733,1.736,1.74667,2.60467,3.55533,5.40133,4.54867,10.8667,19.9247,26.38,10.482,7.75733,7.81733,4.46867,6.24,5.28067,6.14867,6.13867,3.56867,1.752,2.576,3.44467,1.76667,4.28733,4.15333,5.89267,7.58667,5.89867,3.292,1.65467,0,0,0,0,0,0,3.23267,9.774,26.122,52.4133,131.081,232.804,401.111,604.461,800.289,1005.75,1157.35,1223.83,1106.86,880.455,620.681,366.844,192.71,100.774,30.6913,9.27667,3.18267,0,0,0,0,0,0,0.902,1.79067,4.44667,15.254,35.036,60.7067,79.4653,96.762,110.985,111.459,110.868,109.839,88.128,68.9733,55.338,46.3967,38.9727,37.0573,33.824,30.6767,29.452,31.1907,27.3833,26.152,26.72,28.438,24.6307,23.85,33.668,37.882,45.294,51.914,52.1347,55.67,59.412,72.2113,69.1187,65.6047,61.502,61.606,64.5967,61.3867,57.694,52.07,42.168,33.2887,21.7313,12.66,6.45867,5.80067,2.11,5.104,21.7207,154.733,538.997,1273.03,2811.68,3862.75,4245.62,4471.82,4540.11,4558.8,4540.25,4500.86,4461.06,4437.52,4412.57,4376.03,4348.4,4305.16,4241.65,4085.23,3698.6,2940.69,1840.43,964.238,480.499,233.599,74.5733,28.704,2.95333,0,0,0,0,0,0.72,2.116,7.66333,13.9787,20.8253,31.8793,39.57,44.3693,42.2533,37.2647,26.8887,17.1853,9.69133,6.9,2.05867,1.37067,1.36667,2.70733,2.70333,3.39267,2.718,4.042,4.038,2.034,4.03467,3.35933,3.32667,2.022,2.01533,0,0,0,0.688,0.69,0.691333,0.692,3.52267,9.76,17.6093,30.238,56.2107,77.7673,108.409,141.109,168.349,194.872,210.755,214.838,223.655,243.879,250.301,258.795,272.437,293.169,305.791,332.669,363.272,384.771,408.188,440.013,454.056,463.07,473.962,502.699,522.604,526.84,542.658,537.27,541.939,523.689,510.358,478.517,445.951,389.035,342.117,269.011,218.656,172.469,113.303,68.8913,38.2633,18.1007,13.4353,11.9193,14.4793,24.6393,41.8147,73.6287,115.494,156.284,201.705,247.847,296.159,345.539,389.035,417.137,423.75,423.232,412.817,386.016,341.615,284.371,239.095,186.08,152.929,102.813,69.562,49.4087,31.154,20.106,11.9373,3.11667,6.944,67.784,187.348,322.447,431.447,536.934,601.881,718.545,832.416,915.065,1040.53,1222.12,1530.25,2021.1,2622.41,3237.68,3838.05,4325.82,4529.85,4625.7,4656.32,4672.28,4667.41,4658.63,4651.16,4652.15,4641.94,4630.18,4594.12,4537.47,4289.91,3516.73,2172.98,1007.75,299.59,43.1287,0,0,0,1.62467,2.45867,2.46867,2.472,2.48067,2.488,14.7393,105.644,454.099,897.454,1008.34,1056.6,1086.29,1166.17,1213.98,1231.74,1247.24,1258.07,1267.66,1270.52,1273.58,1275.52,1277.59,1278.54,1279.1,1279.64,1279.87,1279.38,1278.17,1278.63,1279.04,1279.72,1281.15,1283.88,1284.73,1284.43,1283.69,1281.99,1276.69,1277.54
1001.78,994.23,951.179,896.429,736.437,612.419,563.319,494.211,419.139,424.449,487.533,647.956,843.244,976.698,1098.61,1109.69,1011.06,773.112,1016.27,1154.48,1220.71,1332.63,1597.56,1697.04,2167.9,2315.37,2501.88,2559.21,2635.43,2579.48,2474.94,2324.28,3265.45,3632.88,3708.19,3639.63,3448.34,2859.76,2189.95,1314.17,719.45,328.415,138.249,60.234,26.822,14.954,7.64333,3.626,1.58667,1.592,1.592,0.855333,0.855333,0.857333,0.857333,0.860667,3.546,3.52867,3.53,3.51267,3.51467,3.51667,0.868,0.87,0.87,0.87,0.871333,0.873333,0.875333,0.880667,0.884667,0,5.87867,16.1693,29.1053,49.034,75.2153,99.1547,106.763,128.474,140.105,155.261,145.413,130.519,130.857,120.905,109.565,95.616,74.5907,58.444,33.292,17.4247,8.162,2.446,1.62933,0,0,0,0,0,0,0,0,0,0,0,0,0,0,0,0,0,0,0,0,0,0,0,0,0,0,0,0,0,0,0,0,0,0,0.888667,0.882667,7.09133,17.5313,33.102,40.148,64.6747,80.2913,102.799,113.753,109.972,100.136,86.6147,69.932,62.524,52.098,39.6807,36.9253,35.0473,32.824,32.8367,29.752,28.4393,26.6927,26.8167,29.8707,29.9453,26.9047,32.2547,38.3813,47.4433,48.032,49.6347,54.2733,61.5167,63.6867,64.18,61.404,56.774,56.4593,58.68,50.44,42.8267,35.9967,26.9353,16.2887,7.99467,5.81667,1.36667,0.718667,0,42.2,277.019,913.074,2105.9,3576.86,4346.55,4576.5,4634.65,4644.59,4623.88,4592.26,4558.49,4527.11,4502.34,4474.37,4447.38,4415.6,4386.07,4360.35,4301.16,4089.08,3560.77,2563.41,1452.29,683.642,301.738,174.936,111.071,55.772,17.082,0,0,0,0,0,0.718,2.81267,4.168,10.4827,14.6,23.6033,26.39,25.6313,18.6507,13.7947,7.57733,4.148,1.37533,0.69,1.362,1.35733,1.35667,1.356,1.35533,1.35533,1.354,2.04067,2.042,1.35867,1.35867,1.356,0,0,0,0,0,0,0,0.691333,0.692,1.40333,2.09,6.22333,13.158,23.844,41.4447,61.8033,82.1067,112.559,138.955,161.901,180.605,199.385,219.346,236.821,256.327,268.547,292.668,309.581,333.839,368.26,391.013,411.356,439.567,454.116,484.737,495.715,522.714,544.425,559.877,564.849,561.123,550.38,542.655,526.523,507.772,466.097,406.084,355.227,296.625,242.159,192.1,133.699,94.3427,61.9587,46.6953,32.1393,30.852,33.3613,54.7013,72.9813,97.1947,126.797,169.906,217.875,272.993,313.555,350.555,379.55,408.525,397.687,372.992,343.403,315.688,287.921,227.945,180.603,138.539,106.293,74.882,51.0073,36.0927,22.9913,14.932,8.28867,23.7407,144.432,358.809,548.746,701.831,847.531,888.623,952.104,974.711,1030.64,1085.54,1201.54,1419,1806.26,2421.5,3102.47,3753.41,4319.07,4539.07,4670.74,4694.98,4699.32,4699,4687.84,4676.7,4667.49,4660.9,4649.7,4637.27,4613.35,4536.27,4312.46,3777.01,2678.53,1395.33,376.733,37.204,0,0,0,0.824667,1.65533,1.66067,2.48333,2.49133,2.50333,2.50467,30.5507,258.525,769.898,1003.94,1017.2,1009.97,1140.23,1227.37,1249.94,1256.34,1264.55,1270.02,1272.93,1275.26,1277.19,1278.45,1279.55,1280.23,1280.79,1281.04,1280.56,1281.9,1280.57,1281.75,1282.46,1282.83,1284.34,1285.08,1285.43,1284.74,1283.91,1277.84,1279.74
1781.81,1792.21,1725.93,1648.72,1517.09,1326.11,1188.36,1112.27,1072.17,1080.28,1117.28,1283.91,1401.32,1620.14,1643.92,1611.05,1619.81,2149.05,2385.37,2284.77,2298.22,2453.67,2850.94,2637.86,3068.31,3423.11,3540.29,3426.5,3660.11,3619.94,2917.8,2170.84,2743.32,4173.99,4090.65,3927.56,3889.2,3843.45,3750.35,3391.86,2677.51,1457.91,673.294,255.994,129.038,71.5827,26.0327,14.112,11.176,5.46,5.178,5.16067,1.57067,1.572,2.328,0.803333,0.797333,1.55267,1.54533,1.53933,1.536,1.62733,1.62733,0.87,0.87,0,0,0,0.798667,0.802,0.804667,0.81,0.81,0.812667,0.814667,0.816,1.65933,0.816,0.812667,0.81,0.806667,0.803333,0.798667,0.794,2.338,2.32667,2.31067,2.30067,1.54733,1.54333,0,0,0,0,0,0,0,0,0,0,0,0,0,0,0,0,0,0,0,0,0,0,0,0,0,0,0,0,0,0,0,0,0,0,0,0,0,0,0,0,0,0,0,0.857333,0,0.836,0.828,0.819333,0.814667,0.81,2.394,3.132,2.33933,1.568,2.29933,3.69,5.22533,6.01133,5.21533,4.44067,3.584,2.86267,2.82067,2.12133,4.20467,4.31867,2.15067,2.11333,3.63733,2.84267,9.59,5.88733,11.1353,10.366,15.006,17.2013,10.3393,9.57867,11.184,10.3753,8.836,12.5427,8.07933,7.15667,4.306,2.79667,1.38267,0,10.4713,38.084,105.401,378.467,1128.08,2214.81,3609.92,4550.78,4676.84,4716.39,4700.5,4673.16,4630.55,4598.9,4570.95,4550.09,4528.63,4503.26,4482.04,4460.18,4446.29,4426.65,4294.4,3929.37,3053.1,1983.57,1100.38,612.422,417.41,323.526,193.271,69.5713,9.38267,0,0,0,0,0,0.686667,2.80933,4.19267,9.10667,13.2647,17.34,13.828,8.23933,1.38933,2.084,0.693333,0.691333,0.691333,0.672,1.35733,1.35667,1.35467,1.354,0.670667,0.670667,0.67,0.67,0.67,0.67,0,0,0,0,0,0,0,0,0,0,0,0.693333,1.412,4.12467,9.06133,17.4567,30.1093,41.9467,60.048,78.9953,103.307,116.516,136.021,153.257,179.029,203.973,220.876,236.003,247.355,264.863,301.852,322.625,352.352,378.58,395.569,420.986,434.719,457.115,484.643,503.011,503.542,502.309,510.899,504.863,475.645,453.251,431.079,385.252,330.848,275.532,229.483,178.552,131.787,99.012,74.04,60.2947,50.8667,49.734,57.8247,70.3333,100.885,133.039,159.486,198.571,237.923,295.729,325.928,382.944,379.537,415.103,406.723,372.009,331.943,305.515,254.789,203.047,154.738,112.551,80.9327,57.4293,45.1313,30.282,16.9253,20.9707,32.9313,164.357,510.159,858.706,1058.21,1283.2,1482.97,1568.84,1648.01,1738.8,1915.36,2042.14,2100.35,2227.44,2490.73,3005.45,3580.44,4085.1,4441.75,4642.04,4710.51,4723.37,4720.2,4712,4703.09,4688.43,4681.47,4678.71,4668.09,4659.03,4633.44,4579.35,4335.5,3806.03,2697.3,1318.23,323.881,34.4593,0,0,0,0.804667,1.63933,1.65267,1.65733,1.662,1.66867,4.016,53.502,356.068,864.737,1022.2,989.017,995.953,1135.99,1210.73,1240.96,1253.74,1264.42,1269.64,1273.28,1274.65,1277.3,1278.5,1279.78,1280.71,1281.32,1281.47,1281.06,1279.82,1280.25,1280.65,1281.28,1281.39,1282.61,1283.16,1283.36,1284.17,1284.25,1282.41,1282.14
2400.73,2309.07,2163.82,1995.83,1844.1,1682.18,1568.43,1487.31,1490.58,1557.7,1594.92,1696.74,1855.26,1961.2,2039.69,2185.33,2516.37,2686.5,2807.61,2910.68,2850.67,3088.5,3240.59,3226.16,3250.31,3486.82,3652.87,3766.55,3894.35,3883.57,3631.49,3205.85,3570.04,4124.43,3977.04,3959.21,4025.23,4006.62,3924.59,3815.91,3686.78,3436.61,2896.65,2159.14,1213.97,592.56,285.873,179.656,83.4027,27.574,11.0393,4.79267,1.56,0.768667,3.638,0,0.762,0.76,4.124,4.14867,3.45,3.47933,12.1213,3.01867,3.04133,0,0,0,0,0,0.795333,0.798667,0.8,0.802,0.803333,0.806667,0.806667,0.808,0.81,0.806667,0.804667,0.803333,0.8,0.795333,1.59467,1.582,1.56867,1.55667,0.782,0.780667,0,0,0,0,0,0,0,0,0,0,0,0,0,0,0,0,0,0,0,0,0,0,0,0,0,0,0,0,0,0,0,0,3.36533,6.548,6.6,0,0,0,0,3.39267,3.39267,6.78533,20.022,60.6353,145.01,260.301,353.45,417.046,504.667,634.559,860.181,891.244,607.6,297.292,182.98,103.047,31.4573,1.412,1.40933,2.08867,2.08467,2.08267,2.08067,2.08133,2.08333,2.252,2.25067,0.699333,2.22667,1.506,0.794,0,0.722667,1.50867,2.24,2.99733,1.45867,1.50867,2.23667,2.24,1.50267,2.224,1.42267,1.422,1.41733,1.418,12.3727,45.9327,246.178,515.271,995.945,2086.49,3271.74,4251.52,4926.47,4879.62,4835.82,4799.21,4749.07,4710.81,4657.03,4624.79,4601.98,4585.67,4569.04,4548.32,4533.48,4524.93,4515.97,4514.53,4453.04,4061.96,3168.65,1943.46,985.76,595.716,438.567,344.59,230.724,79.5253,6.04933,0,0,0,0,0,0,1.40333,2.10667,4.18733,6.3,6.29333,5.56067,3.50267,2.808,2.08267,0.692,0.691333,4.084,4.84,1.35733,1.35667,1.354,0.668667,0.67,0.67,0.668667,0.668667,0.667333,0.667333,0,0,0,0,0,0,0,0,0,0,0,0.72,1.41067,2.11667,7.71267,16.75,27.9553,36.998,54.452,69.73,94.1353,105.343,125.393,139.932,167.162,189.744,206.088,218.935,227.303,241.624,267.543,288.725,312.155,334.774,351.042,375.31,394.302,410.339,429.299,445.658,455.277,451.698,449.114,442.467,435.134,414.281,377.859,321.379,267.533,226.062,191.183,149.813,105.081,84.8047,66.2107,59.0507,47.3987,51.4153,56.9953,77.12,90.624,121.879,128.567,160.414,171.291,191.479,224.904,208.781,206.84,182.032,144.575,107.773,66.0393,34.8813,17.3513,7.62067,4.03333,4.76,1.86933,1.872,1.874,1.87267,1.87133,57.7173,257.456,551.065,842.468,1115.25,1342.73,1591.75,1828.08,1988.93,2148.39,2308.87,2474.51,2716.16,3067.92,3363.18,3749.42,4141.26,4425.72,4613.43,4691.24,4724.02,4747.05,4746.93,4742.54,4732.41,4720.48,4707.58,4700.74,4697.84,4689.77,4669.78,4646.32,4589.91,4342.79,3691.25,2444.74,1121.8,274.912,31.446,0,0,0,0,0,0,0,0,2.49533,2.502,2.50667,94.7767,646.115,1038.56,1076.93,1087.13,1169.06,1226.38,1251.34,1258.08,1266.84,1271.04,1273.6,1275.7,1276.58,1278.41,1279.95,1281.1,1281.8,1281.9,1281.49,1280.26,1280.61,1280.9,1281.48,1282.12,1282.08,1282.27,1283.28,1283.17,1283.03,1282.21,1279.58
2351.28,2143.66,2020.12,1874.05,1792.24,1619.24,1392.38,1278.98,1301.68,1312.38,1413.53,1587.18,1652.02,1664.87,1753.67,2351.96,2610.63,2708.51,2765.1,2663.95,2510.76,2710.26,3061.58,2865.67,2763.7,2814.39,3366.8,3679.7,3715.76,3789.95,3648.4,3336.94,3801.33,4304.28,4186.36,4114.19,4088.97,4018.17,3892.2,3755.79,3443.68,2911.2,2124.16,1340.34,628.219,276.298,149.441,117.714,106.629,63.7607,33.39,35.538,23.5473,20.232,23.186,20.2333,25.5887,44.116,52.6853,95.94,110.997,114.895,69.7793,35.394,20.6253,5.746,8.678,0,0,0,0,0,3.23267,0,0,0.784667,0.784667,0.784667,0.784667,0.786667,0.784667,0.784667,0,0,0,0,0,0,0,0,0,0,0,0,0,0,3.284,3.258,3.23267,6.29667,6.27133,0,0,0,0,0,0,0,0,0,0,0,0,0,0,0,9.85467,19.4787,31.7387,38.002,69.978,159.297,222.301,224.156,121.116,51.5447,12.904,12.966,16.274,13.1453,6.596,13.0613,46.802,63.3833,92.364,121.873,138.689,170.723,147.285,157.333,183.79,212.905,119.389,62.412,14.088,4.75667,2.118,2.10333,2.09667,2.092,2.09,2.08533,2.08133,2.08,2.14533,2.182,2.18333,1.412,2.17333,2.19733,1.452,1.48,1.476,2.93533,2.23867,2.948,2.93333,2.93067,2.20267,1.42667,2.15267,1.43533,1.42933,1.42667,1.42533,0.682,0,0,0,0,0,0,0,109.477,4918.93,4928.63,4886.16,4842.02,4787.31,4741.77,4680.43,4650.66,4632.74,4622.15,4610.27,4593.4,4575.61,4570.3,4569.38,4581.29,4603.9,4624.35,4613.14,4640.46,4475.47,4222.41,3872.65,3116.03,1888.15,680.265,232.829,26.652,9.74933,3.284,0,0,0,0,0,0.686667,0,0,3.47933,10.6213,27.908,34.1847,55.4413,69.1693,66.0473,45.3707,31.6267,21.0613,17.0033,3.31067,0.665333,0.665333,0.664,0.664,0,0,0,0,0,0,0,0,0,0,0,0,0,0,0,1.40867,2.75267,7.71267,13.2593,16.748,29.018,35.9073,51.8307,63.1193,74.2333,93.6113,118.791,146.458,167.478,184.995,198.289,220.382,240.97,256.929,270.351,290.402,299.035,312.825,334.429,355.705,369.148,380.525,399.633,397.39,393.087,390.56,380.731,366.286,338.219,297.623,249.644,195.649,173.619,145.594,97.5787,77.958,60.7407,56.276,46.0713,46.352,55.7927,71.4953,99.828,120.033,149.5,189.183,213.948,251.041,290.677,318.179,341.207,345.867,345.647,334.112,314.327,275.733,239.71,189.491,150.165,96.306,58.3393,40.4867,17.2167,10.8793,32.7427,185.803,509.107,903.823,1177.65,1357.31,1542.52,1666.36,1726.69,1673.28,1419.51,1344.45,1289.47,1287.49,1400.68,1603.5,2070.5,2503.76,3205.98,3865.73,4394.73,4590.62,4689,4740.67,4754.67,4752.93,4752.71,4737.42,4718.34,4689.91,4546.7,3909.4,3278.71,2915.97,2725.31,2371.58,1693.48,771.174,167.273,19.0327,0,0,0,0,0,0,1.60533,15.46,78.36,238.145,542.819,944.789,1135.37,1157.91,1136.22,1139.24,1224.06,1243.48,1250.78,1260.61,1267.41,1270.55,1273.77,1275.61,1278.01,1278.91,1280.45,1281.78,1282.45,1282.5,1282.8,1280.55,1280.83,1281,1281.42,1280.92,1283.03,1283.04,1283.03,1282.8,1282.71,1282.8,1282.01
2550.02,2322.04,2102.89,1968.03,1831.39,1774.54,1651.7,1518.23,1404.61,1416.62,1559.26,1641.75,1619.25,1618.55,2219.39,2427.87,2668.65,2743.4,2765.06,2741.42,2654.75,2834.01,3074.79,2869.09,2817.69,2783.72,2961.45,3468.58,3946.9,3956.55,3919.24,3762.86,3922.54,4221.02,3923.6,3993.68,4135.99,4203.93,4195.86,4169.02,4131.99,4065.78,3876.55,3424.54,2771.01,2168.9,1492.77,1071.03,668.627,306.409,225.293,221.884,226.186,160.713,123.969,178.835,237.187,422.939,743.868,862.969,749.752,491.069,282.327,125.327,25.4067,12.534,3.04133,0,0,6.70533,30.5193,67.6193,98.364,119.296,57.474,4.04267,0.784667,0.784667,0,0,0,0,0,0,0,0,0,0,0,0,0,0,0,0,0,0,3.42133,3.36533,6.52067,13.0373,0,0,3.23267,6.39067,6.44067,6.46667,6.49133,9.60467,9.632,6.54533,3.338,0,16.6253,33.3027,46.718,76.8793,123.13,185.561,233.655,262.716,272.543,300.224,311.834,287.101,218.692,153.197,176.216,184.067,172.641,180.832,260.731,274.947,409.695,449.774,378.575,260.044,249.13,216.713,172.655,136.542,116.973,115.695,136.379,94.118,74.2427,21.244,8.254,2.10133,2.09533,1.41133,2.08733,2.084,1.406,0.694667,1.40733,1.40733,1.40867,1.41,1.41733,0.72,0,0.734667,0,0,0,0,0,0,0,8.12933,20.5833,40.7547,48.5387,101.121,236.366,370.898,580.421,757.563,891.407,973.669,1550.77,2026.38,2875.98,5154.28,5053.07,4979.3,4931.66,4881.34,4823.97,4772.25,4705.19,4679.94,4668.55,4663.45,4656.07,4642.49,4623.34,4629.07,4633.33,4641.95,4671.87,4701.63,4750.22,4789.54,4848.83,4870.94,4922,4889.25,4119.87,3686.57,2562.78,1252.06,467.55,54.4327,33.0707,11.2807,3.66533,0,0,0,0,0,0,0,0,0,0,0,0,0,0.67,0.667333,0.666667,0.666667,0.665333,0,0,0,0,0,0,0,0,0,0,0,0,0,0,0,0,0,0.688667,1.392,5.54267,13.1967,23.6813,32.7113,50.14,58.488,79.076,86.8513,99.5453,115.003,131.08,147.546,164.565,174.579,185.645,192.001,218.111,232.207,252.737,263.657,275.569,297.061,309.577,332.45,357.041,362.955,384.265,381.533,378.113,365.223,359.359,342.236,311.556,265.82,220.007,181.693,149.822,116.528,88.4373,68.4647,58.316,55.9233,45.588,44.3513,56.0333,71.988,94.1093,108.731,133.325,172.165,206.999,228.447,256.441,277.733,297.653,297.511,294.245,284.128,266.471,242.143,200.389,150.073,105.882,62.8667,34.4987,15.1793,9.06733,3.792,41.2813,240.435,557.816,716.258,814.161,945.324,1015.28,1036.38,1023.86,864.055,658.751,519.983,537.259,590.064,688.115,882.709,1267.43,1824.38,2664.8,3586.1,4077.74,4409.96,4584.5,4653.88,4723.75,4752.63,4762.06,4731.88,4627.43,4198.69,3272.62,2167.47,1592.33,1503.32,1276.93,969.13,482.815,156.333,25.45,0,0,0,0,0,0,0,0.804667,17.1393,125.852,399.546,760.463,981.635,1101.88,1132.3,1129.74,1117.16,1202,1229.87,1239.68,1252.04,1262.61,1263.73,1268.44,1269.17,1273.01,1274.66,1276.19,1277.5,1278.12,1278.96,1282.61,1282.86,1280.45,1280.47,1280.82,1280.03,1281.06,1281.72,1281.63,1281.43,1281.26,1281.33,1281.5
3170.59,2928.19,2606.55,2356.28,2256.64,2215.5,2149.22,2061.9,1995.55,2019.77,1980.2,1932.71,1966.99,2399.23,2492.49,2599.83,2777.23,2859.44,2943.84,3047.65,3106.03,3258.89,3390.01,3341.43,3339.58,3423.14,3605.11,3829.81,4125.67,4528.18,4563.76,4431.8,4700.25,4741.18,4117.9,4122.37,4243.34,4320.69,4350.27,4358.23,4358.08,4396.83,4430.65,4441.1,4478.63,4502.1,4513.27,4518.57,4494.69,4355.96,4344.9,4463.63,4494.46,4513.86,4486.42,4443.96,4525.87,4618.06,4650.56,4658.52,4569.16,4440.39,4185.81,3683.76,3248.28,2614.39,2177.9,2151.35,2291.63,2592.21,2759.31,2841.64,2856.04,2825.85,2722.65,2562.12,2362.31,2075.29,1887.18,1624.84,1323.5,1032.67,715.855,424.212,236.363,239.114,269.561,366.995,726.807,1253.5,1556.29,1884.08,2073.77,2038.51,2002.61,1954.19,2247.9,2624.42,3111.78,3207.28,3253.83,3396.59,3374.68,3938.42,4177.44,4275.18,4262.93,4029.59,4015.35,4107.85,4285.67,4405.93,4550.35,4699.59,4765.84,4834.92,4852.7,4843.57,4834.95,4820.83,4779.85,4784.25,4766.34,4694.93,4640.4,4718.03,4814.98,4882.41,4953.64,5006.26,5034.56,5032.72,5006.91,4965.06,4966.26,4923.99,4879.75,4879.38,4838.55,4797.66,4760.34,4683.9,4650.51,4488.55,4322.26,4100.11,3702.84,3224.09,2636.76,1894.89,1181.19,401.951,81.0167,26.452,5.686,5.268,4.59733,0.702,0.704,1.42667,0.724,8.08933,20.248,45.346,147.582,707.069,1698.01,2445.24,2880.9,3519.53,4077.44,4452.89,4832.95,5130.45,5311.35,5514.86,5609.78,5708.3,5726.79,5676.71,5602.17,5574.22,5415.38,5270.84,5125.67,5023.06,4971.15,4916.26,4855.94,4800.12,4728.34,4708.72,4702.21,4703.08,4694.63,4686.99,4661.04,4635.27,4593.1,4563.98,4553.64,4603.01,4675.76,4711.85,4673.65,4645.77,4595.02,4519.34,4458.85,4302.19,4397.45,4394.27,3788.67,2719.27,2044.95,871.54,748.543,590.921,425.468,344.896,173.257,150.614,87.148,67.37,67.8,79.168,21.488,14.646,14.7147,0,0,0,0,0,0,0,0,0,0,0,0,0,0,0,0,0,0,0,0,0,0,0,0,0,0,0,0,0.744,1.46267,0.74,0.728,1.468,0.734667,2.16667,2.86933,4.258,3.55933,4.26267,7.83667,15.372,25.2613,26.89,36.8993,46.2787,48.6087,56.9747,57.0907,54.4347,48.6033,139.838,175.585,175.452,159.375,144.925,115.462,93.7713,55.07,29.5873,16.788,12.492,14.6413,16.2527,14.984,14.4247,15.138,23.8327,28.546,30.8773,38.8807,47.6367,64.6393,82.5227,101.941,116.285,140.739,155.761,171.739,188.932,199.771,202.319,194.361,184.763,162.077,137.342,102.779,64.6947,35.4867,17.396,9.88133,4.61267,0,9.934,70.9233,206.987,313.556,353.892,425.366,496.263,481.018,529.751,489.741,459.179,374.717,315.034,287.477,297.248,362.756,542.573,954.467,1609.49,2499.01,3206.39,3759.32,4200.28,4493.02,4659.44,4704.11,4753.6,4681.18,4341.5,3672.34,2322.03,1406.02,1027.13,974.57,727.565,412.791,214.959,88.5253,18.8507,3.18267,0,0,0,0,0,0,0.831333,0.831333,3.28133,22.9467,182.012,565.161,918.639,1077.47,1143.46,1138.26,1130.76,1199.13,1234.25,1247.52,1252.29,1264.55,1267.14,1268.32,1269.9,1273.64,1275.08,1277.41,1278.59,1280.67,1283.02,1282.98,1283.04,1280.38,1280.18,1280.28,1279.28,1280.06,1280.59,1280.44,1280.13,1279.98,1280.11,1279.39
3220.98,3004.48,2609.96,2330.22,2169.56,2178.09,2154.2,2154.42,2139.94,2009.7,1729.11,1621.95,2533.3,2619.23,2646.63,2674.92,2716.7,2697.13,2638.44,2838.86,3019.39,3220.77,3306.73,3310.74,3379.91,3486.2,3634.32,3759.09,3837.86,4074.69,4362.31,4386.95,4697.62,4786.29,4193.24,4307.92,4324.02,4381.56,4395.34,4383.17,4394.56,4423.92,4452.46,4474.3,4504.05,4526.27,4556.36,4573.29,4569.54,4523.88,4529.22,4584.41,4603.67,4673.9,4679.74,4697.31,4725.77,4763.97,4790.28,4787.48,4730.38,4668.31,4599.52,4393.77,4064.3,3875.53,3718.44,3648.69,3692.25,3768.28,3825.33,3766.05,3677.13,3608.08,3504.79,3411.88,3355.88,3236.27,3119.16,2987.81,2740.64,2572.31,2403.19,2269.54,1738.44,1623.62,2003.63,2187.26,2395.89,2726.72,2873.53,2957.31,3050.41,2936.45,2896.55,2992.41,3349.46,3718.88,3937.79,4056.98,4233.16,4280.88,4350.09,4405.47,4433.51,4427.68,4457.01,4445.18,4417.45,4437.25,4518.18,4583.34,4622.94,4698,4756.63,4801.94,4809.19,4816.38,4806.96,4792.28,4776.49,4772.66,4771.09,4748.21,4682.53,4752.34,4823.85,4884.8,4955.7,4999.71,5022.8,5031.04,5029.69,5013.86,5006.95,5004.89,4991.61,4968.98,4952.05,4943.51,4944.39,4921.87,4857.2,4772.97,4693.42,4506.41,4268.55,4017.97,3597.91,3036.76,2161.34,1189.86,533.695,540.109,370.594,119.493,69.8833,40.722,14.7047,53.484,160.964,422.505,824.36,1235.04,1733.3,2224.26,2604.67,3084.69,3611.99,4047.21,4545.75,4902.34,5166.64,5355.27,5522.98,5627.34,5726.04,5752.41,5738.29,5687.54,5648,5616.1,5456.33,5313.27,5164.43,5060.03,5006.38,4946.92,4883.64,4824.78,4749.89,4735.57,4734.48,4743.39,4749.72,4741.76,4747.1,4740.7,4723.6,4704.88,4733.98,4816.78,4888.89,4945.43,4990.17,5040.46,5080.38,5126.81,5213.68,5258.67,5393.85,5512.23,5574.46,5614.27,5658.42,5684.69,5725.91,5743,5709.12,5630.31,5446.53,5211.35,4933.34,4628.35,4438.22,3764.69,2972.36,2775.63,3742.22,3934.71,3689.78,3084.11,2251.45,2058.11,2145.7,1737.49,1287.19,1035.67,903.663,928.31,1068.24,1523.85,1557.49,2186.5,2317.09,2120.4,1430.78,1368.17,1901.78,2409.25,2279.21,924.762,1317.87,1245.03,1002.58,749.688,733.929,904.89,798.026,761.726,957.795,1061.16,947.447,445.851,391.463,306.575,279.387,192.371,250.199,518.132,950.349,1431.4,2100.09,2856.59,3062.71,3382.31,3434.7,3219.37,2731.87,1971.47,1573.13,1399.43,1361.39,1353.1,1148.18,1079.48,1072.45,1025.28,877.7,605.343,209.905,46.8627,10.742,3.63333,3.63333,0,0,0,2.33933,10.04,14.77,23.83,44.7233,46.6807,56.444,59.2533,61.4647,66.784,68.4793,61.3447,64.1787,52.756,43.002,34.682,23.406,11.3807,4.57,8.70133,103.535,489.618,1473.32,2916.35,3793.41,4134.78,4277.29,4302.4,4301.4,4290.98,4222.8,4188.58,4147.27,4127.4,4018.8,3930.83,3855.33,3780.87,3898.94,4138.09,4424.1,4731.62,4843.66,4879.2,4886.46,4894.81,4909.11,4916.41,4916.76,4911.96,4916.87,4903.15,4840.46,4789.47,4761.29,4777.01,4759.78,4712.93,4536.22,4089.14,3109.45,1723.15,507.169,85.7953,6.654,0,0,0,0,0,0,1.634,9.06867,72.7187,338.489,774.109,979.89,1050.46,1054.82,1058.71,1162.64,1222.6,1248.03,1255.21,1265.78,1273.41,1277.04,1278.48,1280.42,1280.66,1281.83,1283.55,1283.53,1284.62,1284.13,1283.72,1280.64,1280.03,1279.83,1278.64,1280.02,1279.55,1279.4,1279.05,1278.86,1278.97,1279.21
3015.55,2788.91,2476.61,2077.45,1908.5,1631.53,1664.3,1854.08,1783.27,1462.98,1136.37,2367.09,2764.45,2791.78,2626.78,2299.66,2216.83,2001.86,1807.29,2135.8,2347.39,2929.02,3263.86,3257.25,3267.28,3329.16,3456.12,3531.92,3601.05,3764.7,3777.73,4236.41,4675.72,4811.64,4439.34,4519.65,4485.94,4454.99,4448.02,4428.49,4446.23,4456.61,4481.2,4493.13,4512.14,4528.9,4544.62,4562.05,4568.23,4539.87,4472.92,4507.06,4496.87,4551.2,4627.27,4658.5,4711.7,4744.54,4739.55,4751.78,4713.38,4649.27,4536.15,4234.83,4014.11,3932.52,3863.58,3819.25,3931.7,4068.43,4066.89,3970.63,3956.17,4024.15,3909.64,3867.37,3830.1,3784.48,3579.2,3341.8,3038.84,2798.44,2739.77,2730.16,2626.13,2483.81,2465.74,2830.74,3087.31,3226.59,3346.29,3366.87,3235.72,3062.68,2867.16,2938.76,3680.77,3931.97,4107.29,4276.86,4376.66,4391.34,4412.66,4421.87,4383.5,4332.48,4311.19,4371.17,4411.64,4376.83,4379.72,4452.68,4526.8,4593.08,4676.43,4755.07,4773.72,4784.49,4774.24,4755.49,4738.96,4740.72,4746.58,4728.6,4707.18,4711.36,4788.11,4851.3,4915.92,4973.97,4993.88,5003.8,5014.45,5017.13,5007.07,5008.55,5009.81,4996.26,4997.92,5014.8,5031.82,5009.94,4932.33,4830.76,4725.76,4677.68,4426.4,4038.18,3616.12,2703.83,1741.91,1001.85,952.942,1004.72,689.227,338.269,358.687,168.004,75.4453,45.338,277.765,865.676,1430.35,1878.86,2272.79,2684.07,3172.1,3643.51,4054.44,4436.95,4768.79,5017.78,5254.09,5440.39,5541.95,5646.65,5719.37,5743.8,5731.89,5708.09,5672.48,5663.01,5495.56,5350.85,5200.5,5089.66,5030.78,4968.89,4901.25,4837.65,4759.4,4748.63,4753.53,4770.77,4783.31,4782.06,4811.24,4761.57,4776.78,4683.29,4717.14,4799.45,4868.78,4919.17,4993.33,5017.58,5039.9,5072.37,5131.44,5214.28,5343.08,5454.09,5538.36,5674.85,5753.49,5833.28,5869.53,5890.21,5890.39,5892.97,5887.25,5880.6,5871.65,5875.61,5857.51,5815.76,5811.07,5822.11,5860.43,5886.55,5896.77,5915.73,5954.3,5996.58,6034.09,6078.88,6102.15,6117.02,6131.46,6143.02,6141.95,6137.05,6131.09,6128.56,6137.23,6142.85,6160.21,6189.64,6209.12,6228.53,6238.12,6244.04,6227.31,6185.62,6150.73,6106.38,6045.87,5995.22,5897.72,5781.4,5786.47,5821.13,5799.34,5784.51,5381.53,5577.37,4964.75,4362.75,3936.69,2167.18,2232.06,3489.22,4545.84,4705.46,3879.67,3921.68,3925.63,4938.82,4836.06,4557.8,4193.81,3892.79,4119.48,4874.13,4447.91,3947.18,3660.84,3474.47,2849.45,1573.62,443.299,91.2507,40.232,30.1813,11.956,0,0,0,0.8,0.8,0.798667,5.24133,20.3407,15.8127,34.782,38.7953,39.3893,39.712,43.5153,46.7433,66.5333,66.2773,69.4927,68.8193,22.4347,40.8713,40.936,55.4007,189.163,943.228,2853.28,3743.24,3700.54,3629.21,3815.3,4204.94,4989.9,5004.5,4985.11,4958.15,4934.25,4939.35,4911.12,4893.9,4819.53,4797.46,4797.6,4894.59,4966.04,5007.9,5013.01,5012.81,5008.71,5011.53,5014.24,5017.15,5019.95,5020.09,5027.32,5005.54,4986.69,5001.24,5022.75,5046.48,5070.22,5072.73,4919.77,4365.56,3018.14,1327.28,311.293,35.538,3.338,3.338,0,0,0,0,0,0,1.634,25.5553,182.711,570.554,864.124,977.46,991.564,1033.08,1126.09,1206.46,1242.23,1253.7,1262.51,1266.46,1271.43,1275.47,1278.16,1278.49,1280.71,1283.5,1284.22,1283.6,1283.19,1282.68,1279.71,1279.09,1278.82,1277.52,1278.96,1278.48,1278.35,1278.07,1277.94,1278.03,1278.18
2074.62,2125.08,1935.59,1686.52,1356.48,1045.41,940.112,922.868,874.516,776.955,1737.39,2379.14,2432.91,2052.47,1585.34,1287.38,1186.07,907.168,787.552,924.318,1162.58,1780.72,2671.8,2484.03,2508.93,2511.63,2525.03,2462.75,2485.11,2699.87,2921.03,3346.4,4745.89,4873.35,4693.51,4678.56,4607.34,4576.35,4540.09,4518.04,4512.93,4520.86,4514.89,4523.86,4525.48,4537.6,4543.11,4556.7,4571.6,4573.53,4556.7,4586.63,4536.69,4589.53,4632.28,4693.81,4742.62,4744.39,4745.24,4711.9,4700.21,4615.99,4363.9,3933.31,3788.83,3800.75,3695.03,3828.02,3969.07,3979.52,3659.53,3407.58,3278.45,3546.57,3690.51,3761.2,3807.65,3765.33,3666.79,3336.16,2947.84,2644.27,2487.72,2654.54,2849.77,3134.44,3061.73,3067.64,3408.5,3511.42,3300.79,3195.45,2993.45,2673.33,2662.47,2911.23,3339.97,3693.34,4154.99,4376.62,4479.13,4475.64,4467.89,4501.56,4488.91,4307.59,4181.86,4203.14,4386.7,4477.97,4441.11,4473.77,4549.95,4624.51,4666.19,4694.41,4750.21,4753.25,4750.28,4730.82,4724.11,4731.8,4736.04,4735.2,4741.33,4749.25,4789.29,4850.14,4894.35,4934.45,4969.05,4976.01,4986.03,4992.97,4997.54,4988.51,4990.84,4995.09,4996.25,4992.65,4989.07,4935.6,4853.15,4743.19,4667.74,4580.84,4431.3,3947.25,3265.15,2486.21,1976.08,2113.6,2065.29,1716.93,1195.47,749.09,955.543,963.813,532.069,332.965,442.548,1192.2,1854.51,2297.85,2602.63,3110.89,3578.93,4055.31,4394.42,4716.32,4991.77,5221.62,5424.56,5551.63,5644.53,5730.48,5764.81,5736.22,5726.95,5672.87,5649.26,5648.2,5498.78,5352.5,5209.89,5096.88,5040.45,4975.51,4907.96,4846.33,4764.65,4758.84,4770.38,4797.18,4819.22,4832.29,4870.34,4908.31,4844.74,4885.63,4857.23,4949.19,5039.06,5089.66,5162.54,5232.17,5288.97,5364.6,5439.21,5527.87,5636.58,5702.41,5766.78,5847.78,5899.27,5928.41,5939.39,5951.54,5954.77,5952.94,5940.51,5949.63,5946.49,5943.23,5911.99,5894.8,5894.49,5912.48,5936.49,5959.31,5964.03,5987.61,6018.2,6053.34,6088.8,6120.68,6137.18,6148.15,6158.06,6166.35,6156.38,6146.2,6135.03,6127.66,6131.48,6133.49,6142.54,6158.24,6173.44,6188.64,6196.64,6203.03,6190.18,6153.33,6124.06,6090.35,6046,6000.79,5956.93,5921.6,5876.92,5858.46,5847.87,5843.24,5834.32,5831.61,5828.53,5835.55,5826.65,5685.12,5770.77,5827.62,5871.39,5887.73,5916.65,5951.86,5975.32,5989.05,6005.2,5987.54,5959.17,5911.83,5867.81,5775.69,5674.49,5513.94,5257.87,4607.48,2884.68,666.207,138.691,7.3,3.60133,0,6.46867,10.132,10.3513,10.4967,10.558,10.7133,3.63333,0.797333,0,0,0,0,0,0,0,3.80133,7.46667,3.80133,3.83667,7.67333,3.66533,7.364,14.696,86.8067,388.61,1149.2,1031.32,914.786,692.514,662.708,595.735,580.737,543.168,553.669,490.805,446.524,467.444,424.807,326.189,338.551,346.198,374.75,424.151,573.6,808.74,1085.74,1442.79,1627.21,1663.32,1711.16,1725.65,1813.87,1856.54,1742.24,1048.47,391.135,196.057,2017.77,3453.84,3446.4,2856.33,2417.55,1874.1,1226.74,640.579,275.068,101.319,14.446,0,0,0,0,0,0,0,0,1.636,7.44,64.4507,344.291,733.56,966.017,1009.14,1022.87,1100.67,1188.29,1232.96,1253.69,1266.18,1267.3,1272.08,1274,1277.92,1277.92,1279.32,1282.42,1283.74,1282.97,1282.45,1282.19,1279.08,1278.64,1278.27,1276.92,1278.23,1277.9,1277.83,1277.5,1277.3,1277.38,1277.54
1763.58,1990.5,2058.83,1920.45,1662.68,1326.92,950.116,655.157,632.721,1847.84,2495.17,2511.5,2010.95,1433.65,1127.22,814.294,678.055,455.201,360.857,449.985,619.564,1127.98,1992.09,1868.34,1884.62,1862.59,1910.71,1837.3,1789.05,2215.13,2524.56,2533.13,3709.41,4899.4,4815.91,4732.5,4669.31,4616.88,4576.84,4552.22,4544.05,4540.7,4535.12,4528.59,4533.31,4535.67,4537.23,4547.77,4563.31,4574.81,4583.86,4596.83,4568.98,4582.87,4603.86,4648.58,4687.07,4705.65,4697.45,4650.47,4624.4,4419.35,4141.02,3784.44,3673.17,3743.69,3817.71,3887.9,3753.04,3417.61,2862.92,2351.78,2117.23,2719.48,2932.86,3148.86,3201.93,3232.68,3212.72,3122.83,2877.79,2518.7,2447.87,2722.88,3044.43,3476.3,3667.09,3448.32,3392.57,3118.25,2834.84,2429.54,2223.04,2309.14,2514.3,2452.17,2802.28,3547.42,4105.95,4348.81,4444.88,4388.15,4379.22,4455.99,4359.63,4105.45,3788.44,3753.02,3991.28,4255.21,4385.51,4358.83,4424.28,4471.89,4548.89,4584.94,4661,4692.19,4710.74,4703.55,4697.39,4710.96,4712,4719.05,4722.22,4758.88,4801.85,4846.74,4892.32,4927.08,4937.13,4947.02,4954.22,4967.19,4978.35,4976.7,4919.57,4890.48,4892.97,4817.87,4677.22,4599.79,4403.87,4284.66,4288.97,4330.83,4134.45,3668.36,2956.2,2843.23,2913.91,3051.74,2634.89,2293.07,1730.68,1167.69,1311.82,1585.74,1323.03,797.229,770.756,1133.16,1790.59,2142.41,2461.71,2966.02,3479.56,4041.42,4420.46,4692.31,4884.56,5138.33,5339.85,5497.37,5627.42,5706.75,5741.37,5725.48,5685,5615.88,5589.45,5599.43,5464.69,5324.43,5188.57,5079.51,5027.03,4967.29,4908.62,4847.8,4769.18,4766.55,4784.72,4823.11,4858.82,4884.87,4935.31,4993.63,5028.55,4976.49,5030.75,5085.99,5159.41,5231.87,5309.08,5391.2,5467.13,5580.8,5649.59,5723.28,5785.85,5862.76,5902.48,5958.04,5973.31,5987.22,5996.97,6009.33,6013,6010.86,5996.36,5997.5,5994.15,5989.14,5957.42,5948.15,5941.8,5954.26,5979.97,6003.85,6017.77,6040.55,6065.3,6100.29,6132.83,6154.68,6165.66,6171.71,6174.71,6175.54,6161.79,6145.47,6129.09,6116,6118.51,6115.54,6116.28,6123.24,6131.59,6150.73,6159.82,6169.46,6157.27,6129.46,6106.87,6081.16,6045.23,6013.36,5972.46,5940.23,5904.22,5883.73,5874.59,5868.36,5859.82,5852.96,5849.92,5858.49,5858.27,5865.31,5880.49,5899.19,5921.19,5946.58,5980.76,6016.62,6040.29,6050.83,6065.3,6048.91,6020.13,5974.64,5932.93,5858.74,5792.88,5737.17,5693.85,5651.79,5622.19,5602.45,5587.34,5484.07,5547.17,5552.1,5290.06,4982.81,4718.33,4022.48,3604.4,3822.34,3532.41,3308.72,2946.01,2696.87,2128.36,2073.65,2125.03,2523.51,3688.01,4302.84,4545.14,4220.11,3836.34,3597.4,3161.16,2986.13,1984.96,3099.04,4844.57,5229.02,4719.52,4010.46,3595.74,3221.26,3087.33,2788.64,2301.93,1889.9,1596.68,1351.81,1117.05,773.533,558.231,625.293,434.857,191.702,53.5313,151.941,376.587,561.232,651.432,794.973,1193.43,1288.81,1163.25,1025.02,772.515,748.333,178.987,31.736,10.7427,7.17267,7.23533,3.66533,0,0,9.54933,6.292,10.0693,9.30733,13.0393,13.0287,9.14667,9.07933,9.102,9.12467,9.12467,3.01867,0,0,0.831333,0.831333,5.01133,30.8293,84.394,200.377,574.211,963.618,1084.19,1170.95,1240.76,1267.43,1271.34,1276.58,1277.7,1278.35,1279.58,1279.24,1280.43,1282.59,1282.94,1282.77,1282.27,1281.77,1277.05,1278.2,1278.02,1276.73,1276.32,1277.76,1277.81,1277.56,1277.31,1277.34,1276.67
2406.31,2805.87,2864.68,2933.38,2866.76,2433.58,1597.23,1045.23,2402.2,3227.6,3342.55,3105.13,2480.72,1943.27,1558.95,968.523,730.045,460.529,340.817,363.519,515.555,1147.06,2158.64,1961.9,1925.37,2031.87,2065.53,1947.78,1996.93,2375.76,3278.22,3574.87,3894.75,4745.61,4835.26,4759.91,4696.08,4642.39,4601.69,4569.74,4556.81,4549.7,4546.38,4540.8,4532.91,4531.42,4530.86,4535.83,4545.99,4562.42,4582.69,4609.98,4639.84,4645.37,4672.89,4654.44,4687.89,4726.97,4728.12,4728.83,4590.92,4375.9,4230.43,4014.01,4125.48,4367.39,4468.42,4400.58,3948.76,3546.84,2774.77,2101.7,1987.44,2582.7,2628.95,2809.71,3041.16,3095.59,3227.44,3370.06,3482.26,3475.46,3497.6,3705.07,3998.16,4247.7,4377.35,4309,3765.83,3181.07,2802.97,2486.3,2321.63,2685.82,2460.03,2484.29,3447.48,3916.66,4423.04,4625.33,4689.77,4678.08,4618.68,4612.87,4527.56,4307.62,4148.49,3853.32,3924.57,4189.98,4369.7,4463.46,4374.11,4381.25,4482.84,4548.19,4602.97,4634.47,4667.84,4682.45,4684.21,4695.47,4719.29,4737.33,4763.26,4784.35,4831.96,4876.49,4904.06,4929.08,4935.75,4949.21,4964.8,4969.88,4978.22,4978.86,4970.48,4936.59,4836.75,4738.19,4579.34,4344.52,4325.09,4279.67,4585.72,4780.85,4410.01,3967.76,3795.47,4051.35,4318.47,3898.43,3545.13,3317.94,2835.5,2018.11,2065.37,2225.8,2010.8,1512.27,1281.16,1575.41,1667.65,2032.23,2338.08,2718.11,3141.15,3656.26,3976.52,4201.9,4482,4755.13,4967.37,5250.11,5466.76,5550.07,5654.35,5616.59,5582.74,5511.79,5491.06,5517.98,5396.96,5274.07,5153.04,5056.27,5012.1,4958.67,4906,4844.31,4771.86,4769.11,4789.44,4831.12,4872.37,4902.64,4960.36,5019.05,5055.75,5050.46,5061.84,5151.15,5203.33,5287.02,5353.1,5427.21,5546.54,5645.18,5770.9,5877.57,5951.05,5998.22,6046.43,6066.85,6076.48,6088.52,6088.04,6091.92,6089.51,6077.63,6064.51,6054.75,6044.97,6047.39,6022.78,6010.16,6004.59,6012.33,6027.62,6056.23,6067.56,6079.8,6096.65,6119.93,6152.2,6172.01,6177.96,6183.32,6178.46,6172.72,6155.13,6133.9,6115.47,6099.6,6095.65,6090.16,6085.59,6087.91,6092.78,6108.13,6118.6,6129.9,6123.94,6102.59,6086.66,6069.52,6045.94,6016.96,5982.32,5954.44,5921.76,5905.69,5897.13,5889.95,5882.36,5881.12,5880.53,5889.05,5891.67,5896.7,5913.68,5937.07,5963.7,5986.33,6018.78,6052.45,6074.83,6083.22,6093.67,6074.7,6043.54,5997.46,5954.23,5879.98,5816.03,5764.45,5720.3,5681.04,5652.9,5631.63,5630.69,5631.88,5657.07,5677.56,5686.99,5697.08,5711.87,5727.68,5734.86,5725.38,5723.89,5725.75,5728.21,5728.67,5732.61,5741.31,5746.5,5759.78,5780.64,5805.74,5819.05,5829.89,5854.11,5870.45,5850.43,5828.25,5817.81,5801.41,5780.63,5758.78,5746.52,5727.4,5711.69,5719.25,5734.4,5744.8,5753.64,5759.71,5778.91,5791.8,5778.63,5738.25,5692.98,5633.61,5573.21,5509.99,5450.87,5390.39,5336.78,5305.44,5297.17,5294.09,5297.46,5304.7,5316.38,5327.68,5338.53,5345.35,5350.13,5352.83,5363.47,5381.76,5392.7,5398.96,5440.32,5468.49,5505.69,5541.37,5584.5,5612.65,5639.12,5675.25,5568.29,5056.51,2754.13,1101.24,652.517,68.718,0,0,0,0,0,0.831333,0,0,1.61533,5.05933,186.12,969.07,1232.79,1260.78,1268.58,1271.66,1276.16,1277.6,1279.65,1280.02,1281.01,1282,1281.89,1278.89,1279.81,1279.24,1278.66,1277.16,1277.79,1276.69,1275.39,1275.25,1275.31,1277.7,1277.37,1277.39,1277.44
2705.95,3110.91,3277.84,3474.63,3409.2,2956.43,2289.76,3339.74,3755.53,3727.64,3454.59,3003.61,2723.67,2333.75,1761.97,1094.29,817.647,530.087,355.191,348.517,424.021,984.216,1916.73,1740.65,1779.9,1797.27,1863.94,1959.46,2005.77,2716.36,3547.12,3945.51,4445.48,4726.29,4717.13,4754.01,4702.95,4649.94,4602.73,4568.62,4554.98,4553.34,4548.21,4542.74,4533.23,4526.27,4522.29,4518.51,4518.02,4526.19,4545.52,4560.66,4600.08,4631.43,4653.24,4632.78,4634.54,4669.86,4707.44,4709.58,4652.26,4526.45,4366.64,4230.36,4451.89,4644.75,4558.87,4305.72,3944.52,3391.72,2690.05,2310.64,2088.58,2406.55,2439.01,2593.15,2783.75,3102.63,3322.36,3582.56,3903.95,4210.3,4350.51,4514.49,4658.01,4708.98,4609.84,4420.13,4172.56,3588.16,2968.91,2939.24,3023.5,2473.17,2343.5,3156.06,3944.69,4483.04,4775.86,4873.06,4899.07,4868.12,4801.3,4781.87,4675.26,4557.66,4410.64,4316.73,4191.54,4253.4,4364.45,4500.86,4560.8,4490.85,4534.26,4560.29,4594.42,4618.16,4642.05,4653.08,4643.05,4683.78,4708.57,4736.75,4768.89,4795.15,4830.44,4878.36,4915.01,4928.84,4916.53,4931.98,4939.59,4956.31,4969.35,4971.84,4982.03,4946.17,4759.73,4504.17,4411.71,4226.82,4125.42,4334.95,4787.44,4797.49,4627.71,4412.68,4567.63,4715.36,4546.65,4429.46,4105.42,3975.05,3559.69,2947.15,2776.83,2795.86,2234.19,2003.81,1906,1814.26,1703.19,1661.91,2116.47,2568.13,3007.8,3512.5,3630.44,3915.41,4192.7,4346.96,4629.09,5073.68,5321.63,5444.65,5530.08,5513.12,5465.43,5391.37,5372.11,5406.07,5309.21,5204.81,5100.74,5018.64,4981.79,4932.65,4891.01,4838.99,4772.26,4767.86,4784.99,4826.48,4870.49,4903.19,4960.34,5030.33,5063.35,5067.87,5146.28,5219.83,5332.06,5351.77,5408.34,5521.1,5677.15,5773.68,5916.96,6014.61,6081.56,6122.24,6149.44,6170.52,6180.19,6191.64,6194.24,6200.1,6198.13,6182.12,6160.36,6152.43,6144.82,6142.69,6121.45,6101.13,6093.64,6090.11,6096.96,6123.08,6129.71,6130.71,6144.1,6163.63,6180.39,6193.97,6187.55,6188.84,6175.01,6164.7,6143.49,6126.77,6106.32,6090.1,6081.43,6075.31,6069.57,6073.21,6078.29,6091.03,6099.07,6115.16,6114.2,6094.75,6082.95,6071.42,6053.76,6030.7,6000.54,5976.14,5947.92,5932.48,5926.21,5920.53,5913.61,5913.17,5913.35,5921.9,5927.89,5935.93,5956.81,5982.94,6013.99,6039.97,6071.15,6103.22,6123.34,6130.84,6137.94,6113.04,6077.67,6027.58,5982.42,5910.66,5845.21,5791.87,5751.11,5710.79,5675.95,5651.79,5652.34,5657.04,5681.96,5702.84,5712.48,5721.93,5737.55,5754.98,5762.3,5750.57,5743.82,5744.79,5745.98,5746.91,5754.1,5762.49,5765.23,5773.46,5793.32,5819.36,5833.84,5847.48,5871.73,5888.27,5871.99,5859.01,5855.83,5850.53,5841.59,5830.69,5828.67,5820.09,5806.28,5827.31,5856.97,5874.85,5886.93,5904.45,5928.5,5945.07,5928.86,5887.81,5835.92,5773.63,5706.12,5639.63,5577.81,5512.93,5449.27,5408.36,5398.91,5396.45,5401.91,5411.13,5424.11,5434.8,5449.41,5458.99,5467.21,5471.37,5487.38,5506.35,5523.32,5545.83,5574.28,5595.95,5622.73,5650.95,5682.05,5701.88,5720.87,5741.41,5752.3,5742.15,5463.82,4669.95,4247.04,2003.66,445.107,77.356,10.976,0,0,0.843333,0.841333,0.774667,0.826,1.626,2.49933,5.942,46.6753,483.187,1180.53,1270.36,1274.79,1277.78,1274.32,1271.98,1274.5,1280.45,1280.04,1278.36,1279.97,1279.39,1278.51,1277.94,1277.66,1276.69,1275.61,1275.51,1275.63,1275.34,1275.02,1274.98,1274.97
3616.06,3920.1,4062.36,4047.47,3963.54,3759.43,4420.05,4577.53,4502.99,4236.33,3630.82,3458.48,3302.62,3062.76,2743.38,1894.47,1318.29,751.463,525.991,511.765,603.885,1020.52,1919.76,1875.33,1983.03,2141.61,2435.28,2604.37,2993.25,3656.2,4283.55,4609.24,4816.25,4865.72,4790.47,4708.83,4716.34,4662.73,4609.6,4555.76,4527.52,4536.07,4566.11,4562.66,4554.74,4547.5,4535.32,4529.03,4529,4535.64,4550.36,4567.93,4597.32,4635.22,4661.13,4686.72,4709.16,4725.5,4733.04,4747.75,4760.32,4748.45,4739.46,4726.31,4797.44,4826.13,4807.89,4753.76,4631.56,4491.61,4313.5,4092.38,3904.38,4062.43,3888.57,3824.22,3987.51,4278.5,4430.23,4523.71,4667.54,4801.23,4917.89,4997.22,5013.7,4993.78,4951.78,4873.52,4787.97,4623.71,4486.82,4407.2,4302.46,4059.74,4165.84,4472.38,4860.55,5044.88,5081.26,5064.52,5043.29,5016.74,4980.63,4967.26,4910.97,4846.57,4758.25,4668.82,4659.63,4579.48,4559.45,4615.12,4667.2,4695.95,4657.66,4657.87,4650.96,4648.86,4669.12,4648.29,4663.42,4682.81,4706.89,4736.01,4789.01,4820.95,4857.37,4895.8,4928.99,4942.79,4941.46,4932.2,4927.82,4938.05,4974.46,4988.78,4986.46,4925.06,4781.34,4445.92,4244.12,4230.44,4255.82,4398.23,4794.68,4826.23,4756.96,4907.97,4886.15,4772.46,4708.48,4528.4,4443.87,4238.44,4021.52,3605.47,3475.14,3431.22,2788.47,2452.78,2288.04,2495.79,1918.48,1710.38,1720.54,2470.35,3162.07,3530.89,3650.82,3834.78,4015.34,4362.17,4803.77,5108.67,5344.9,5437.35,5446.22,5400.73,5349.97,5282.21,5261.53,5296.74,5222.34,5137.12,5051.29,4981.97,4952.35,4908.03,4871.43,4831.96,4768.63,4757.7,4772.64,4815.41,4861.25,4897.1,4964.12,5037.37,5109.08,5073.37,5190.87,5312.2,5365.8,5471.42,5493.39,5635.35,5733.87,5876.81,5995.45,6107.67,6175.01,6215.3,6242.86,6258.76,6266.92,6282.13,6286.43,6288.64,6288.62,6271.42,6244.48,6228.02,6217.94,6211.99,6186.47,6167.5,6157.63,6145.01,6147.64,6168.71,6172.57,6175.27,6183.17,6196.39,6211.12,6211.02,6201.51,6192.06,6177.53,6160.63,6136.14,6107.94,6082.47,6060.29,6047.52,6042.31,6034.03,6034.2,6040.11,6052.35,6066.57,6083.42,6087.71,6077.54,6076.94,6073.42,6065.44,6050.49,6030.99,6014.2,5992.42,5982.7,5978.22,5970.66,5965.31,5962.95,5961.14,5968.26,5973.23,5983.36,6002.8,6027.93,6057.83,6087.9,6121.82,6153.57,6170.72,6177.75,6179.5,6165.26,6144.72,6096.78,6052.99,5979.15,5909.63,5857.3,5812.48,5767.84,5725.41,5691.78,5686.44,5689.52,5711.66,5730.19,5739.24,5748.04,5763.68,5780.94,5787.01,5780.35,5775.96,5775.72,5776.29,5779.29,5788.55,5797.29,5799.81,5808.49,5824.32,5846.93,5862.05,5875.91,5897.7,5913.87,5900.99,5888.3,5891.19,5891.71,5888.29,5880.8,5882.65,5884.28,5885.34,5916.61,5955.18,5979.01,6001.55,6017.55,6049.37,6071.19,6059.34,6017.05,5965.78,5903.21,5841.33,5777.95,5717.42,5650,5581.58,5534.9,5524.05,5517.8,5519.48,5526.46,5535.68,5543.94,5557.51,5568.9,5580.18,5584.45,5598.56,5610.36,5632.45,5654.06,5678.63,5694.37,5712.09,5730.75,5751.13,5761.69,5769.18,5781.49,5792.85,5805.58,5824.1,5851.27,5879.69,5899.12,5894.86,5694.78,4643.24,1901.85,235.918,3.91,0.841333,1.68267,1.66933,3.34333,2.53,1.67133,1.66933,2.54333,5.92733,101.155,382.936,765.621,864.704,963.657,973.565,1067.49,1183.85,1269.4,1279.46,1278.66,1278.71,1278.04,1277.61,1276.7,1275.8,1275.59,1275.83,1275.48,1275.04,1274.94,1274.05
4169.43,4340.28,4320.64,4211.69,4177.85,4642.59,4764.62,4766.74,4699.29,4430.09,4042.2,3741.18,3578.34,3544.77,3516.81,2924,2199.17,1415,870.939,842.823,801.106,1210.27,2289.82,1993.54,2171.86,2573.26,3016.89,3631.43,3965.14,4281.34,4637.96,4708.69,4830.46,4859.52,4800.85,4707.59,4625.75,4678.51,4650.28,4604.45,4585.88,4584.19,4573.99,4593.36,4592.81,4578.58,4566.92,4556.6,4551.02,4552.4,4558.51,4577.03,4603.77,4628.93,4655.52,4678.63,4698.56,4711.43,4728.83,4742.85,4758.43,4770.19,4791.89,4815.99,4833.83,4858.84,4858.44,4849.05,4866.1,4854.68,4784.61,4717.63,4667.62,4735.17,4642.94,4685.47,4771.8,4850.68,4910.68,4942.57,4954.67,4985.79,5025.06,5087.87,5131.49,5165.4,5194.69,5203.8,5174.35,5228.44,5276.76,5240.74,5113.35,5166.55,5184.52,5195.64,5245.69,5258.92,5232.52,5204.99,5149.22,5109.29,5092.76,5059.5,5014.19,4969.13,4922.06,4885.17,4862.67,4841.9,4803.03,4792.9,4793.25,4790.2,4756.82,4726.51,4716.05,4691.5,4674.86,4667.39,4658,4696.25,4710.75,4761.53,4797.06,4834.83,4876.95,4920.17,4950.49,4972.89,4951.01,4917.38,4908.53,4885.15,4856.11,4830.77,4768.06,4623.91,4431.81,4220.55,3808.69,3672.45,3913.82,3908.12,4836.16,5132.59,5225.84,5229.42,5126.11,4996.96,4929.58,4850.76,4717.82,4735.68,4587.43,4322.91,4584.4,4691.29,4467.73,4138.4,3996.16,4116.71,3983.49,3510.4,3334.83,3367.78,3862.27,4315.13,4275.89,4379.99,4516.65,4853.3,5038.18,5256.7,5369.08,5372.72,5318.93,5276.57,5233.53,5177.5,5153.65,5189.46,5140.6,5073.74,5004.95,4948.48,4925.79,4885.8,4852.51,4820.89,4761.29,4741.84,4753.49,4796.58,4844.09,4880.35,4952.85,5031.22,5123.31,5139.23,5266.4,5388.68,5498.98,5539.11,5659.82,5718.73,5869.8,5964.07,6094.47,6185.43,6239.73,6281,6314.68,6337.21,6342.34,6359.65,6363.87,6365.46,6364.78,6345.82,6312.32,6296.2,6284.91,6269.48,6238.16,6218.12,6199.78,6187.16,6188.27,6197.69,6195.73,6194.22,6200.2,6205.53,6208.14,6198.32,6180.26,6161.57,6141.62,6120.58,6094.61,6063.54,6036.68,6012.96,6000.54,5990.25,5980.84,5982.39,5993.2,6008.09,6026.87,6048.14,6059.65,6061.77,6070.51,6074.9,6074.95,6064.99,6051.6,6041.01,6025.49,6016.96,6012.34,6007.47,6001.86,6000.65,6001.3,6009.39,6017.3,6027.86,6046.13,6072.55,6099.97,6128.38,6157.77,6184.25,6196.73,6195.33,6192.03,6176.99,6153.73,6111.43,6067.03,5995.51,5926.4,5866.94,5822.15,5778.36,5738.51,5709.21,5705.77,5711.87,5734.34,5753.16,5763.71,5772.5,5788.14,5807.2,5811.61,5806.13,5801.02,5798.8,5799.2,5804.02,5813.15,5822.54,5828.24,5838.61,5851.87,5875.49,5891.48,5909.06,5931.36,5944.76,5928.32,5918.92,5922.74,5924.89,5919.15,5906.84,5905.62,5899.32,5902.96,5928.09,5962.42,5981.75,5999.12,6011.67,6036.14,6054.46,6047.91,6004.1,5956.23,5898.37,5840.44,5778.56,5724.59,5662.57,5601.47,5558.97,5548.84,5542.11,5546.59,5552.69,5562.28,5568.33,5579.75,5590.93,5599.89,5607.31,5623.62,5638.87,5658.45,5687.63,5711.69,5727.5,5744.17,5761.82,5779.45,5789.71,5794.86,5806.78,5819.32,5833.02,5860.32,5886.16,5912.2,5938.1,5969.25,5992.47,5980.43,5805.73,5192.83,4038.91,2668.69,1585.25,809.166,212.405,26.1427,5.17133,1.676,2.51733,4.23333,4.24133,4.24867,4.24733,4.254,11.996,73.9527,249.478,533.163,942.545,1248.59,1277.56,1276.7,1275.77,1275.23,1274.48,1273.61,1273,1273.35,1272.93,1272.35,1272.18,1272.02
4468.51,4535.11,4424.56,4318.75,4769.75,4828.87,4849.86,4840.04,4715.19,4563.18,4293.19,3942.39,3777.01,3860.81,4013.6,3678.19,3308.52,2643.5,1962.25,1547.22,1298.21,1936.54,2759.55,2188.33,2385.46,2874.16,3785.8,4116.03,4054.87,4409.19,4718.08,4704.92,4826.99,4811.87,4773.95,4746.36,4671.75,4659.94,4694.05,4678.74,4674.96,4676.73,4674.98,4664.54,4652.79,4639.7,4625.31,4612.02,4602.35,4599.19,4601.29,4610.09,4626.53,4644.37,4667.33,4684.69,4698.08,4709.49,4723.72,4740.75,4760.1,4788.91,4808.86,4827.52,4848.04,4868.25,4830.3,4804.86,4778.81,4758.75,4575.7,4377.36,4203.52,4363.37,4234.37,4232.14,4407.62,4710.04,4874.67,4954.5,4975.31,5013.62,5060.16,5115.97,5140.95,5177.85,5182.16,5176.39,5151.5,5243.75,5229.61,5209.46,5200.37,5150.37,5173.59,5211.07,5233.56,5280.13,5250.25,5202.08,5107.02,4994.39,4963.01,5052.24,5055.98,5000.57,4942.41,4877.2,4835.77,4848.2,4857.37,4842.3,4826.2,4818.75,4813.84,4757.18,4718.4,4705.39,4695.62,4675.79,4657.3,4683.35,4717.01,4766.62,4799.04,4842.15,4893.34,4945.9,4974.25,4957.64,4712.89,4586.07,4433.19,4263.1,3901.65,3573.96,3433.46,3154.68,3005.17,3114.84,2916.05,2848.02,2874.5,3776.13,4969.94,5416.87,5430.82,5388.62,5243.1,5078.19,5062.86,5074.44,5082.84,5092.71,5051.45,5002.37,5153.97,5219.19,5210.33,5186.08,5081.72,5080.45,5053.75,5014.68,4786.96,4644.94,4609.49,4763.19,4788.96,4800.14,4942.87,4980.15,5117.77,5244.15,5263.06,5239.09,5201.05,5154.9,5115.34,5072.14,5056.74,5091.99,5066.76,5020.45,4966.95,4921.37,4903.61,4868.9,4839.37,4808.58,4752.56,4723.65,4731.07,4776.04,4824.71,4864.58,4939.9,5024.19,5126.84,5209.22,5360.48,5520.36,5622.68,5709.89,5808.08,5904.28,5999.48,6097.12,6176.17,6240.87,6299.4,6345.1,6382.09,6404.15,6416.47,6429.7,6437.55,6436.78,6435.52,6417.83,6381.56,6367.28,6353.41,6329.77,6292.29,6265.01,6247.63,6226.03,6224.28,6226.52,6218.97,6208.77,6206.98,6204.86,6199.85,6181.22,6155.6,6133.15,6107.83,6083.05,6055.2,6023.02,5995.16,5972.13,5956.89,5945.33,5935.08,5936.43,5950.14,5968.45,5993.03,6017.19,6033.4,6043.11,6058.59,6072.51,6078.25,6073.52,6064.38,6057.35,6048.57,6045.04,6043.43,6038.36,6035.39,6035.86,6038.29,6048.58,6056.24,6065.35,6081.64,6107.98,6131.78,6157.28,6177.64,6195.41,6199.84,6194.03,6186.2,6167.22,6139.65,6099.12,6053.67,5989.3,5927.05,5872.7,5834.84,5796.65,5763.82,5742.88,5739.85,5746.75,5769.53,5788.44,5799.15,5808.02,5823.12,5840.68,5842.44,5833.68,5825.75,5823.27,5823.35,5831.08,5843.66,5854.44,5861.9,5878.16,5892.8,5919.31,5939.23,5960.81,5986.87,5999.53,5984.62,5971.57,5973.36,5973.51,5963.85,5951.26,5942.65,5932.35,5930.39,5951.01,5978.44,5986.32,5998.33,6008.11,6027.17,6038.38,6029.77,5994.91,5947,5892.47,5839.17,5785.57,5737.79,5682.56,5626.24,5586.67,5575.1,5570.05,5569.53,5576.02,5582.64,5589.48,5600.79,5611.43,5623.13,5629.88,5642.07,5652.79,5673.88,5697.59,5726.51,5744.44,5761.94,5781.43,5799.13,5809.8,5817.6,5829.95,5845,5861.2,5887.5,5914.44,5941.26,5967.16,6002.88,6028.89,6028.94,5997.58,5876.07,5485.01,4804.29,4084.31,3314.36,2367.02,818.109,150.715,12.8073,2.51733,3.40333,4.242,4.24533,4.25067,4.25333,4.25533,5.11267,22.306,100.52,347.022,676.811,1208.62,1276.68,1275.9,1275.36,1274.66,1273.8,1272.67,1272.98,1272.53,1271.84,1271.54,1271.38
4506.53,4513.26,4495.03,4804.78,4866.49,4884.16,4870.78,4827.77,4797.32,4727.97,4584.23,4430.73,4332.3,4401.85,4549.92,4474.99,4301.79,3903.56,3403.1,2824.92,2646.61,3152.76,3644.57,3141.51,3070.05,3676.79,4333.88,4249.69,4366.64,4634.21,4849.14,4859.29,4886.72,4878.65,4827.56,4796.66,4762.81,4719.12,4717.6,4733.25,4734.8,4737.88,4734.22,4730.1,4719.5,4708.56,4691.54,4681.36,4669.83,4657.8,4657.93,4656.15,4671.4,4678.33,4694.24,4705.07,4713.17,4721.73,4739.18,4754.49,4785.95,4812.01,4840.31,4845.63,4863.62,4837.46,4764.08,4679.12,4656.1,4598.05,4326.69,4138.13,3892.72,4239.91,4206.32,4200.03,4392.56,4644.08,4826.1,4934.85,5020.64,5056.13,5091.83,5112.06,5159.34,5193.55,5220.37,5275.98,5217.57,5181.4,5123.56,5170.35,5159.95,5022.11,4853.96,4924.66,5046.49,4982.25,4981.59,4848.73,4684.92,4587.88,4447.14,4662.84,4695.29,4659.65,4643.97,4581.7,4609.3,4616.22,4625.03,4660.07,4702.5,4815.39,4852.86,4857.96,4808.47,4776.52,4743.93,4725.21,4701.08,4735.76,4771.9,4803.21,4837.26,4872.66,4921.52,4968.21,5013.26,4975.38,4685.96,4566.83,4491.53,4007.41,3459.66,3025.44,2806.98,2741.65,2701.79,2831.15,2743.05,2657.98,2694.39,3480.7,5112.35,5465.41,5456.85,5436.13,5326.79,5221.63,5109,5059.63,5057.72,5152.06,5144.78,5215.23,5287.91,5303.72,5300.36,5292.4,5288.92,5287.9,5302.71,5263.48,5209.97,5169.15,5172.77,5151.61,4992.53,5058.14,4995.13,5054,5002.4,5089.36,5078.93,5068.72,5068.21,5059.91,5028.47,4992.35,4982.72,5018.4,5012.12,4980.23,4937.18,4897.37,4882.17,4852.6,4826.47,4794.2,4745.85,4703.1,4706.17,4752.39,4803.71,4852.01,4930.07,5024.59,5132.67,5245.32,5412.43,5588.61,5703.79,5801.7,5898.46,5981.95,6086.5,6155.78,6229.19,6299.21,6360.23,6407.6,6438.35,6459.99,6469.1,6486.08,6496.24,6494.86,6493.45,6472.99,6439.68,6413.58,6400.42,6374.27,6336.77,6301.16,6282.66,6261.92,6251.16,6250.2,6235.61,6220.59,6210.34,6202.18,6188.14,6163.65,6134.33,6105.49,6077.58,6050.75,6020.45,5985.73,5958.19,5935.79,5918.96,5909.2,5899.23,5900.35,5914.1,5936.87,5965.96,5994.71,6017.66,6034.74,6054.86,6074.76,6089.82,6091.2,6086.78,6082.58,6077.06,6076.21,6074.39,6071.77,6069.19,6072.04,6077.53,6086.51,6095.14,6104.28,6121.58,6144.48,6165.48,6182.87,6194.1,6201.17,6203.07,6191.24,6176.99,6153.54,6123.18,6080.67,6036.07,5979.83,5927.66,5880.91,5846.43,5813.14,5786.95,5769.25,5772.42,5781.05,5802.43,5818.2,5825.55,5833.51,5847.94,5863.11,5862.83,5848.55,5840.03,5838.45,5842.41,5856.24,5871.52,5885.75,5898.81,5920.65,5943.9,5974.28,6001.08,6026.42,6051.51,6060.53,6045.69,6028.95,6026.05,6020.41,6004.42,5983.6,5966.93,5949,5941.4,5956.59,5976.58,5981.82,5986.83,5987.79,6005.1,6015.56,6007.39,5979.64,5938.51,5889.22,5844.76,5797.02,5755.87,5707.43,5659.05,5623.85,5613.11,5604.06,5611.43,5618.33,5621.49,5626.07,5633.61,5645.95,5653.17,5659.07,5672.11,5685.81,5702.54,5725.52,5751.22,5774.38,5793.16,5816.37,5837.14,5851.14,5861.19,5876.49,5896.13,5916.14,5944.36,5969.16,5990.15,6008.09,6035.01,6059.04,6050.72,6025.73,5973.52,5883.1,5657.49,5382.89,4978.09,4275.08,2960.08,1123.16,177.059,9.28133,3.37533,4.238,4.24,4.24,4.24,4.244,4.244,5.10467,21.402,43.6313,136.959,916.889,1277.16,1276.65,1276.11,1275.56,1274.65,1272.8,1272.52,1271.99,1271.07,1270.61,1270.41
4462.59,4474.27,4799.08,4883.13,4913.21,4916.07,4879.25,4810.71,4829.34,4806.28,4815.02,4734.05,4642.01,4688.92,4838.53,4852.88,4773.01,4410.47,4098.56,3931.67,3765.63,4132.42,4659.95,4285.35,4395.99,4546.65,4557.74,4743.02,4632.62,4816.41,4979.24,4948.99,4982.19,4930.71,4864.68,4855.39,4824.57,4794.48,4727.09,4738.35,4795.57,4804.81,4808.89,4808.8,4801.91,4789.16,4777.28,4764.35,4754.14,4739.13,4727.01,4724.54,4725.74,4734.97,4743.49,4747.13,4743.84,4749.17,4769.34,4793.23,4827.94,4862.93,4889.1,4893.81,4888.18,4892.61,4803.06,4711.77,4614.2,4563.28,4324.27,4041.48,3932.78,4375.55,4393.97,4550.06,4708.53,4819.29,4936.41,5028.75,5066.13,5113.69,5103.25,5153.97,5165.13,5227.04,5343.25,5388.8,5348.02,5230.2,5270.83,5298.6,5299.28,5255.53,5078.83,4976.97,5069.42,4950.6,4747.29,4703.43,4627.57,4553.62,4543.45,4583.72,4653.17,4645.81,4638.93,4589.46,4600.94,4629.62,4644.49,4692.38,4787.24,4896.95,4938.05,4924.14,4868.52,4832.54,4791.72,4759.28,4749.81,4777.97,4799.78,4827.45,4864.84,4902.66,4946.73,4998.7,5037.43,4984.7,4793.89,4707.07,4559.86,4127.49,3494.87,3001.93,2695.88,2738.04,2914.65,3276.38,2887.45,3021.24,3440.5,4613.94,5283.64,5450.74,5400.65,5316.27,5229.47,5185.17,5135.13,5132.96,5091.47,5219.62,5275.21,5320.64,5342.88,5348.39,5358.93,5366.23,5373.39,5374.55,5346.25,5343.32,5354,5343.4,5352.01,5364.64,5282.31,5142.52,5139.33,5031.57,5036.05,5058.05,5071.51,5043.8,5034.57,5013.07,4984.36,4947.52,4938.87,4970.53,4975.25,4949.6,4909.71,4873.17,4858.69,4832.4,4810.68,4777.55,4740.61,4682.83,4682.75,4730.51,4785.58,4839.2,4924.68,5029.13,5157.81,5281.41,5475.07,5673.29,5785.58,5892.13,5987.66,6075.7,6145.63,6214.13,6287.62,6348.66,6404,6449.67,6479.69,6500.02,6514.23,6530.67,6536.87,6537,6531.72,6509.73,6477.06,6448.18,6433.18,6405.81,6363.82,6329.11,6308.42,6286.6,6274.04,6269.3,6248.1,6228.02,6212.17,6195.24,6176.73,6147.72,6112.6,6081.57,6051.69,6023.41,5992.2,5957.16,5931.63,5911.69,5895.95,5888.96,5879.3,5880.17,5895.38,5923.88,5958.44,5988.8,6013.54,6037.42,6059.78,6084.67,6104.92,6109.67,6103.69,6100.21,6099.16,6098.89,6097.41,6096.2,6095.95,6097.85,6104.56,6116.4,6127.17,6134.05,6149.42,6170.49,6186.17,6197.46,6200.11,6198.4,6193.92,6179.79,6160.78,6133.64,6103.55,6063.78,6024.75,5978.28,5934.61,5893.18,5861.33,5833.14,5811.52,5798.4,5806.77,5820.38,5842.87,5853.45,5854.21,5857.85,5869.87,5883.09,5880.53,5864.95,5855.87,5853.15,5862.53,5883.9,5908.47,5928.26,5943.4,5970.27,6000.97,6039.38,6070.62,6100.46,6125.01,6129.65,6110.13,6091.41,6079.67,6064.49,6037.28,6002.04,5976.4,5953.04,5936.74,5947.59,5960.8,5961.37,5965.7,5960.55,5971.95,5981.69,5979.98,5955.95,5925.21,5885.46,5847.61,5808.3,5773.64,5734.1,5694.95,5661.29,5650.74,5645.62,5649.41,5652.24,5661.22,5663.11,5665.64,5673.59,5679.53,5685.97,5701.1,5713.38,5728.29,5745.62,5770.87,5788.6,5817.86,5843.2,5867.26,5885.59,5900.78,5922.94,5950.62,5974.52,6007.92,6033.18,6049.2,6063.69,6084.13,6099.43,6082.12,6052.73,6003.42,5945.82,5845.6,5741.37,5488.71,5023.57,4213.23,2518.64,815.689,75.9993,4.23467,4.238,4.238,4.24,4.238,4.242,4.24067,4.244,7.672,26.5787,72.006,469.577,1279.06,1278,1277.27,1276.33,1275.46,1272.82,1271.66,1270.99,1269.9,1269.3,1269.08
4466.35,4822.04,4915.23,4962.18,4973.33,4924.97,4875.03,4859.22,4850.11,4914.38,5007.94,5054.06,5020.71,5053.79,5155.05,5144.79,4965.93,4663.48,4541.64,4453.17,4346.25,4876.9,5212.76,5232.08,5233,5114.91,5172.19,5069.46,4754.82,4738.95,4932.16,5031.88,5097.8,5031.59,4911.05,4925.45,4903.89,4879.37,4872.79,4835.71,4860.4,4900.72,4907.4,4908.33,4902.93,4899.62,4887.7,4873.78,4859.92,4839.51,4827.21,4811.23,4813.54,4808.25,4808.81,4807.4,4802.83,4805.77,4823.03,4857.81,4895.36,4931.07,4968.23,4974.64,4992.44,5021.3,4984.31,4835.84,4620.51,4547.49,4295.43,4155.69,4032.31,4527.04,4741.37,4883.07,4975.93,5031.95,5079.5,5080.93,5097.49,5064.22,5089.51,5148.67,5177.17,5293.46,5415.03,5465.44,5450.97,5469.63,5439.42,5451.24,5426.78,5399.54,5358.31,5238.8,5244.91,5146.86,5019.31,4962.79,4924.25,4831.68,4714.88,4803.58,4832.43,4794.99,4771.46,4824.58,4828.21,4835.38,4825.6,4871.69,4945.65,5068.16,5016.74,4981.35,4929.31,4883.38,4836.17,4808.63,4778.95,4805.23,4826.74,4856.48,4879.59,4918.96,4973.21,5027.06,5072.64,5040.66,4894.71,4715.75,4488.44,4036.77,3479.7,2946.92,2719.22,2647.14,2774.59,3047.74,2889.88,3175.09,4269.68,5001.29,5203.55,5308.94,5263.93,5204.51,5110.65,5110.35,5118.58,5091.55,5156.31,5311.43,5349.76,5390.91,5409.89,5410.2,5406.29,5412.47,5417.92,5408.77,5401.01,5397.36,5403.22,5414.45,5426.97,5412.01,5338.77,5279.58,5227.9,5169.85,5130.7,5055.1,5020.8,5025.75,5015.02,4987.53,4963.47,4925.22,4911.2,4944.99,4956.4,4926.74,4888.35,4852.24,4836.58,4812.4,4791.85,4759.82,4730.5,4666.4,4661.75,4712.29,4772,4833.32,4924.99,5038.58,5179.38,5318.39,5524,5741.78,5858.06,5966.21,6055.13,6138.02,6206.62,6270.07,6342.83,6397.37,6441.95,6483.06,6510.62,6528.84,6545.13,6555.39,6563.41,6561.33,6555.51,6531.81,6503.39,6483.16,6458.31,6429.9,6389.15,6355.19,6333.8,6313.18,6295.89,6282.32,6259.88,6231.51,6211.64,6189.73,6165.81,6129.24,6092.43,6056.56,6024.72,5998.17,5967.79,5935.01,5910.85,5895.66,5881.64,5876.96,5875.28,5885.68,5907.86,5940,5978.78,6011.47,6038.85,6064.6,6088.25,6113.08,6127.95,6128.01,6122.06,6118.39,6118.38,6119,6117.8,6115.9,6116.2,6119.38,6126.05,6138.68,6151.26,6158.99,6172.1,6191.99,6200.82,6205.91,6199.33,6191.36,6182.77,6165.48,6144.59,6115.81,6087.32,6050.62,6014.82,5977.73,5940.95,5903.2,5876,5850.25,5837.05,5826.46,5839.97,5856.52,5877.2,5882.16,5876.78,5874.56,5881.36,5889.3,5882.47,5863.98,5853.62,5852.07,5865.85,5894.3,5924.27,5950.82,5973.16,6007.21,6046.69,6093.41,6132.35,6170.76,6186.74,6189.57,6163.21,6140.77,6124.94,6099.17,6061.76,6019.9,5988.34,5958.81,5943.17,5947.79,5954.84,5950.77,5952.73,5948.01,5952.46,5958.46,5957.77,5937.88,5911.49,5879.99,5848.47,5813.54,5788.46,5757.99,5727.06,5702.22,5691.84,5685.54,5686.23,5694.09,5699.13,5696.29,5699.53,5706.03,5710.55,5716.56,5727.08,5739.81,5756.13,5771.25,5794.03,5814.81,5845.44,5873.82,5898.99,5924.53,5941.02,5967.4,5998.79,6023.55,6058.39,6085.59,6101.78,6114.96,6130.49,6134.02,6117.73,6084.38,6033.81,5976.07,5922.27,5862.86,5744.84,5526.26,4969.84,3856.55,2246.77,440.431,17.73,4.23467,4.236,4.236,4.236,4.23667,4.23267,4.23267,5.09867,10.2833,29.196,149.301,1280.35,1278.63,1277.5,1276.43,1275.4,1272.45,1269.75,1269.62,1268.38,1267.65,1267.35
4798.93,4905.48,4979.43,5012.34,4955.75,4938.22,4844.11,4842.14,4950.37,5031.66,5120.34,5190.46,5231.54,5305.63,5385,5337.08,5129.65,4888.23,4807.2,4760.44,4922.01,5224.98,5504.12,5547.89,5471.37,5442.69,5340.14,5234.78,4739.91,4374.67,4503.75,4767.16,5151.78,5119.17,4871.35,4977.06,4972.72,4952.59,4955.9,4970.41,4946.55,4955.27,5009.48,5013.3,5015.67,5009.88,5000.43,4988.58,4974.24,4954.2,4939.74,4924.97,4911.02,4903.89,4889.41,4890.3,4879.2,4882.87,4907.05,4948.47,4995.51,5035.57,5059.76,5091.12,5084.65,5128.69,5080.97,4927.73,4590.21,4254,4073.34,4075.54,4148.96,4704.97,4847.48,5050.2,5130.48,5164.64,5171.62,5121.29,5032.27,4991.76,5042.86,5122.89,5222.14,5387.44,5476.43,5536.01,5592.29,5594.26,5600.72,5572.1,5535.16,5530.96,5529.48,5458,5409.23,5338.32,5310.89,5263.91,5216.22,5089.69,4995.42,4969.29,5013.5,4995.06,4981.8,5002.56,4990.29,5041.52,5059.98,5070.83,5155.63,5204.55,5162.62,5091.27,5042.84,5005.63,4966.61,4936.38,4888.86,4909.44,4928.34,4960.6,4969.98,5016.75,5079.17,5142.5,5205.58,5206.2,5022.17,4782.99,4577.91,4016.22,3464.57,3095.98,2786.41,2683.65,2373.92,2573.86,2790.19,3924.26,4718.29,5053.82,5189.31,5214.94,5167.15,5133.21,5035.01,5005.51,5110.39,5176.35,5265.59,5410.59,5450.85,5475.17,5481.5,5472.42,5458.75,5464.64,5463.69,5463.83,5463.28,5464.68,5444.63,5432.12,5455.64,5455.83,5416.37,5343.1,5287.29,5219.33,5134.82,5057.95,5015.96,4997.66,4992.3,4970.05,4949.34,4911.7,4900.66,4921.64,4936.44,4909.41,4871.13,4834.31,4817.6,4794.31,4773.79,4743.21,4719.91,4656.37,4648.6,4702.11,4767.26,4836.4,4932.1,5058.07,5206.19,5352.57,5566.56,5794.19,5912.59,6019.19,6105.79,6172.98,6242.47,6300.98,6351.69,6406.27,6444.8,6478.31,6504.74,6516.43,6525.25,6540.3,6547.93,6545.74,6539.77,6516.64,6490.83,6468.75,6456.86,6420.35,6387.09,6350.99,6335.99,6316.76,6296.04,6281.71,6256.64,6225.62,6204.94,6180.6,6153.45,6116.52,6080.6,6044.64,6015.39,5990.11,5963.03,5931.8,5910.62,5899.7,5894.01,5894.6,5897.66,5917.16,5947.87,5982.66,6022.52,6057.98,6084.87,6108.9,6130.35,6148.86,6157.02,6152.78,6143.62,6138.8,6138.99,6138.87,6136.2,6131.37,6131.65,6134.36,6140.33,6151.4,6164.6,6168.13,6180.07,6195.32,6198.55,6198.51,6184.95,6169.65,6159.45,6141.16,6119.39,6088.59,6061.9,6033.31,6003.29,5978.16,5951.35,5916.94,5890.14,5870.62,5859.96,5858.16,5873.61,5886.08,5901.11,5899.71,5888.57,5879.92,5882.75,5882.74,5869.76,5848.93,5837.9,5840,5860.96,5898.51,5935.93,5970.3,5998.65,6041.89,6088.83,6142.99,6191.49,6236,6248.1,6239.43,6210.84,6181.6,6159.48,6127.96,6083.01,6035.56,5992.98,5959.18,5945.22,5947.98,5953.52,5946.24,5944.51,5936.44,5939.68,5943.69,5944.59,5928.08,5905.74,5881,5858.11,5831.83,5814.5,5793.52,5770.01,5749.11,5737.21,5729.1,5732.29,5734.74,5738.46,5735.39,5734.88,5738.79,5737.33,5742.28,5751.46,5765.93,5778.44,5793.81,5817.86,5839.76,5867.28,5905.18,5934.95,5958.69,5982.2,6011.91,6044.41,6070.72,6106.03,6131.97,6148.77,6147.97,6162.56,6169.8,6151.39,6113.63,6055.88,5995.73,5932.38,5879.8,5829.09,5758.67,5539.77,4911.82,3612.47,753.32,58.7,4.23467,4.23267,4.234,4.23267,4.23,4.23133,4.23067,4.234,6.83067,18.0407,33.456,1273.31,1279.19,1277.76,1276.37,1275.18,1271.82,1269.32,1268.03,1266.68,1265.82,1265.57
4702.01,4803.86,4831.65,4799.99,4763.94,4648.41,4591.04,4661.57,4781.4,4888.12,4971.85,5090.15,5208.93,5287.9,5328.44,5200.53,4994.14,4471.77,4283.23,4358.64,4549.82,4929.38,5264.93,5239.35,5189.5,5138.96,5000.43,4846.09,4501.57,4161.48,4225.37,4274.03,5026.17,5176.94,4952.97,5004.4,5009.35,4981.71,4990.57,4995.41,5016.28,5025.78,4960.75,5094.06,5108.45,5104.36,5097.63,5090.31,5076.53,5050,5018.11,4996.49,4975.08,4945.43,4930.96,4922.74,4911.04,4918.05,4947.78,4985.21,5007.73,5018.23,4974.13,4898.78,4839.88,4796.19,4660.86,4463.36,4131.2,3825.81,3583.08,3569.48,3827.81,4522.94,4648.3,4766.96,4864.45,4897.66,4931.15,4807.14,4673.7,4543.3,4654.02,4785.72,5054.58,5134.78,5213.67,5331.49,5336.92,5374.32,5321.58,5275.49,5095.22,5013.18,4942.81,4913.63,4936.95,4884.17,4858.79,4861.44,4776.89,4690.09,4586.81,4677.3,4696.08,4720.32,4687.08,4673.87,4691.2,4688.06,4702.06,4751.03,4839.51,4964.11,4937.22,5009.11,5010.3,5007.47,5000.63,4992.73,4920.4,4927.47,4959,4945.87,4918.61,4939.46,5003.58,5084.03,5172.98,5134.55,4797.47,4607.43,4444.71,4044.41,3681.92,3355.92,3147.66,2690.5,2399.42,2836.56,3545.83,4307.63,4637.38,4958.96,5111.71,5161.49,5121.04,5006.23,4879.16,4827.96,4945.51,5127.7,5171.93,5309.39,5430.47,5432.43,5440.21,5467.1,5466.55,5458.48,5454.42,5459.26,5456.48,5430.15,5412.7,5416.91,5430.51,5451.51,5366.67,5324.73,5265.13,5188.79,5112.69,5071.66,5003.74,5014.19,4972.39,4959.95,4940.56,4908.39,4894.4,4902.24,4925.84,4903.25,4862.89,4826.38,4806.18,4784.13,4761.46,4730.18,4711.8,4650.85,4638.31,4694.43,4761.93,4836.85,4936.13,5066.22,5220.79,5375.37,5589.05,5826.97,5946.57,6049.4,6137.95,6203.19,6264.38,6308.49,6351.99,6392.11,6419.14,6439.65,6468.8,6478.93,6486.95,6494.44,6499.4,6496.68,6489.5,6472.52,6457.44,6443.17,6432.92,6411.57,6372.8,6346.8,6333.09,6318.63,6302.22,6287.31,6256.34,6224.95,6204.56,6185.54,6154.82,6117.98,6083.13,6050.56,6024.18,6002.8,5979.63,5954.29,5934.57,5929.82,5929.1,5935.61,5944.44,5970.43,6006.31,6044.49,6084.82,6118.6,6146.02,6164.56,6178.5,6190.28,6187.67,6175.68,6163.58,6153.06,6151.75,6148.59,6143.22,6136.67,6135.23,6135.68,6141.69,6154.32,6167.94,6174.39,6185.6,6194.31,6194.7,6193.82,6177.66,6161.19,6150.38,6132.92,6111.04,6082.29,6056.91,6029.53,6001.07,5983.13,5961.44,5928.52,5902.29,5883.22,5877.55,5876.19,5893.98,5903.73,5910.16,5902.16,5881.39,5868.48,5864.69,5858.49,5840.35,5816.63,5808.75,5818.02,5846.23,5895.48,5940.28,5980.15,6016.83,6066.69,6122.93,6183.16,6242.03,6287.69,6294.34,6277.14,6241.78,6212.43,6184.22,6144.47,6095.78,6038.01,5983.85,5950.68,5943.96,5946.21,5948.55,5939.65,5936.7,5927.12,5922.01,5927.35,5931.88,5916.94,5899.66,5882.31,5867.19,5851.96,5843.4,5832.37,5817.36,5797.89,5782.16,5776.77,5775.05,5775.22,5775.28,5769.27,5764.39,5764.54,5763.5,5767.59,5774.77,5783.57,5798.63,5813.68,5838.75,5864.87,5894.1,5935.22,5971.49,6000.83,6026.34,6058.9,6092.97,6120.92,6156.72,6181.87,6199.1,6198.9,6212.77,6214.33,6191.46,6152.08,6093.86,6022.14,5953.99,5895.73,5844.6,5773.63,5678.02,5298.88,4142.42,697.283,49.3333,4.234,4.23467,4.23467,4.22933,4.23133,4.22667,4.228,4.23067,7.69933,16.3393,46.4053,1230.83,1280.25,1269.86,1276.68,1275.3,1270.49,1268.25,1266.59,1264.37,1264.23,1263.94
