9000,9000,9000,9000,9000,9000,9000,9000,9000,9000,9000,9000,9000,9000,9000,9000,9000,9000,9000,9000,9000,9000,9000,9000,9000,9000,9000,9000,9000,9000,9000,9000,9000,9000,9000,9000,9000,9000,9000,9000,9000,9000,9000,9000,9000,9000,9000,8905.93,8357.1,7808.49,7369.75,7028.15,6758.1,6551.83,6394.06,6300.95,6291.29,6373.49,6448.64,6690.64,7094.22,7632.27,4261.38,8870.96,9000,9000,9000,9000,8028,4392,4788,4293,6246,7857,8811,9000,9000,9000,9000,9000,9000,9000,9000,9000,9000,9000,9000,9000,9000,9000,9000,9000,9000,9000,9000,9000,9000,9000,9000,9000,9000,9000,9000,9000,9000,9000,9000,9000,9000,9000,9000,9000,9000,9000,9000,9000,9000,9000,9000,9000,8907.32,8868.64,8816.45,8761.51,8723.45,8705.39,8699.69,8668.61,8608.38,8551.77,8525.17,8504.45,8478.06,8450.82,8398.09,8327.11,8249.42,8173.26,8099.89,8022.71,7957.73,7900.98,7826.15,7763.03,7714.58,7679.74,7652.88,7630.8,7614.42,7600.29,7586.27,7572.68,7562.56,7555.66,7543.35,7523.59,7492.57,7480.5,7470.83,7453.99,7452.36,7446.76,7447.69,7448.02,7461,7496.91,7530.86,7570.29,7618.58,7664.22,7721.67,7773.2,7809.85,7837.69,7863.91,7879.34,7878.98,7875.72,7865.78,7842.55,7812.75,7786.23,7755.87,7720.14,7678.85,7649.19,7621.29,7605.77,7599.03,7594.03,7592.23,7595.75,7596.24,7603.25,7610.55,7626.52,7639.89,7648.2,7645.13,7636.62,7626.38,7628.35,7620.08,7608.15,7587.17,7561.02,7535.99,7521.06,7502.1,7479.38,7435.87,7400.57,7381.56,7369.1,7368.22,7358.19,7362.5,7371.41,7405.6,7448.39,7496.71,7532.99,7559.11,7587,7620.5,7655.69,7669.04,7675.35,7667.96,7670.68,7660.6,7654.41,7626.09,7589.94,7534.63,7496.33,7451.27,7411.4,7370.2,7339.5,7308.57,7281.9,7257.17,7256.6,7253.96,7250.69,7260.4,7261.86,7269.89,7289.81,7311.85,7330.27,7351.17,7376.98,7400.24,7417.5,7433.18,7454.38,7437.94,7429.27,7394.18,7292.12,7147.73,6992.15,6825.55,6689.64,6551.21,6424.34,6301.6,6192.3,6138.19,6108.62,6110.87,6171.34,6250.92,6325.53,6400.2,6467.06,6556.25,6652.6,6755.53,6837.56,6893.66,6932.66,6966.86,6999.23,7040.6,7082.59,7119.69,7152.46,7184.27,7205.77,7215.16,7222.52,7223.71,7219.37,7210.63,7196.35,7182.55,7161.84,7134.67,7114.39,7100.43,7089.29,7078.42,7068.41,7069.49,7072.94,7085.34,7082.91,7090.14,7107.9,7119.83,7131.7,7127.03,7111.78,7088.98,7041.74,7010.53,6981.68,6944.82,6909.32,6881.68,6857.27,6828.83,6819.14,6815.48,6797.04,6783.07,6773.29,6773.58,6779.56,6791.73,6811.88,6830.73,6847.69,6862.39,6876.07,6889.69,6905.45,6915.77,6925.97,6938.44,6950.84,6955.62,6950.19,6922.97,6872.53,6818.32,6776.38,6728.92,6679.17,6554.41,6104.07,4530,1204.13,303.916,74.322,25.426,164.139,642.545,1418.14,2235.29,2378.81,2380.26,2376.6,2366.71,2356.75,2348.77,2339.74,2326.8,2313.95,2298.08,2283.81,2267.29,2262.57,2261.36,2265.22,2276.6,2272.78,2280.18,2287.78,2295.06,982.328,183.198,1930.6,355.152,188.898,393.162,1072.78,2663.89,4123.42,4853.71,5686.9,6091.08,6158.67,6183.01,6205.58,6228.84,6262.09,6293.31,6313.56
9000,9000,9000,9000,9000,9000,9000,9000,9000,9000,9000,9000,9000,9000,9000,9000,9000,9000,9000,9000,9000,9000,9000,9000,9000,9000,9000,9000,9000,9000,9000,9000,9000,9000,9000,9000,9000,9000,9000,9000,9000,9000,9000,9000,9000,8800.54,7602.31,9000,8543.63,7971.96,7513.43,7161.67,6850.99,6613.73,6429.04,6313.99,6310.63,6391.02,6462.29,6701.26,7123.75,7672.57,5943.52,8239.45,8829,9000,9000,9000,9000,9000,9000,9000,9000,9000,9000,9000,9000,9000,9000,9000,9000,9000,9000,9000,9000,9000,9000,9000,9000,9000,9000,9000,9000,9000,9000,9000,9000,9000,9000,9000,9000,9000,9000,9000,9000,9000,9000,9000,9000,9000,9000,9000,9000,9000,9000,9000,9000,9000,9000,8891.76,8863.21,8826.32,8766.31,8717.31,8688.71,8672.12,8662.04,8625.92,8562.56,8512.29,8483.11,8464.45,8439.31,8405.26,8351.61,8279.23,8204.22,8131.03,8063.17,7996.38,7937.6,7884.98,7827.85,7773.09,7734.2,7704.33,7686.63,7674.78,7666.41,7656.8,7646.26,7634.7,7628.83,7623.88,7621.41,7591.74,7556.31,7546.11,7536.25,7528.96,7534.39,7525.18,7523.9,7528.14,7542.22,7581.82,7614.07,7649.29,7694.35,7732.48,7786.08,7832.75,7864.97,7883.36,7906.11,7910.82,7904.78,7892.92,7873.79,7844.16,7806.49,7772.91,7737.98,7696.33,7659.1,7628.94,7597.44,7580.76,7564.94,7558.09,7550.98,7549.62,7551.91,7554.27,7557.38,7569.08,7580.33,7585.37,7581.92,7568.17,7554.75,7550,7539.35,7526.78,7507.12,7480.49,7453.81,7437.74,7417.52,7397.88,7368.49,7331.06,7327.73,7319.69,7317.84,7325.74,7336.61,7359.41,7394.89,7442.75,7487.7,7531.66,7554.98,7574.87,7612.91,7637.1,7657.88,7665.35,7661.76,7660.86,7663.08,7646.01,7627.26,7598.42,7546.02,7495.42,7453.13,7422.77,7384.61,7345.73,7322.25,7291.1,7262.56,7258.06,7262.42,7268.2,7274.71,7283.9,7289.15,7304.09,7319.87,7336.71,7352.52,7374.8,7390.98,7403.88,7413.49,7430.6,7420.63,7395.78,7357.65,7248.42,7108.04,6951.87,6790.22,6662.19,6524.1,6400.84,6289.5,6181.92,6126.36,6106.24,6110.47,6170.39,6243.93,6319.23,6394.68,6473.59,6551.03,6642.41,6740.65,6816.09,6865.36,6899.52,6926.86,6955.81,6990.78,7031.29,7065.03,7092.65,7117.51,7138.48,7167.43,7166.84,7183.14,7190.95,7191.43,7182.06,7154.13,7137.74,7121.63,7109.89,7095.61,7085.26,7072.39,7067.94,7067.66,7066.7,7061.59,7070.49,7084.26,7094.07,7115.27,7117.29,7114.33,7102.15,7060.11,7029.74,6999.38,6970.88,6938.3,6902.23,6876.35,6853.91,6830.1,6813.62,6797.09,6804.4,6788.99,6780.42,6780.15,6784.45,6793.51,6811.53,6822.08,6833.48,6841.14,6847.19,6854.17,6863.88,6873.38,6880.79,6890.21,6902.33,6908.92,6905.81,6882.96,6829.7,6773.67,6734.94,6684.77,6626.25,6483.47,5858.81,3896.85,807.376,93.488,17.85,7.662,266.675,1065.76,1888.44,2331.21,2367.15,2363.64,2359.99,2368.05,2357.79,2348.67,2341.51,2326.52,2314.08,2298.17,2281.69,2270.35,2260.22,2258.3,2263.23,2273.44,2275.22,2274.85,2287.87,2293.11,1312.56,89.965,1853.6,366.28,205.18,432.483,1526.73,3304.26,4779.36,5408.14,5956.55,6137.88,6178.36,6198.99,6220.1,6240.98,6263.4,6284.87,6311.82
9000,9000,9000,9000,9000,9000,9000,9000,9000,9000,9000,9000,9000,9000,9000,9000,9000,9000,9000,9000,9000,9000,9000,9000,9000,9000,9000,9000,9000,9000,9000,9000,9000,9000,9000,9000,9000,9000,9000,9000,9000,9000,9000,9000,9000,9000,9000,9000,8768.25,8221.19,7723.43,7339.27,6979.86,6704.07,6476.3,6339.19,6335.32,6406.75,6475.47,6703.88,7134.12,7669.77,8020.09,2981.85,8881.42,9000,9000,9000,9000,9000,9000,9000,9000,9000,9000,9000,9000,9000,9000,9000,9000,9000,9000,9000,9000,9000,9000,9000,9000,9000,9000,9000,9000,9000,9000,9000,9000,9000,9000,9000,9000,9000,9000,9000,9000,9000,9000,9000,9000,9000,9000,9000,9000,9000,9000,9000,9000,9000,9000,9000,8891.3,8843.82,8778,8709.84,8668,8630.2,8600.21,8550.61,8483.34,8432.96,8404.22,8384.42,8353.87,8318.93,8259.7,8188.03,8119.09,8052.51,7992.14,7935.1,7888.89,7857.7,7801.16,7760.02,7728.63,7713.68,7716.38,7707.14,7699.91,7697.66,7690.01,7674.64,7689.77,7688.31,7685.29,7664.95,7618.36,7606.36,7613.79,7608.32,7603.65,7596.31,7598.74,7606.96,7622.97,7664.64,7700.85,7736.46,7775.63,7813.33,7866.59,7909.57,7940.49,7955.15,7971.49,7969.25,7957.56,7943.1,7914.27,7876.64,7831.65,7789.06,7746.39,7699.49,7657.65,7625.51,7584.8,7559.17,7536.3,7520.87,7509.81,7504.54,7499.96,7499.33,7496.75,7506.9,7513.96,7516.96,7513.03,7495.7,7480.29,7472.49,7459.85,7445.62,7424.2,7396.37,7357.46,7332.92,7319.83,7298.27,7271.01,7248.16,7242.71,7246.95,7258.35,7269.04,7296.12,7321.34,7360.96,7414.24,7464.63,7498.37,7523.24,7547.5,7580.94,7610.58,7633.92,7641.25,7633.57,7638.51,7637.32,7630.04,7612.99,7587.98,7544.69,7496.3,7457.94,7427.67,7387.53,7347.85,7318.85,7293.89,7276.94,7280.58,7286.99,7294.07,7302.08,7307.4,7310.27,7324.56,7340.65,7350.5,7364.98,7381.78,7395.04,7400.01,7401.93,7415.43,7407.98,7373.86,7333.6,7219.19,7075.44,6922.47,6759.4,6632.44,6498.85,6379.7,6274.07,6168.99,6106.97,6083.14,6090.05,6149.76,6221.17,6295.47,6368.67,6452.67,6525.88,6610.19,6711.23,6779.11,6827.15,6856.58,6880.4,6906.59,6931.94,6954.33,6990.39,7024.27,7059.72,7093.06,7114.66,7137.88,7152.8,7159.19,7162.37,7158.98,7154.1,7140.9,7129.38,7116.16,7101.21,7092.21,7082.08,7083.96,7075.18,7058.14,7064.42,7068.25,7077.19,7101.16,7107.25,7104.05,7095.4,7071.31,7047.35,7020.08,6991.22,6963.65,6934.5,6900.96,6878.8,6861.27,6840.34,6826.13,6813.03,6799.54,6807.35,6799.8,6794.36,6796.34,6803.24,6815.88,6818.21,6822.59,6820.98,6819.56,6820.66,6825.87,6829.08,6834.77,6843.92,6857.49,6864,6863.74,6845.31,6792.01,6735.88,6696.99,6647.78,6576.87,6423.37,5634.58,3351.16,562.955,60.74,2.609,15.071,428.128,1369.83,2094.85,2363.55,2372.27,2366.32,2362.47,2352.06,2341.54,2332.01,2324.71,2315.58,2305.7,2287.53,2276.34,2261.49,2255.21,2249.54,2250.86,2259.54,2269.7,2271.27,2271.69,2279.21,1775.95,40.406,1904.27,449.233,199.546,490.513,1785.19,3892.97,5265.06,5783.98,6047,6164.99,6176.81,6206.39,6225.96,6242.42,6253.06,6282.74,6303.62
9000,9000,9000,9000,9000,9000,9000,9000,9000,9000,9000,9000,9000,9000,9000,9000,9000,9000,9000,9000,9000,9000,9000,9000,9000,9000,9000,9000,9000,9000,9000,9000,9000,9000,9000,9000,9000,9000,9000,9000,9000,9000,9000,9000,9000,9000,9000,9000,8896.13,8384.79,7953.71,7506.55,7108.27,6798.5,6533.99,6369.03,6361.01,6419.51,6481.93,6693.03,7116.82,7630.34,7610.65,7323.52,8888.45,9000,9000,9000,9000,9000,9000,9000,9000,9000,9000,9000,9000,9000,9000,9000,9000,9000,9000,9000,9000,9000,9000,9000,9000,9000,9000,9000,9000,9000,9000,9000,9000,9000,9000,9000,9000,9000,9000,9000,9000,9000,9000,9000,9000,9000,9000,9000,9000,9000,9000,9000,9000,9000,9000,9000,9000,8881.93,8793.13,8697.25,8631.41,8568.08,8512.91,8437.32,8363.1,8314.98,8283.95,8266.13,8233.12,8195.82,8141.5,8075.38,8016.88,7959,7914,7868.08,7825.59,7802.85,7767.99,7739.93,7733.01,7725.94,7735.85,7740.62,7743.62,7745.72,7745.65,7743.56,7750.06,7756.35,7754.23,7740,7706.63,7692.23,7701.81,7695.34,7694.71,7687.79,7690.53,7700.78,7712.6,7755.05,7783.7,7819.35,7859.51,7895.96,7946.55,7990.51,8023.51,8046.63,8054.56,8047.91,8028.26,8006.47,7976.72,7938.01,7875.97,7825.93,7781.44,7727.84,7683.56,7643.05,7592,7555.55,7523.33,7494.63,7472.42,7453.93,7443.07,7435.19,7424.67,7429.41,7444.81,7451.19,7444.58,7427.06,7408.71,7401.06,7382.47,7362.85,7334.8,7302.34,7275.55,7255.85,7241.51,7223.62,7196.65,7183.98,7170.21,7177.75,7200.06,7220.44,7249.5,7285.5,7329.9,7390.65,7440.4,7483.72,7510.24,7532.17,7564.68,7596.81,7618.69,7626,7621.79,7627.8,7632.56,7626.75,7616,7594.04,7548.05,7501.06,7466.81,7436.87,7400.67,7368.65,7341.81,7319.86,7303.94,7311.94,7319.06,7323.7,7333.81,7337.42,7340.1,7354.27,7370.45,7381.32,7388.29,7400.27,7412.85,7411.32,7409.23,7416.18,7405.32,7377.37,7322,7200.48,7051.53,6900.68,6739.3,6606.64,6471.87,6355.23,6254.32,6151.19,6089.77,6068.69,6076.94,6133.84,6205.21,6277.27,6351.42,6417.9,6489.2,6573.8,6675.27,6755.05,6792.64,6821.57,6833.85,6850.74,6873.13,6906.29,6944.3,6979.32,7017.1,7054.82,7084.31,7110.99,7131.59,7142.23,7152.42,7154.84,7154.94,7147.3,7137.55,7129.2,7117.8,7108.85,7110.64,7100.51,7078.23,7074.14,7073.41,7082.22,7090.87,7095.76,7099.51,7097.56,7080.34,7068.36,7048.09,7023.32,6994.71,6973.02,6945.52,6919.73,6897.97,6881.92,6866.48,6852.5,6840.24,6828.31,6814.38,6812.75,6813.3,6811.24,6814.34,6821.2,6817.65,6814.66,6808.04,6803.55,6797.22,6794.9,6795.67,6792.29,6799.54,6800.63,6817.55,6827.28,6811.04,6762.52,6708.01,6668.68,6621.59,6550.49,6336.52,5109.3,2616.61,393.699,40.587,2.62,35.338,610.285,1641.73,2261.88,2372.61,2374.14,2368.38,2364.52,2354.08,2343.21,2333.25,2325.65,2313.7,2303.75,2285.17,2273.46,2254.79,2250.05,2249.85,2247.56,2259.73,2261.54,2261.93,2267.98,2269.65,2126.35,40.491,1946.84,682.865,135.327,402.388,1829.19,4124.21,5419.92,5845.53,6092.59,6190.1,6203.16,6218.82,6232.59,6246.79,6266.37,6286.99,6303.94
9000,8892,9000,9000,9000,9000,9000,9000,9000,9000,9000,9000,9000,9000,9000,9000,9000,9000,9000,9000,9000,9000,9000,9000,9000,9000,9000,9000,9000,9000,9000,9000,9000,9000,9000,9000,9000,9000,9000,9000,9000,9000,9000,9000,9000,9000,9000,9000,9000,8566.28,8227.65,7709.01,7258.24,6901.92,6605.62,6398.82,6378.92,6425.11,6481.86,6684.97,7080.11,7560.08,8134.34,8758.2,9000,9000,9000,9000,9000,9000,9000,9000,9000,9000,9000,9000,9000,9000,9000,9000,9000,9000,9000,9000,9000,9000,9000,9000,9000,9000,9000,9000,9000,9000,9000,9000,9000,9000,9000,9000,9000,9000,9000,9000,9000,9000,9000,9000,9000,9000,9000,9000,9000,9000,9000,9000,9000,9000,9000,9000,9000,8909.84,8805.55,8673.58,8579.97,8480.29,8386.4,8280.37,8197.58,8149.1,8117.45,8103.11,8076.82,8044.42,7991.42,7944.3,7899.33,7860.4,7830.38,7798.59,7772.37,7754.91,7748.57,7735.3,7731.27,7734.32,7753.68,7769.54,7783.19,7800.28,7807.34,7812.06,7823.77,7836.19,7839.16,7825.94,7796.24,7787.65,7787.2,7773.35,7793.45,7785.98,7790.28,7802.75,7825.72,7861.17,7891.53,7920.64,7957.99,7992.51,8039.84,8086.63,8117.76,8132.54,8138.3,8133.15,8108.16,8084.77,8053,7997.45,7934.67,7873.12,7815.25,7758.59,7711.22,7665.04,7603.67,7556.81,7508.21,7471.56,7443.5,7414.86,7396.18,7379.94,7359.84,7360.93,7379.16,7376.37,7377.1,7358.53,7336.26,7313.29,7303.69,7287.99,7256.21,7233.6,7201.29,7181.03,7163.46,7149.15,7127.16,7107.04,7103.4,7112.26,7141.01,7165.52,7202.96,7246.2,7283.69,7347.11,7403.89,7451.69,7482.02,7506.29,7536.69,7566.02,7590.58,7596.7,7594.16,7603.89,7607.99,7605.88,7595.79,7576.87,7535.01,7493.78,7463.46,7438.58,7407.56,7374.34,7352.85,7329.95,7317.28,7324.38,7332.28,7339.4,7345.06,7348.84,7352.97,7367.96,7384.06,7394.31,7402.11,7412.23,7420.48,7414.15,7408.62,7409.2,7393.69,7354.01,7297.87,7173.42,7020.79,6859.58,6699.14,6573.3,6440.45,6327.36,6231.45,6134.27,6069.48,6053.25,6062.6,6115,6186.34,6258.65,6330.35,6395.67,6459.27,6559.42,6654.3,6712.18,6755.46,6780.45,6792.31,6812.59,6846.74,6872.45,6903.72,6937.92,6976.8,7018.6,7054.27,7085.91,7112.34,7129.27,7143.24,7148.88,7155.27,7152.21,7147.93,7143.74,7133.25,7137.56,7129.38,7111.17,7094.32,7090.85,7094.06,7093.93,7096.72,7097.73,7100.69,7089.45,7078.83,7067.14,7048.84,7027.92,7000.77,6980.14,6955.26,6932.98,6916.73,6902.99,6883.16,6871.17,6858.96,6848.43,6831.44,6821.58,6815.63,6814.46,6814.46,6819.39,6816.61,6806.38,6794.34,6784.46,6771.98,6766.93,6758.4,6758.57,6759.17,6765.95,6784.46,6787.66,6783.92,6740.31,6688.46,6639.49,6589.63,6526.4,6393.94,5241.81,3078.22,554.909,49.529,18.044,33.9,470.047,1732.15,2236.6,2373.43,2375.21,2369.99,2366.49,2356.49,2345.5,2334.79,2327.2,2315.29,2303.26,2291.43,2268.44,2249.25,2243.51,2243.08,2247.94,2252.56,2254.13,2253.17,2260.82,2267.24,2258.57,41.96,2174.87,1257.63,39.984,289.101,1628.77,4117.74,5451.23,5754.31,6094.71,6215.21,6219.23,6234.46,6238.12,6254.34,6268.3,6283.8,6293.94
9000,8883,9000,9000,9000,9000,9000,9000,9000,9000,9000,9000,9000,9000,9000,9000,9000,9000,9000,9000,9000,9000,9000,9000,9000,9000,9000,9000,9000,9000,9000,9000,9000,9000,9000,9000,9000,9000,9000,9000,9000,9000,9000,9000,9000,9000,9000,9000,9000,9000,8491.8,7905.45,7434.49,7003.66,6672.56,6433.79,6388.89,6416.47,6476.68,6637.83,6992.91,7432.47,7998.18,8625.82,9000,9000,9000,9000,9000,9000,9000,9000,9000,9000,9000,9000,9000,9000,9000,9000,9000,9000,9000,9000,9000,9000,9000,9000,9000,9000,9000,9000,9000,9000,9000,9000,9000,9000,9000,9000,9000,9000,9000,9000,9000,9000,9000,9000,9000,9000,9000,9000,9000,9000,9000,9000,9000,9000,9000,9000,9000,9000,8807.21,8636.53,8499.94,8354.62,8217.08,8075.08,7995.21,7945.56,7915.24,7908.63,7887.22,7865.92,7828.46,7799.55,7773.71,7752.14,7738.88,7726.06,7707.9,7715.48,7725.23,7729.1,7731.53,7745.06,7773.11,7795.45,7818.63,7842.23,7856.31,7866.22,7889.78,7911.54,7923.09,7912.66,7911.27,7897.83,7892.71,7892.37,7903.99,7897.62,7904.6,7919.83,7946.48,7984.2,8013.6,8046.99,8071.55,8098.69,8148.3,8190.28,8222.11,8235.79,8239.76,8240.27,8211.36,8184.33,8142.67,8078.83,7999.68,7931.9,7863.77,7798.63,7750.76,7693.95,7620.95,7559.01,7498.44,7449.17,7405.98,7367.1,7336.57,7304.75,7286.9,7286.07,7291.11,7297.52,7292.22,7274.81,7254.15,7237.36,7218.24,7191.79,7170.34,7149.53,7117.08,7095.55,7077.66,7061.63,7043.69,7027.9,7025.85,7043.59,7058.18,7086.47,7133.43,7172.33,7227.6,7296.19,7356.73,7407.33,7438.37,7465.25,7494.31,7524.37,7550.37,7555.43,7553.02,7563.56,7571.25,7568.9,7559.8,7544.26,7504.46,7468.83,7443.46,7419.53,7394.33,7367.35,7348.15,7327.71,7316.74,7325.21,7331.4,7339.81,7345.03,7350.08,7354.42,7368,7382.49,7394.45,7403.26,7412.78,7420.32,7414.56,7403.57,7399.21,7382.03,7350.33,7274.02,7143.95,6987.44,6823.31,6684.44,6540.48,6409.97,6299.66,6208.46,6112.72,6052.32,6033.92,6048.69,6096.2,6163.27,6235.45,6306.64,6370.03,6453.66,6541.18,6622.28,6691.33,6724.14,6747.7,6761.28,6781.39,6805.56,6829,6860.73,6893.97,6935.66,6979.83,7019.54,7058.62,7086.81,7110.26,7131.54,7145.31,7159.45,7162.54,7164.81,7176.42,7170.6,7164.57,7156.77,7132.62,7128.75,7123.79,7118.33,7114.98,7106.16,7104.82,7102.43,7084.98,7077.72,7067.73,7052.78,7031.99,7009.92,6991.56,6968.3,6952.33,6937.02,6923.28,6905.1,6890.79,6878.29,6868.1,6851.08,6840.41,6828.12,6819.15,6815.45,6818.34,6811.02,6803.52,6791.89,6770.81,6754.12,6737.4,6734.93,6725.27,6723.18,6739.47,6750.04,6756.97,6749.99,6712.28,6661.68,6619.11,6570.75,6512.56,6328.79,5487.92,3563.17,781.353,110.586,24.019,59.612,263.17,772.927,1553.29,2369.59,2371.97,2369.9,2366.77,2357.82,2347.18,2336.23,2329,2317.26,2302.81,2288,2274.09,2253.75,2244.76,2246.79,2240.5,2250.36,2251.57,2249.13,2255.96,2261.33,2266.18,116.302,2258.28,1988.81,184.429,103.701,1163.45,3444.34,5107.87,5612.15,6049.76,6187.72,6175.48,6192.83,6203.16,6203.26,6221.97,6227.64,6240.68
8901,8748,8397,8847,8901,9000,9000,9000,9000,9000,9000,9000,9000,9000,9000,9000,9000,9000,9000,9000,9000,9000,9000,9000,9000,9000,9000,9000,9000,9000,9000,9000,9000,9000,9000,9000,9000,9000,9000,9000,9000,9000,9000,9000,9000,9000,9000,9000,9000,9000,8327.94,7919.11,7575.37,7111.1,6738.52,6469.88,6393.56,6408.92,6465.23,6587.85,6901.91,7314.16,7845.64,8470.06,8891.38,9000,9000,9000,9000,9000,9000,9000,9000,9000,9000,9000,9000,9000,9000,9000,9000,9000,9000,9000,9000,9000,9000,9000,9000,9000,9000,9000,9000,9000,9000,9000,9000,9000,9000,9000,9000,9000,9000,9000,9000,9000,9000,9000,9000,9000,9000,9000,9000,9000,9000,9000,9000,9000,9000,9000,9000,9000,8799.11,8580.58,8400.24,8201.5,8016.65,7858.63,7779.79,7727.72,7700.66,7703.19,7693.36,7682.44,7660.95,7647.51,7642.13,7635.53,7638.67,7644.24,7639.82,7664.43,7688.16,7703.74,7717.51,7738.31,7769.57,7797.22,7822.03,7852.5,7870.17,7883.76,7910.14,7938.84,7955.94,7972.48,7965.78,7958.81,7963.99,7974.15,7990.92,7996.01,8007.74,8028.92,8057.53,8098.82,8131.25,8151.23,8173.98,8201.4,8246.08,8291.51,8324.27,8341.88,8346.35,8338.94,8326.96,8292.87,8246.76,8178.14,8091.25,8012.16,7936.9,7857.33,7791.79,7731.59,7642.64,7567.51,7489.66,7424.91,7367.07,7314.98,7267.65,7235.72,7210.99,7192.52,7207.92,7207.37,7202.58,7192.03,7171.76,7153.39,7124.99,7113.37,7094.82,7068.87,7044.69,7023.85,7004.97,6991.44,6976.39,6965.06,6971.02,6972.37,6989.65,7020.05,7060.03,7108.53,7164.3,7233.66,7297.63,7348.82,7381.22,7411.24,7442.48,7470.22,7494.68,7500.88,7501.57,7511.72,7517.07,7514.79,7509.61,7497.88,7464.94,7434.5,7415.59,7398.52,7375.53,7355.4,7338.66,7323.39,7312.83,7321.56,7327.87,7338.51,7344.61,7348.1,7351.73,7366.28,7379.63,7395.12,7407.65,7417.19,7425.48,7420.39,7411.48,7405.11,7386.36,7353.54,7281.48,7136.67,6973.14,6824.6,6663.07,6519.6,6391.15,6280.99,6191.02,6095.83,6038.46,6015.79,6035.3,6077.18,6140.35,6208.1,6277.26,6353.2,6420.71,6505.74,6595.92,6660.93,6686.93,6714.26,6720.25,6744.88,6769.47,6783.14,6820.48,6854.6,6897.6,6941.92,6990.22,7029.9,7067.64,7097.01,7124.62,7144.99,7168.72,7181.82,7187.66,7202.63,7203.51,7196.63,7185.86,7179.89,7167.82,7154.93,7144.33,7135.69,7123.97,7116.87,7102.39,7094.52,7084.79,7073.24,7059.67,7043.83,7019.41,7000.84,6981.6,6969.75,6957.06,6945.83,6925.98,6911.98,6897,6885.97,6865.09,6854.76,6840.24,6828.26,6824.71,6823.03,6819.61,6809.15,6788.26,6764.05,6738.2,6725.91,6714.67,6704.5,6709.13,6730.57,6741.84,6757.95,6755.7,6716,6670.78,6628,6569.48,6494.83,6171.43,5187.58,3666.9,938.602,172.665,41.067,56.472,223.239,622.931,1303.26,2359.14,2367.64,2368.65,2365.96,2358.3,2348.35,2337.18,2330.29,2316.09,2304.4,2288.79,2274.29,2253.36,2243.15,2239.71,2238.21,2247.44,2254.43,2245.49,2250.94,2254.76,2258.97,820.719,2255.9,2232.51,922.363,72.804,705.964,2917.13,4922.23,5485.08,6007.82,6188.55,6167.88,6194.1,6189.79,6189.3,6190.96,6195.88,6180.17
7479,6984,7173,7029,8127,8541,8406,8226,8784,8451,8577,8865,8838,9000,9000,8784,8892,9000,9000,9000,9000,9000,9000,9000,9000,9000,9000,9000,9000,9000,9000,9000,9000,9000,9000,9000,9000,9000,9000,9000,9000,9000,9000,9000,9000,9000,9000,9000,9000,9000,8034.43,7555.44,7614.4,7153.98,6776.9,6485.12,6391.38,6360.63,6446.3,6563.92,6847.66,7227.75,7727.83,8328.13,8840.7,9000,9000,9000,9000,9000,9000,9000,9000,9000,9000,9000,9000,9000,9000,9000,9000,9000,9000,9000,9000,9000,9000,9000,9000,9000,9000,9000,9000,9000,9000,9000,9000,9000,9000,9000,9000,9000,9000,9000,9000,9000,9000,9000,9000,9000,9000,9000,9000,9000,9000,9000,9000,9000,9000,9000,9000,9000,8798.86,8534.17,8310.91,8059.19,7833.87,7644.94,7572.92,7519.06,7496.79,7505.64,7509.18,7505.71,7499.73,7502.67,7511.13,7520.11,7539.02,7559.2,7579.63,7602.21,7638.83,7663.03,7685.73,7710.81,7746.61,7773.05,7798.73,7828.17,7848.71,7867.8,7900.06,7929.58,7962.95,7977.54,7977.94,7992.94,8009.16,8030.5,8054.27,8069.41,8089,8115.7,8145.14,8183.98,8214.8,8236.28,8264.34,8285.77,8328.25,8373.83,8406.34,8428.06,8444.93,8444.47,8423.52,8395.83,8344.75,8279.22,8191.03,8099.5,8017.99,7927.56,7842.19,7764.68,7664.17,7577.1,7482.91,7399.83,7326.66,7261.56,7211.45,7173.12,7128.46,7120.95,7120.25,7122.22,7125.04,7115.71,7099.73,7077,7056.77,7046.58,7033.43,7010.58,6987.09,6967.32,6947.71,6936.62,6926,6927.23,6922.5,6922.13,6938.61,6966.73,7009.23,7055.23,7110.09,7178.45,7241.87,7294.32,7327.6,7358.5,7389.13,7416.81,7440,7450.5,7451.03,7461.55,7463.98,7466.83,7462.9,7453.55,7427.21,7402.85,7383.62,7373.35,7355.69,7339,7326.83,7310.66,7302.25,7310.46,7318.33,7327.01,7334.41,7340.5,7344.49,7361.12,7376,7393.46,7405.5,7416.92,7432.19,7431.2,7426.14,7420.36,7403.19,7373.63,7313.98,7166.11,6991.83,6835.4,6668.57,6519.18,6389.1,6275.34,6186.16,6086.69,6025.73,6000.21,6025.28,6058.78,6115.61,6180.78,6256.8,6316.92,6391.76,6471.89,6569.23,6627.76,6656.86,6693.84,6708.02,6717.74,6739.15,6753.14,6792.83,6824.82,6866.78,6916.32,6965.91,7015.56,7056.54,7089.92,7123.26,7151.73,7182.48,7202.59,7226.24,7236.95,7246.14,7231.39,7231.52,7223.69,7204.41,7184.81,7168.58,7156.99,7140.61,7118.84,7111.74,7102.66,7091.52,7081.61,7073.48,7057.95,7035.81,7019.46,6999.88,6988.71,6978.43,6965.31,6945.23,6928.6,6915.69,6900.09,6877.74,6867.77,6848.89,6831.42,6822.91,6820.04,6813.51,6800.21,6780.46,6748.29,6728.07,6706.86,6696.33,6699.99,6696.75,6717.93,6733.19,6750.63,6748.18,6716.33,6673.77,6643.48,6573.11,6466.58,6207.69,5425.67,4064.94,1300.52,284.64,60.563,40.216,142.046,388.386,961.79,2322.85,2364.85,2366.73,2364.56,2357.92,2348.72,2338.09,2331.37,2317.21,2305.54,2286.89,2274.22,2253.19,2241.84,2238.06,2236.24,2244.55,2250.93,2246.72,2245.22,2260,2251.76,2119.7,2252.05,2252.54,1854.08,86.786,495.563,2801.71,4835.24,5474.53,5998.16,6159.82,6153.44,6184.09,6183.41,6155.69,6170.41,6159.74,6157.97
8703,8766,8523,8901,8865,8865,8856,9000,9000,9000,8883,9000,9000,9000,9000,9000,9000,9000,9000,9000,9000,9000,9000,9000,9000,9000,9000,9000,9000,9000,9000,9000,9000,9000,9000,9000,9000,9000,9000,9000,9000,9000,9000,9000,9000,9000,9000,9000,9000,9000,8465.44,8102.48,7600.23,7151.49,6780.3,6489.32,6381.29,6338.28,6423.9,6518.41,6774.89,7132.41,7608.04,8187,8770.75,9000,9000,9000,9000,9000,9000,9000,9000,9000,9000,9000,9000,9000,9000,9000,9000,9000,9000,9000,9000,9000,9000,9000,9000,9000,9000,9000,9000,9000,9000,9000,9000,9000,9000,9000,9000,9000,9000,9000,9000,9000,9000,9000,9000,9000,9000,9000,9000,9000,9000,9000,9000,9000,9000,9000,9000,9000,8816.79,8516.27,8244.58,7946.22,7684.93,7471.16,7395.68,7329.62,7303.87,7324.28,7337.47,7345,7347.86,7361.88,7383.88,7401.77,7426.52,7461.47,7495.38,7535.18,7577.52,7609.17,7637.52,7669.69,7702.03,7727.93,7738.97,7772.92,7800.17,7825.35,7880.08,7922.37,7945.23,7967.93,7986.57,8010.91,8038.02,8070.4,8104.74,8128.43,8158.85,8186.73,8216.32,8251.82,8287.73,8313.25,8340.13,8365.47,8406.66,8439.52,8475.4,8509.11,8523.44,8521.63,8507.91,8482.7,8441.32,8378.7,8289.52,8189.94,8087.82,7984.69,7892.6,7794.97,7684.59,7575.63,7468.89,7370.21,7283.89,7213.17,7151.19,7088.44,7049.52,7028.98,7026.86,7029.21,7036.83,7038.83,7029.24,7008.66,7000.08,6997.65,6986.4,6974.28,6952.86,6934.43,6925.32,6914.92,6906.94,6895.78,6893.81,6898.55,6913.25,6938.99,6976.32,7025.64,7076.93,7135.21,7202.21,7254.42,7290.64,7312.56,7340.28,7361.47,7386.92,7396.9,7393.66,7414.42,7417.24,7415.74,7414.06,7395.1,7373.75,7354.5,7340.33,7330.33,7319.17,7310.59,7298.59,7287.06,7279.75,7292.52,7301.24,7312.74,7321.51,7329.06,7340.74,7354.75,7372.69,7393.31,7409.49,7424.05,7437.74,7440.4,7439.85,7438.7,7424.79,7398.14,7348.27,7215.53,7027.91,6868.85,6696.62,6539.04,6402.58,6284.61,6184.23,6081.18,6016.62,5986.94,6018.78,6052.17,6105.28,6171.23,6245.39,6306.25,6372.96,6452.89,6540.41,6596.96,6641.5,6669.76,6683.53,6700.89,6715.84,6729.93,6768.85,6801.06,6844.07,6893.34,6948.36,7000.72,7045.99,7086.95,7125.82,7159.14,7198.48,7237.15,7262.63,7276.82,7271.3,7274.53,7257.89,7264.94,7243.15,7219.78,7200.14,7179.25,7155.69,7146,7135.47,7124.04,7111.91,7102.49,7093.39,7075.25,7050.54,7029.85,7004.23,6990.88,6975.83,6957.61,6936.03,6918.87,6903.14,6888.69,6865.93,6856.55,6838.22,6815.73,6807.54,6801.81,6802.73,6783.53,6764.92,6740.34,6720.8,6709.58,6705.94,6701.71,6707.97,6722.37,6744.34,6749.54,6761.91,6745.66,6708.75,6666.03,6631.91,6569.43,6488.94,6250.67,5547.5,2662.75,989.568,246.499,17.016,32.247,96.823,364.373,2073.79,2356.73,2363.77,2362.55,2357.28,2348.47,2338.26,2331.67,2319.82,2306.41,2287.49,2274.78,2259.24,2246.87,2236.93,2234.51,2241.42,2259.23,2254,2257.07,2259.3,2261.83,2262.7,2253.78,2252.8,2203.44,221.068,333.705,2604.83,4652.77,5238.74,5840.45,6097.12,6102.6,6122.63,6134.97,6094.79,6102.88,6100.94,6103.15
9000,9000,9000,9000,9000,8730,8649,9000,9000,9000,8892,9000,9000,9000,9000,9000,9000,9000,9000,9000,9000,9000,9000,9000,9000,9000,9000,9000,9000,9000,9000,9000,9000,9000,9000,9000,9000,9000,9000,9000,9000,9000,9000,9000,9000,9000,9000,9000,9000,9000,8613.74,8062.07,7560.28,7134.93,6774.65,6489.47,6371.06,6324.24,6391.66,6503.56,6743,7093.64,7560.83,8129.48,8755.5,9000,9000,9000,9000,9000,9000,9000,9000,9000,9000,9000,9000,9000,9000,9000,9000,9000,9000,9000,9000,9000,9000,9000,9000,9000,9000,9000,9000,9000,9000,9000,9000,9000,9000,9000,9000,9000,9000,9000,9000,9000,9000,9000,9000,9000,9000,9000,9000,9000,9000,9000,9000,9000,9000,9000,9000,9000,8848.62,8532.58,8219.91,7883.31,7591,7358.53,7268.94,7183.42,7150.85,7172.35,7192.71,7211.39,7224.05,7246.83,7276.22,7303.31,7340,7387.02,7424.64,7461.58,7501.7,7536.99,7570.63,7607.33,7647.63,7672.21,7695.73,7720.82,7746.38,7802.82,7848.28,7882.85,7907.63,7929.43,7959.65,7991.01,8028.6,8062.47,8101.57,8131.82,8165,8198.25,8233.73,8269.69,8304.82,8330.86,8361.73,8389.76,8430.86,8474.18,8515.93,8544.64,8563.81,8566.43,8557.11,8537.19,8501.99,8442.55,8355.53,8250.42,8142.52,8027.59,7924.35,7818.16,7697.58,7579.87,7459.99,7346.54,7251.21,7171.84,7101.92,7039.84,6989.99,6964.24,6957.33,6961.78,6973.46,6980.06,6975.02,6968.24,6960.6,6963.56,6959.43,6945.76,6926.52,6913.66,6898.26,6890.66,6886.52,6879.46,6878.14,6887.2,6902.65,6925.56,6966.29,7012.67,7067.06,7123.75,7181.55,7227,7258.55,7295.55,7309.51,7333.23,7352.15,7363.55,7364.47,7376.37,7380.46,7379,7375.21,7364.22,7337.98,7324.77,7309.5,7305.04,7297.65,7289.28,7282.46,7272.06,7266.82,7276.68,7286.08,7299.94,7310.71,7320.25,7330.08,7347.7,7367.92,7390.76,7406.98,7421.81,7440.57,7444.85,7448.75,7452.95,7442.67,7425.99,7389.07,7283.93,7075.01,6909.88,6735,6572.64,6424.27,6299.3,6193.94,6078.9,6008.6,5986.44,6021.61,6041.28,6096.71,6158.31,6227.12,6287.16,6355.14,6427.94,6515.48,6573.28,6614.78,6664.45,6680.25,6696.32,6719.94,6740.95,6776.3,6799.12,6840.44,6882.18,6940.29,6995.83,7043.3,7085.04,7129.54,7168.84,7225.21,7263.77,7286.22,7295.8,7302.07,7294.76,7302.5,7294.51,7269.53,7242.11,7215.03,7184.73,7163.52,7148.24,7135.17,7120.75,7105.98,7094.52,7080.73,7060.19,7032.03,7007.96,6980.12,6964.34,6950.65,6932.32,6912.95,6893.91,6879.8,6866.39,6841.72,6829.89,6808.37,6786.93,6773.96,6768.22,6766.09,6755.77,6740.42,6724.6,6709.72,6703.42,6701.72,6698.86,6708.18,6724.29,6746.43,6755.29,6770.95,6761.44,6732.67,6702.63,6670.06,6610.7,6575.58,6496.73,6223.39,4335.25,2412.59,1227.89,83.952,6.252,13.178,87.292,1272.2,2325.11,2360.39,2360.46,2356.11,2347.97,2338.33,2331.71,2319.82,2306.18,2299.26,2283.96,2270.31,2257.35,2253.18,2250.94,2256.37,2255.52,2248.9,2249.08,2251.35,2254.48,2254.15,2244.63,2241.83,2221.61,363.649,358.418,2551.73,4717,5279.67,5785.91,6045.71,6122.89,6151.7,6163.65,6150.11,6135.18,6125.38,6099.17
9000,9000,9000,9000,9000,8892,9000,9000,9000,9000,9000,9000,9000,9000,9000,9000,9000,9000,9000,9000,9000,9000,9000,9000,9000,9000,9000,9000,9000,9000,9000,9000,9000,9000,9000,9000,9000,9000,9000,9000,9000,9000,9000,9000,9000,9000,9000,9000,9000,9000,8508.74,7983.11,7509.87,7111.62,6754.68,6484.03,6358.67,6318.3,6387.39,6504.79,6739.49,7086.54,7547.86,8109.55,8760.46,9000,9000,9000,9000,9000,9000,9000,9000,9000,9000,9000,9000,9000,9000,9000,9000,9000,9000,9000,9000,9000,9000,9000,9000,9000,9000,9000,9000,9000,9000,9000,9000,9000,9000,9000,9000,9000,9000,9000,9000,9000,9000,9000,9000,9000,9000,9000,9000,9000,9000,9000,9000,9000,9000,9000,9000,9000,8888.95,8587.01,8240.98,7885.14,7585.79,7352.14,7261.07,7173.88,7140.8,7149.74,7170.44,7186.71,7196.5,7215.81,7246.8,7272.88,7299.07,7350.7,7383.5,7419.56,7458.48,7491.67,7526.58,7564.44,7610.98,7636.61,7662.95,7703.67,7741.69,7777.62,7820.09,7849.93,7869.78,7890.96,7916.55,7944.87,7976.54,8002.11,8033.64,8058.49,8087.7,8119.74,8153.38,8192.69,8230.91,8265.65,8308.08,8350.22,8402.33,8463.84,8513.69,8553.29,8579.47,8590.48,8588.05,8573.59,8542.4,8484.92,8398.49,8290.53,8172.61,8052.26,7942.6,7826.69,7701.42,7577.38,7450.15,7331.56,7231.2,7146.12,7075.11,7009.27,6957.7,6926.14,6913.05,6921.11,6928.9,6936.44,6933.59,6929.08,6927.09,6932.55,6935.61,6930.52,6913.88,6908.31,6897.97,6893.8,6891.7,6889.06,6884.22,6890.9,6904.44,6932.65,6968.17,7004.21,7047.67,7110.38,7161.39,7204.4,7232.62,7258.56,7278.28,7300.46,7316.79,7328.36,7329.93,7328.08,7329.06,7327.88,7331.9,7320.61,7297.71,7286.1,7273.02,7266.45,7262.16,7257.11,7248.95,7238.1,7232.84,7238.05,7242.53,7254.06,7259.45,7266.77,7277.79,7294.53,7310.68,7334.63,7354.32,7372.21,7391.96,7399.94,7408.01,7420.87,7420.15,7411.15,7384.99,7292.91,7088.5,6921.85,6750.82,6584.56,6436.13,6307.87,6197.44,6077.61,6000.62,5990.31,6014.57,6040.79,6087.06,6150.36,6217.79,6278.74,6347.67,6427.6,6509.09,6575.49,6631.14,6668.91,6678.99,6697.13,6719.82,6747.09,6783.49,6804.1,6844.05,6892.08,6942.53,6998.71,7039.43,7083.32,7126.48,7180.58,7230.05,7266.26,7271.98,7302.58,7297.58,7308.04,7310.94,7293.55,7266.27,7232.07,7200.9,7163.09,7140.65,7114.94,7094.7,7076.93,7059.19,7044.71,7025.9,7007.19,6976.95,6951.15,6919.29,6906.2,6889.12,6872.83,6850.27,6833.51,6819.66,6803.82,6780.12,6768.05,6747.52,6724.16,6711.56,6706.14,6701.3,6699.39,6692.58,6692.45,6687.53,6687.36,6690.64,6701.21,6713.19,6725.32,6749.63,6759,6778.86,6776.83,6755.64,6728.23,6698.95,6661.66,6605.13,6555.5,6463.62,5646.92,4276.96,2639.91,480.063,7.17,0,14.412,408.1,1961.58,2356.23,2357.05,2353.85,2346.51,2337.46,2347.72,2337.94,2322.24,2306.38,2286.65,2270.19,2256.52,2251.57,2249.25,2253.1,2251.7,2242,2241.37,2242.3,2247.26,2246.32,2236.32,2232.34,2220.4,623.845,280.642,2191.9,4475.79,5168.96,5672.84,5933.68,6009.83,6087.18,6105.94,6108.73,6152.03,6096.37,6089.62
9000,9000,9000,9000,9000,9000,9000,9000,9000,9000,9000,9000,9000,9000,9000,9000,9000,9000,9000,9000,9000,9000,9000,9000,9000,9000,9000,9000,9000,9000,9000,9000,9000,9000,9000,9000,9000,9000,9000,9000,9000,9000,9000,9000,9000,9000,9000,9000,9000,8886.96,8356.32,7870.84,7431.8,7059.11,6730.38,6459.71,6335.1,6323.38,6395.03,6518.51,6768.48,7124.96,7600.36,8183.04,8831.48,9000,9000,9000,9000,9000,9000,9000,9000,9000,9000,9000,9000,9000,9000,9000,9000,9000,9000,9000,9000,9000,9000,9000,9000,9000,9000,9000,9000,9000,9000,9000,9000,9000,9000,9000,9000,9000,9000,9000,9000,9000,9000,9000,9000,9000,9000,9000,9000,9000,9000,9000,9000,9000,9000,9000,9000,9000,8901.44,8609.23,8254.86,7905.24,7612.07,7378.89,7286.04,7198.83,7164.74,7167.64,7182.29,7193.34,7202.95,7223.79,7252.25,7279.53,7302.17,7351.75,7385.23,7415.25,7449.69,7485.72,7518.34,7560.23,7604.88,7632.34,7654.96,7695.12,7733.42,7767.65,7811.55,7836.73,7848.09,7862.74,7881.41,7906.15,7932.15,7951.21,7969.05,7986.26,8010.94,8042.57,8072.72,8109.52,8153.71,8194.08,8244.04,8298.85,8368.35,8437.81,8497.88,8547.55,8579.95,8597.6,8599.65,8589.75,8559.25,8506.33,8415.85,8304.45,8179.16,8052.79,7942.35,7820.56,7703.77,7579.31,7452.52,7331.49,7230.62,7145.05,7069.75,7002.16,6949.08,6913.09,6899.67,6900.6,6910.19,6919.06,6918.62,6912.98,6913.96,6925.98,6930.76,6930.23,6921.78,6921.74,6915.24,6914.49,6917.71,6916.01,6911.44,6917.44,6929.86,6953.65,6987.24,7022.77,7059.56,7107.87,7148.87,7186.86,7210.94,7234.35,7248.93,7261.85,7274.8,7285.13,7284.07,7279,7274.02,7276.05,7280.36,7282.92,7251.84,7243.63,7232.44,7228.36,7223.27,7220.85,7212.36,7202.65,7196.24,7199.48,7199.01,7205.8,7209.72,7215.24,7222.33,7237.21,7251.46,7273.4,7291.97,7309.45,7331.9,7343.46,7356.51,7373.26,7376.78,7381.85,7360.43,7277.76,7094.7,6923.17,6756.67,6592.22,6441.56,6313.76,6199.4,6076.14,6010.13,5997.41,6009.82,6038.66,6088.16,6150.31,6217.1,6280.5,6350.84,6436.01,6513.62,6588.89,6641.76,6671.99,6688.42,6712.98,6728.17,6755.55,6796.75,6816.51,6855.61,6908.13,6964.22,7004.26,7043.62,7085.44,7138.32,7183.76,7229.4,7243.97,7266.08,7302.15,7301.09,7304.21,7296.09,7275.86,7242.33,7196.68,7160.59,7125.19,7097.59,7073.62,7042.33,7022.63,7002.31,6987.19,6967.62,6945.32,6912.04,6885.83,6852.95,6836.05,6821.31,6801.9,6782.31,6765.88,6751.96,6738.79,6716.96,6704.15,6685.75,6665.4,6655.25,6651.85,6644.32,6641.43,6659.23,6665.76,6668.96,6680.74,6686.89,6698.83,6707.02,6728.15,6747.57,6764.19,6789.14,6792.17,6778.89,6754.45,6728.42,6690.49,6638.5,6589.2,6538.33,6203.97,5401.86,4069.39,1498.82,4.783,2.387,4.765,116.574,1209.78,2358.11,2364.18,2367.78,2361.78,2353.58,2346.77,2336.57,2323.3,2302.57,2286.24,2270.06,2253.32,2250.17,2247.59,2250.17,2248.34,2238.08,2233.76,2234.35,2236.63,2239.82,2229.16,2224.73,2213.84,899.762,249.329,2035.99,4379.29,5022.65,5498.89,5872.36,5923.71,6045.74,6111.94,6112.97,6125.54,6121.78,6132.92
9000,9000,9000,9000,9000,9000,9000,9000,9000,9000,9000,9000,9000,9000,9000,9000,9000,9000,9000,9000,9000,9000,9000,9000,9000,9000,9000,9000,9000,9000,9000,9000,9000,9000,9000,9000,9000,9000,9000,9000,9000,9000,9000,9000,9000,9000,9000,9000,9000,8703.91,8200.08,7751.68,7338.1,7003.19,6714.14,6447.57,6308.34,6312.11,6394.16,6535.44,6802.39,7173.72,7663,8275.04,8898.55,9000,9000,9000,9000,9000,9000,9000,9000,9000,9000,9000,9000,9000,9000,9000,9000,9000,9000,9000,9000,9000,9000,9000,9000,9000,9000,9000,9000,9000,9000,9000,9000,9000,9000,9000,9000,9000,9000,9000,9000,9000,9000,9000,9000,9000,9000,9000,9000,9000,9000,9000,9000,9000,9000,9000,9000,9000,9000,8639.22,8286.76,7943.11,7664.73,7442.66,7353.62,7264.3,7228.15,7222.65,7223.27,7234.66,7238.14,7257.48,7278.83,7301.16,7330.19,7372.67,7411.39,7435.48,7461.17,7495.49,7527.94,7566.64,7611.21,7639.3,7662.85,7698.78,7734.94,7764.17,7800.42,7822.93,7823.98,7828.93,7839.12,7854.02,7871.53,7880.08,7892.82,7904.72,7924.07,7951.44,7982.39,8020.72,8065.58,8113.55,8172.6,8236.25,8314.36,8396.04,8467.38,8524.95,8567.01,8589.71,8599.66,8589.03,8559.24,8503.69,8409.05,8293.49,8165.16,8039.62,7925.94,7809.35,7696.67,7580.69,7458.86,7341.99,7241.13,7160.4,7084.96,7018.83,6967.56,6928.5,6912.84,6913.63,6922.56,6930.91,6930.56,6924.36,6929.93,6940.85,6952.51,6951.93,6945.54,6948.42,6944.46,6947.25,6954.26,6951.53,6947.97,6953.58,6960.12,6982.53,7010.02,7041.34,7072.64,7106.69,7140.09,7171.18,7188.06,7204.72,7215.79,7224.62,7232.76,7239.38,7231.98,7225.25,7220.74,7213.07,7224.68,7227.28,7200.02,7195.99,7188.33,7186.79,7185.44,7183.16,7179.05,7168.65,7159.73,7158.37,7156.37,7160.03,7159.98,7162.08,7165.88,7175.58,7184.3,7203.6,7219.66,7240.64,7260.27,7272.8,7287.25,7302.71,7317.91,7330.52,7320.87,7255.77,7080.45,6917.16,6757.97,6599.08,6450.02,6321.68,6204.3,6077.23,6015.82,5997.62,6005.66,6037.22,6087.24,6151.5,6217.69,6280.9,6349.13,6428.9,6531.42,6608.12,6665.4,6696.85,6714.76,6735.25,6768.12,6788.67,6825.02,6852.12,6893.65,6941.15,6995.46,7049.07,7077.75,7123.46,7168.16,7207.2,7234.23,7253.34,7269.94,7298.9,7300.13,7291.49,7278.31,7250.63,7207.36,7160.31,7118.98,7087.27,7057.9,7029.14,6996.5,6970.94,6949.93,6931.52,6913.22,6889.25,6853.99,6823.04,6786.71,6766.75,6750.56,6730.73,6710.09,6690.69,6678.11,6666.02,6646.12,6638.06,6621.61,6601.19,6594.66,6592.77,6591.09,6597.26,6607.67,6630.91,6647.67,6668.85,6674.86,6689.02,6700.04,6722.79,6746.72,6764.42,6787.27,6796.27,6791.13,6767.67,6744.15,6704.39,6664.33,6600.03,6558.03,6462.09,6065.98,5062.67,2681.67,2.396,2.396,2.387,29.534,578.544,2358.83,2365.45,2364.66,2360.61,2353.15,2346.01,2333.22,2322.45,2304.48,2291.87,2271.25,2256.72,2247.09,2246.62,2248.13,2246.44,2238.47,2233.11,2230.1,2232.31,2230.37,2223.92,2219.15,2209.22,1314.47,140.988,1791.25,4045.78,4723.77,5285.03,5677.85,5827.65,5972.12,6025.31,6066.96,6143.16,6138.15,6186.37
9000,9000,9000,9000,9000,9000,9000,9000,9000,9000,9000,9000,9000,9000,9000,9000,9000,9000,9000,9000,9000,9000,9000,9000,9000,9000,9000,9000,9000,9000,9000,9000,9000,9000,9000,9000,9000,9000,9000,9000,9000,9000,9000,9000,9000,9000,9000,9000,9000,8468.86,8027.21,7592.34,7208.04,6906.25,6644.32,6398.49,6273.97,6279.49,6387.25,6555.75,6843,7229.94,7740.84,8382.72,9000,9000,9000,9000,9000,9000,9000,9000,9000,9000,9000,9000,9000,9000,9000,9000,9000,9000,9000,9000,9000,9000,9000,9000,9000,9000,9000,9000,9000,9000,9000,9000,9000,9000,9000,9000,9000,9000,9000,9000,9000,9000,9000,9000,9000,9000,9000,9000,9000,9000,9000,9000,9000,9000,9000,9000,9000,9000,9000,8645.71,8297.59,7969.98,7706.36,7505.63,7424.35,7336.45,7296.15,7290.72,7287.37,7291,7288.3,7302.42,7327.98,7348.98,7377.62,7409.71,7446.25,7471.41,7495.42,7525.73,7550.08,7589.02,7650.54,7677.83,7688.69,7719.3,7750.47,7773.86,7799.73,7810.31,7804.98,7796.08,7794.44,7800.58,7804.39,7806.21,7809.5,7810.53,7827.82,7850.71,7880.14,7922.52,7971.09,8025.04,8092.02,8163.93,8251.88,8343,8418.47,8486.76,8533.46,8563.42,8575.05,8565.5,8537.11,8474.23,8376.62,8259.57,8134.12,8010.79,7903.77,7793.41,7690.06,7582.48,7468.29,7358.26,7260.46,7180.32,7111.13,7047.07,6996.56,6956.64,6940.32,6944.09,6950.94,6962.47,6964.61,6958.65,6964.89,6977.82,6990,6991.73,6989.19,6991.86,6993.47,6994.83,7003.23,7005.68,6996.85,6998.31,7005.93,7024.66,7049,7071.38,7095.65,7122.66,7146.1,7168.02,7178.62,7189.98,7196.03,7200.26,7203.8,7207.42,7199.96,7188.86,7183.75,7181.28,7184.71,7191.42,7177.85,7167.22,7160.54,7165.13,7163.8,7163.24,7158.19,7148.2,7137.23,7134.06,7127.81,7127.62,7122.18,7121.89,7121.11,7125.72,7129.23,7144.17,7156.51,7172.75,7190.72,7203.25,7219.46,7238.56,7243.49,7276.18,7278.08,7227.61,7062.48,6910.79,6760.82,6607.33,6458.26,6332.56,6210.54,6086.1,6015.31,5996.41,6001.91,6035.83,6086.56,6149.84,6213.23,6278.33,6348.85,6437.39,6544.49,6620.34,6684.38,6725.52,6737.69,6767.83,6791.17,6817.66,6853.31,6884.4,6928.3,6976.48,7033.46,7087.28,7132.56,7167.19,7191.91,7212.21,7243.13,7260.54,7268.39,7286.74,7280.81,7266.23,7246.65,7215.66,7168,7125.05,7082.49,7048.67,7014.56,6978.74,6945,6919.16,6895.75,6877.17,6857.33,6831.12,6798.02,6763.87,6726.39,6704.65,6688.13,6667.8,6647.16,6631.33,6617.84,6605.78,6589.51,6583.62,6568.88,6554.27,6547.29,6550.45,6550.94,6563,6580.62,6599.68,6635.96,6654.06,6669.7,6682.1,6702.1,6727.04,6752.47,6769.9,6791.74,6803.79,6801.47,6783.82,6764.33,6722.33,6678.4,6627.84,6570.01,6509.17,6340.92,5686.36,3780.21,34.053,22.192,19.399,24.164,178.189,2352.44,2361.36,2361.98,2359.99,2353.27,2346.13,2335.18,2319.87,2307.7,2290.93,2273.78,2258.62,2249.94,2241.55,2244.45,2245.65,2237.56,2233.72,2230.11,2226.85,2224.66,2220.36,2215.35,2206.41,1667.12,97.85,1687.63,3878.01,4633.83,5231.59,5655.95,5822.19,5971.93,6014.8,6079.5,6148.15,6151.67,6203.65
9000,9000,9000,9000,9000,9000,9000,9000,9000,9000,9000,9000,9000,9000,9000,9000,9000,9000,9000,9000,9000,9000,9000,9000,9000,9000,9000,9000,9000,9000,9000,9000,9000,9000,9000,9000,9000,9000,9000,9000,9000,9000,9000,9000,9000,9000,9000,9000,8796.14,8265.34,7846.79,7439.59,7093.09,6804.4,6548.84,6334.32,6231.33,6258.93,6382.91,6567.87,6876.07,7293.87,7809.87,8472.14,9000,9000,9000,9000,9000,9000,9000,9000,9000,9000,9000,9000,9000,9000,9000,9000,9000,9000,9000,9000,9000,9000,9000,9000,9000,9000,9000,9000,9000,9000,9000,9000,9000,9000,9000,9000,9000,9000,9000,9000,9000,9000,9000,9000,9000,9000,9000,9000,9000,9000,9000,9000,9000,9000,9000,9000,9000,9000,9000,8685.25,8335.97,8010.03,7753.42,7569.54,7500.77,7417.67,7377.66,7365.77,7354.34,7348.94,7345.78,7359.08,7370.26,7385.61,7414.32,7454.79,7491.09,7515.25,7546.59,7583.42,7617.7,7651.34,7706.69,7739.85,7747.28,7772.33,7794.99,7810.12,7821.53,7818.86,7797.71,7773.37,7754.35,7751.13,7742.37,7731.53,7724.12,7722.21,7728.46,7751.93,7778.53,7816.32,7866.37,7923.9,7993.42,8073.51,8167.38,8264.02,8347.36,8420.92,8475.03,8510.94,8524.04,8516.03,8482.62,8416.14,8312.42,8198.75,8075.81,7966,7864.05,7764.03,7670.97,7573.89,7467.27,7366.81,7276.37,7198.78,7137.15,7078.93,7029.79,6991.74,6977.24,6979.75,6994.68,7004.62,7012.11,7008.15,7011.41,7027.81,7040.52,7045.61,7040.94,7044.6,7048.37,7051.11,7061.88,7058.94,7051.57,7049.98,7055.62,7070.24,7091.85,7107.82,7120.07,7133.96,7150.65,7165.22,7171.05,7175.79,7177.58,7177.81,7180.16,7179.59,7171.88,7158.64,7151.24,7150.26,7157.08,7157.49,7150.11,7148.07,7148.83,7153.32,7155.62,7156.61,7152.21,7141.72,7129.31,7120.73,7112.09,7106.54,7099.21,7092.1,7089.04,7091.62,7089,7097.7,7105.97,7115.23,7130.18,7141.87,7151.59,7180.08,7187.74,7214.81,7225.08,7202.03,7047.11,6902.8,6764.61,6617.26,6468.09,6341.22,6216.81,6088.31,6015.39,5996.28,5996.69,6032.74,6084.91,6148.06,6214.34,6280.62,6360.47,6446.43,6558.93,6648.68,6709.57,6750,6772.83,6794.25,6831.27,6863.56,6904.93,6940.78,6988.33,7038.89,7108.55,7162.83,7200.58,7218.58,7231.46,7247.37,7268.71,7270.67,7269.85,7273.14,7258.64,7232.63,7206.9,7170.13,7123.22,7077.89,7036,7000.73,6962.54,6928.01,6895.78,6870.57,6848.04,6828.07,6806.23,6778.2,6742.54,6707.68,6670.44,6645.13,6626.33,6605.69,6584.57,6569.5,6556.14,6546.46,6529.85,6525.97,6516.74,6508.27,6506.92,6512.51,6521.31,6540.99,6567.12,6592.15,6614.76,6657.39,6679.43,6694.13,6716.97,6743.42,6769.79,6787.42,6808.55,6819.71,6818.33,6801.42,6779.96,6737.61,6687.4,6636.11,6583.17,6545.62,6452.66,5972.11,4567.54,245.739,52.425,17.107,24.216,100.13,2224.89,2357.88,2359.07,2359.42,2353.61,2345.89,2334.61,2319.87,2306.1,2290.47,2274.34,2261.16,2248.49,2247.4,2241.57,2245.69,2237.62,2232.97,2228.98,2225.03,2222.54,2218.32,2213.13,2205.04,1910.12,117.843,1495.59,3759.88,4558.93,5104.56,5511.2,5765.46,5858.55,5955.21,6058.12,6127.04,6180.3,6205.07
9000,9000,9000,9000,9000,9000,9000,9000,9000,9000,9000,9000,9000,9000,9000,9000,9000,9000,9000,9000,9000,9000,9000,9000,9000,9000,9000,9000,9000,9000,9000,9000,9000,9000,9000,9000,9000,9000,9000,9000,9000,9000,9000,9000,9000,9000,9000,9000,8590.03,8082.98,7662.13,7284.29,6957.25,6657.28,6441.35,6280.91,6206.93,6233.96,6372.83,6574.62,6917.78,7372.82,7904.21,8590.5,9000,9000,9000,9000,9000,9000,9000,9000,9000,9000,9000,9000,9000,9000,9000,9000,9000,9000,9000,9000,9000,9000,9000,9000,9000,9000,9000,9000,9000,9000,9000,9000,9000,9000,9000,9000,9000,9000,9000,9000,9000,9000,9000,9000,9000,9000,9000,9000,9000,9000,9000,9000,9000,9000,9000,9000,9000,9000,9000,8723.81,8376.71,8050.35,7796.57,7636.79,7578.95,7499.59,7463.18,7436.34,7426.45,7417.97,7403.15,7413.07,7433.48,7449.72,7476.31,7517.8,7560.71,7595.13,7612.59,7656.4,7711.67,7743.15,7789.43,7831.81,7838.74,7856.89,7874.58,7875.97,7868.51,7851.85,7815.22,7774.97,7736.28,7715.63,7695.73,7674.66,7659.88,7649.5,7654.12,7668.57,7691.64,7725.89,7773.64,7826.52,7893.75,7968.5,8062.2,8157.6,8239.48,8314.79,8371.39,8409.21,8426.28,8413.63,8378.9,8308.83,8208.24,8102.01,7992.42,7894.65,7808.34,7716.14,7635.15,7549.74,7456.72,7362.48,7276.8,7207.95,7150.61,7096.12,7056.63,7021.08,7009.79,7017.65,7032.23,7052.46,7064.11,7060.96,7066.15,7078.36,7092.72,7096.96,7092.73,7096.08,7098.18,7101.22,7110.42,7110.05,7102.89,7101.53,7103.94,7113.76,7126.52,7134.27,7141.7,7146.36,7153.71,7160.85,7158.99,7159.87,7156.3,7153.57,7152.89,7150.6,7141.75,7131.42,7126,7126.08,7122.4,7134.57,7131.61,7142.9,7146.97,7155.44,7160.17,7160.72,7155.32,7142.14,7125.52,7114.36,7100.53,7089.44,7075.33,7066.96,7059.45,7057.85,7051.43,7053.61,7057.86,7063.33,7077.27,7085.31,7093.86,7128.17,7136.12,7170.55,7183.82,7163.74,7029.21,6896.28,6765.27,6623.61,6474.12,6346.16,6220.26,6088.5,6013.75,5994.94,5992.69,6031.26,6087.1,6151.6,6219.01,6290.64,6373.65,6472.05,6594.55,6693.25,6752.71,6789.48,6819.62,6851.44,6887.88,6930.9,6978.12,7019.58,7082.63,7134.39,7193.02,7237.77,7268.92,7270.44,7283.63,7286.63,7291.3,7283.57,7277.04,7256.22,7231.17,7199.2,7166.09,7125.68,7080.88,7037.37,6996.2,6945.91,6924.66,6883.04,6852.85,6826.63,6805.06,6784.74,6762.73,6735.07,6697.09,6660.44,6622.58,6593.69,6571.57,6550.92,6529.21,6511.61,6498.09,6489.49,6478.7,6476.97,6473.36,6470.34,6474.9,6484.63,6498.24,6524.54,6552.86,6589.04,6615.36,6644.01,6680.02,6710.2,6731.65,6759.41,6785.18,6802.8,6818.5,6830.53,6828.78,6810.24,6783.01,6738.1,6685,6632.61,6586.8,6516.78,6363.47,5888.98,4485.61,901.789,95.1,20.708,24.295,64.633,1408.88,2355.85,2357.19,2359.3,2353.8,2346.39,2334.93,2320.15,2307.16,2292.63,2277.5,2261.65,2250.22,2248.6,2244.22,2243.8,2238.72,2230.81,2226.38,2226.89,2221.8,2217.68,2212.39,2204.93,2090.4,171.156,1212.69,3569.78,4552.81,5168.55,5574.66,5726.41,5850.24,5966.67,6074.72,6189.1,6214.49,6252.71
9000,9000,9000,9000,9000,9000,9000,9000,9000,9000,9000,9000,9000,9000,9000,9000,9000,9000,9000,9000,9000,9000,9000,9000,9000,9000,9000,9000,9000,9000,9000,9000,9000,9000,9000,9000,9000,9000,9000,9000,9000,9000,9000,9000,9000,9000,9000,9000,8431.64,7944.55,7547.76,7187.29,6885.43,6595.31,6399.59,6245.39,6191.19,6244.07,6419.27,6651.23,7014.25,7475.62,8027.34,8732.59,9000,9000,9000,9000,9000,9000,9000,9000,9000,9000,9000,9000,9000,9000,9000,9000,9000,9000,9000,9000,9000,9000,9000,9000,9000,9000,9000,9000,9000,9000,9000,9000,9000,9000,9000,9000,9000,9000,9000,9000,9000,9000,9000,9000,9000,9000,9000,9000,9000,9000,9000,9000,9000,9000,9000,9000,9000,9000,9000,8759.63,8411.77,8078.52,7827.9,7673.58,7637.78,7558.31,7530.7,7486.16,7466.23,7457.64,7452.25,7463.41,7484.22,7509.82,7550.12,7605.7,7647.85,7675.23,7715.9,7766.24,7797.7,7862.77,7908.94,7932.56,7938.88,7954.46,7968.27,7960.7,7938.54,7908.84,7859.6,7803.23,7750.02,7713.28,7678.24,7646.83,7625.45,7610.38,7607.47,7622.89,7640.43,7670.14,7711.9,7761.48,7817.3,7886.69,7968.54,8056.33,8130.73,8199.43,8251.41,8281.79,8297.1,8283.93,8248.22,8180.7,8091.83,8000.27,7903.91,7822.6,7744.81,7668.05,7598.28,7523.1,7440.02,7352.38,7278.55,7214.6,7162.86,7115.35,7081.45,7050.73,7043.72,7057.98,7077.71,7101.18,7123.37,7118.94,7126.09,7137.59,7151.36,7154.09,7150.38,7151.74,7153.82,7156.68,7167.08,7165.32,7156.6,7152.9,7147.49,7151.31,7159.12,7147.05,7151.18,7149.42,7149.67,7154.31,7140.58,7144.03,7138.27,7130.84,7127.39,7116,7104.82,7097.64,7089.17,7095.16,7110.27,7129.23,7135.96,7153.84,7161.57,7172.3,7176.29,7171.19,7162.82,7147.04,7124.75,7110.32,7092.39,7074.28,7060.73,7048.1,7036.28,7030.41,7017.02,7017.69,7017.69,7021.25,7032.75,7041.33,7049.97,7084.5,7097.21,7134.84,7155.08,7138.18,6996.99,6890.4,6766.64,6629.7,6480.23,6349.43,6221.65,6082.47,5998.32,5981.63,5975.47,6008.3,6076.6,6137.46,6221.75,6296.59,6386.59,6491.67,6617.2,6732.47,6787.67,6837.8,6873.47,6902.31,6948.35,6984.92,7036.92,7092,7146.86,7195.34,7248.18,7287.36,7299.96,7314.23,7326.3,7321.31,7328.75,7305.18,7273.45,7239.98,7206.5,7168.31,7129,7084.32,7043.44,6992.85,6942.01,6924.09,6879,6850.55,6821.87,6800.54,6779.72,6760.38,6739.73,6714.11,6676.17,6639.04,6599.69,6570.31,6543.97,6518.37,6495.38,6476.31,6459.21,6451.52,6441.85,6444.4,6448.95,6453.06,6463.15,6477.8,6500.28,6533.52,6568,6614.22,6639.65,6669.1,6692.67,6718.24,6742.44,6773.12,6796.74,6818.22,6822.44,6824.43,6824.24,6800.25,6765.73,6722.78,6659.15,6595.34,6552.65,6439.18,6182.25,5549.64,3987.21,1179.08,101.227,11.352,18.54,74.199,644.235,2354.16,2349.57,2342.25,2336.97,2329.27,2319.74,2302.75,2288.49,2276.94,2265.83,2252.42,2239.44,2241.05,2239.18,2247.57,2237.68,2231.71,2227.22,2224.56,2221.79,2217.9,2212.42,2205.48,2174.16,259.163,777.257,3281.91,4410.44,5056.49,5477.39,5635.36,5828.21,5973.88,6050.85,6178.86,6232.3,6266.24
9000,9000,9000,9000,9000,9000,9000,9000,9000,9000,9000,9000,9000,9000,9000,9000,9000,9000,9000,9000,9000,9000,9000,9000,9000,9000,9000,9000,9000,9000,9000,9000,9000,9000,9000,9000,9000,9000,9000,9000,9000,9000,9000,9000,9000,9000,9000,8802.73,8303.21,7851.25,7461.44,7127.49,6824.47,6548.34,6367.54,6221.41,6186.04,6260.44,6452.41,6694.08,7062.41,7521.72,8079.37,8768.66,9000,9000,9000,9000,9000,9000,9000,9000,9000,9000,9000,9000,9000,9000,9000,9000,9000,9000,9000,9000,9000,9000,9000,9000,9000,9000,9000,9000,9000,9000,9000,9000,9000,9000,9000,9000,9000,9000,9000,9000,9000,9000,9000,9000,9000,9000,9000,9000,9000,9000,9000,9000,9000,9000,9000,9000,9000,9000,9000,8785.32,8433.29,8089.58,7827.1,7698.93,7667.16,7615.47,7574.13,7528.63,7511.14,7506.69,7501.06,7515.24,7546.05,7575.42,7621.94,7681.77,7733.06,7765.58,7813.28,7868.44,7908.46,7962.99,8007.57,8014.85,8008.14,8018.07,8015.73,8017.21,7995.79,7965.71,7907.16,7837.01,7770.83,7719.14,7675.63,7637.44,7607.39,7586.41,7574.79,7590.54,7605.75,7637.2,7674.11,7715.79,7759.87,7818.12,7885.92,7959.83,8020.16,8076.16,8118.2,8141.79,8151.73,8141.16,8110.72,8053.67,7975.07,7897.1,7816.93,7745.82,7684.53,7615.67,7552.44,7484.48,7410.87,7330.12,7265.71,7213.62,7163.94,7122.35,7093.31,7073.76,7076.29,7098.18,7125.23,7155.38,7176.1,7175.07,7182.02,7191.35,7202.32,7200.49,7192.53,7193.26,7190.14,7193.02,7204.7,7203.12,7187.16,7187.31,7189.48,7176,7163.69,7154.02,7145.01,7135.42,7133.09,7141.53,7133.05,7137.96,7137.82,7126.89,7121.83,7116.03,7097.83,7099.26,7099.07,7110.28,7125.07,7150.98,7167,7186.31,7200.77,7212.01,7215.42,7205.25,7189.51,7170.31,7144.85,7122.69,7098.05,7076.68,7056.93,7041.76,7025.17,7015.34,6999.07,6994.44,6991.83,6992.76,7002.63,7011.49,7026.51,7060.19,7070.39,7110.79,7132.52,7122,6984.94,6883.46,6761.65,6633.08,6482.47,6349.85,6221,6084.24,5998.57,5989.39,5980.8,6021.71,6081.84,6152.42,6226.85,6305.46,6403.04,6516,6657.79,6782.11,6851.56,6909.52,6944.25,6987.89,7036.61,7088.21,7161.33,7201.26,7258.12,7306.55,7351.61,7373.7,7374.88,7384.81,7384.42,7375.07,7359.26,7322.97,7278.79,7233.87,7191.04,7144.93,7102.08,7055.94,7009.23,6955.78,6936.17,6892.96,6863.35,6838.62,6813.8,6795.87,6779.43,6762.72,6746.76,6724.72,6688.56,6653.32,6613.85,6583.29,6553.17,6525.03,6497.59,6472.69,6453.79,6447.69,6439.89,6445.15,6454.07,6465.17,6481.15,6502.72,6528.82,6566,6607.79,6655.56,6681.11,6710.98,6737.29,6761.99,6785.75,6806.35,6841.45,6853.09,6853.92,6859.96,6846.6,6814.65,6780.29,6718.12,6653.2,6596.27,6547.01,6399.55,6003.67,5117.63,3380.6,1135.88,95.657,20.781,29.174,98.004,389.804,2352.3,2348.45,2353.48,2348.46,2341.12,2325.79,2308.98,2301.34,2288.19,2274.39,2255.68,2241.65,2237.21,2235,2246.48,2239.38,2230.47,2226.16,2225.41,2222.73,2218.55,2213.56,2206.45,2197.29,367.726,535.515,2953.59,4402.7,5128.68,5638.73,5733.62,5876.21,6104.23,6216.36,6293.99,6339.54,6368.76
9000,9000,9000,9000,9000,9000,9000,9000,9000,9000,9000,9000,9000,9000,9000,9000,9000,9000,9000,9000,9000,9000,9000,9000,9000,9000,9000,9000,9000,9000,9000,9000,9000,9000,9000,9000,9000,9000,9000,9000,9000,9000,9000,9000,9000,9000,9000,8672.11,8200.54,7771.16,7401.74,7080.53,6772.21,6506.67,6335.97,6205.19,6180.51,6254.65,6435.89,6673.81,7027.75,7456.32,7983.49,8628.42,9000,9000,9000,9000,9000,9000,9000,9000,9000,9000,9000,9000,9000,9000,9000,9000,9000,9000,9000,9000,9000,9000,9000,9000,9000,9000,9000,9000,9000,9000,9000,9000,9000,9000,9000,9000,9000,9000,9000,9000,9000,9000,9000,9000,9000,9000,9000,9000,9000,9000,9000,9000,9000,9000,9000,9000,9000,9000,9000,8796.38,8427.44,8070.62,7811.8,7696.15,7671.77,7615.04,7596.85,7561.69,7553.79,7541.91,7544.03,7556.28,7581.75,7625.73,7676.15,7742.58,7791.1,7850.51,7895.23,7953.92,7994.73,8059.4,8100.57,8107.93,8098.49,8111.59,8104.47,8078.58,8052.52,8000.75,7931.33,7849.37,7775.91,7714.1,7661.88,7613.56,7574.71,7548.8,7537.82,7547.71,7569.53,7595.34,7631.35,7672.1,7709.97,7756.37,7814.52,7878.3,7924.19,7969.14,8001.02,8018.72,8024.39,8017.72,7989.99,7940.05,7872.32,7803.7,7734.25,7675.17,7622.42,7560.66,7499.88,7438.65,7370.98,7302.2,7245.16,7194.4,7153.08,7116.62,7096.33,7089.13,7101.25,7133.04,7170.75,7206.59,7231.36,7234.71,7239.92,7249.36,7253.02,7248.14,7237.67,7233.68,7228.95,7233.54,7247.42,7237.55,7231.83,7212.18,7211.26,7211.17,7201.23,7194.4,7181,7157.32,7151.42,7139.6,7135.87,7161.6,7150.73,7141.19,7134.9,7126.94,7122.13,7118.55,7123.67,7149.47,7175.56,7198.78,7213.29,7237.92,7254.6,7262.41,7261.8,7245.29,7223.58,7203.36,7172.32,7145.72,7116.46,7089.57,7064.43,7046.29,7025.99,7011.76,6992.09,6984.09,6979.73,6978.11,6990.57,7000.2,7014.47,7050.8,7075.01,7107.17,7126.02,7114.53,6980.08,6879.88,6761.59,6633.78,6485.12,6359.1,6222.08,6085.23,6006.84,5997.01,5986.99,6024.56,6076.86,6147.33,6223.44,6306.91,6408.68,6526.9,6671.93,6808.57,6904.57,6956.94,7008.5,7056.16,7110.43,7176.87,7240.46,7290.28,7344.63,7391.19,7423.33,7444.46,7455.86,7458.17,7464.65,7425.03,7385.18,7337.73,7282.17,7228.5,7177.81,7126.35,7078.65,7032.46,6987.08,6956.98,6911.88,6890.56,6866.11,6841.73,6821.21,6809.57,6797.79,6786.95,6776.25,6757.2,6724.67,6689.99,6653.16,6618.21,6583.38,6549.21,6519.25,6489.08,6467.32,6461.12,6452.7,6459.71,6472.02,6488.93,6509.85,6536.59,6568.54,6614.71,6653.8,6704.84,6730.63,6758.82,6788.18,6819.28,6835.66,6864.78,6885.08,6892.61,6890.53,6895.22,6866.72,6830.6,6781.3,6719.41,6649.19,6587.32,6529.48,6290.47,5603.58,4570.94,2966.1,926.908,93.332,41.758,36.528,157.546,279.252,2349.88,2352.28,2352.82,2348.27,2341.12,2331.37,2314.9,2302.12,2291.8,2280.47,2263.98,2249.35,2244.86,2238.81,2245.3,2236.65,2232.46,2228.07,2226.71,2223.74,2219.7,2214.64,2207.55,2198.58,455.642,477.622,2861.85,4498.26,5235.61,5766.86,5890.74,6038.4,6124.18,6246.47,6347.45,6430.48,6451.68
9000,9000,9000,9000,9000,9000,9000,9000,9000,9000,9000,9000,9000,9000,9000,9000,9000,9000,9000,9000,9000,9000,9000,9000,9000,9000,9000,9000,9000,9000,9000,9000,9000,9000,9000,9000,9000,9000,9000,9000,9000,9000,9000,9000,9000,9000,9000,8573.28,8143.7,7725.53,7367.75,7043.23,6732.49,6472.67,6314.37,6200.3,6180.98,6250.14,6421.58,6645.75,6966.95,7350.68,7841.86,8451.35,9000,9000,9000,9000,9000,9000,9000,9000,9000,9000,9000,9000,9000,9000,9000,9000,9000,9000,9000,9000,9000,9000,9000,9000,9000,9000,9000,9000,9000,9000,9000,9000,9000,9000,9000,9000,9000,9000,9000,9000,9000,9000,9000,9000,9000,9000,9000,9000,9000,9000,9000,9000,9000,9000,9000,9000,9000,9000,9000,8807.85,8418.65,8035.92,7767.82,7651.96,7629.96,7591.97,7562.61,7538.34,7528.49,7531.1,7550.34,7574.21,7607.57,7651.2,7708.14,7773.42,7839.26,7897.16,7958.14,8024.77,8085.56,8146.28,8187.27,8201,8187.03,8168.88,8154.56,8120.05,8076.35,8018.28,7941.21,7850.16,7764.33,7692.27,7632.63,7581.55,7539.38,7505.82,7492.89,7502.82,7521.53,7551.24,7582.78,7612.62,7645.73,7689.41,7740.86,7790.88,7830.98,7862.11,7891.29,7903.44,7911.93,7903.9,7880.16,7828.38,7770.61,7709.28,7650.06,7600.73,7554.54,7495.4,7435.53,7374.18,7317.25,7254.78,7201,7152,7114.19,7087.98,7078.67,7085.73,7112.37,7156.08,7201.55,7248.36,7282.34,7288.92,7296.87,7302.51,7304.31,7298.15,7283.88,7277.27,7269.44,7273.02,7279.61,7275.49,7261.94,7262.45,7261.52,7249.15,7236.25,7222.67,7207.44,7184.21,7181.66,7168.21,7152.61,7160.58,7172,7164.78,7160.62,7148.88,7140.54,7143.41,7160.12,7182.38,7208.11,7235.68,7260.47,7286.2,7305.41,7313.54,7311.35,7293.08,7267.63,7239.78,7206.33,7174.04,7141.37,7109.56,7080.02,7058.16,7035.88,7019.07,6996.42,6986.89,6981.84,6981.57,6991.85,7000.37,7015.91,7051.94,7077.14,7113.86,7132.37,7115.09,6978.4,6876.73,6759.44,6632.05,6491.26,6358.73,6222.18,6087.78,6016.03,5998.03,5986.6,6020.56,6069.65,6139.85,6220.46,6303.72,6408.32,6529.29,6682.26,6825.16,6933.21,6999.79,7049.45,7104.85,7172.23,7238.29,7304.79,7361.22,7415.24,7462.88,7483.69,7508.36,7514.01,7515.52,7504.17,7447.71,7404.64,7349.98,7285.75,7223.99,7168.05,7113.93,7063.16,7018.91,6982.59,6945.37,6906.46,6892.15,6873.76,6865.36,6856.31,6849.16,6847.96,6841.44,6832.34,6817.44,6787.35,6753.06,6716.68,6678.46,6639.34,6604.41,6568.94,6535.69,6509.31,6502.21,6494.94,6504.25,6520.92,6541.62,6564.75,6594.51,6631.38,6682.9,6722.59,6776.72,6799.85,6829.82,6856.69,6891.46,6910.69,6931.89,6948.63,6973.63,6958.07,6950.6,6921.41,6871.98,6811.75,6745.57,6668.99,6601.03,6545.58,6270.05,5461.33,4414.88,2950.66,1021.63,63.636,45.078,44.478,143.702,196.757,2341.8,2349.6,2356.79,2352.53,2346.03,2336.64,2320.63,2308.38,2295.89,2281.35,2264.65,2250,2245.52,2245.58,2248.51,2238.2,2231.49,2229.83,2228.11,2227.36,2220.83,2216.19,2209.14,2200.11,531.608,519.354,3175.8,4883.82,5615.5,6070.48,6144.1,6277.27,6326.66,6446.87,6501.02,6520.5,6494.58
9000,9000,9000,9000,9000,9000,9000,9000,9000,9000,9000,9000,9000,9000,9000,9000,9000,9000,9000,9000,9000,9000,9000,9000,9000,9000,9000,9000,9000,9000,9000,9000,9000,9000,9000,9000,9000,9000,9000,9000,9000,9000,9000,9000,9000,9000,8892.41,8535.34,8092.11,7682.71,7355.3,7028.6,6718.95,6451.11,6304.1,6208.38,6188.13,6253.53,6410.73,6609,6889.82,7221.85,7670.45,8243.56,8806.09,9000,9000,9000,9000,9000,9000,9000,9000,9000,9000,9000,9000,9000,9000,9000,9000,9000,9000,9000,9000,9000,9000,9000,9000,9000,9000,9000,9000,9000,9000,9000,9000,9000,9000,9000,9000,9000,9000,9000,9000,9000,9000,9000,9000,9000,9000,9000,9000,9000,9000,9000,9000,9000,9000,9000,9000,9000,9000,8812.76,8391.4,7990.48,7706.16,7589.51,7573.03,7540.28,7516.08,7495.3,7490.11,7502.9,7533.05,7564.6,7602.48,7652.66,7717.83,7789.3,7860.61,7928.58,7991.62,8060.14,8125.08,8187.53,8225.91,8236.24,8225.8,8204.01,8188.38,8148.83,8098.51,8038.83,7952.9,7859.05,7768.14,7685.17,7619.8,7561.86,7513.38,7477.12,7462.04,7466.47,7484.81,7506.31,7532.12,7557.49,7588.01,7622.58,7677.85,7726,7761.73,7789.44,7813.05,7828,7840.46,7836.72,7815.39,7763.83,7706.38,7652.74,7602.48,7557.55,7516.93,7456.41,7392.07,7330.33,7270.58,7206.46,7153.98,7106.48,7067.73,7040.03,7040.55,7058.04,7094.22,7152.53,7209.83,7264.24,7306.71,7325.89,7336.5,7344.1,7344.82,7338.87,7326.93,7316.81,7309.16,7305.64,7316.9,7314.51,7310.27,7314.68,7308.84,7286.89,7275.71,7254.62,7231.46,7214.5,7210.95,7211.28,7205.41,7198.84,7188.31,7183.43,7174.8,7168.78,7168.72,7172.41,7193.37,7208.73,7239.74,7279.58,7306.53,7327.61,7346.34,7354.87,7353.11,7331.19,7303.69,7269.5,7229.72,7190.66,7152.37,7116.65,7085.84,7059.12,7034.99,7015.44,6995.22,6988.93,6986.18,6987.76,6999.4,7010.3,7027.15,7063.4,7086.52,7121.14,7152.09,7122.28,6981.61,6879.49,6759.56,6633.6,6493.71,6354.6,6233.6,6093.84,6020.39,5999.52,5988.6,6018.2,6063.48,6135.11,6215.72,6303.22,6407.09,6528.93,6682.92,6829.33,6947.6,7017.43,7074.61,7130.83,7210.75,7274.65,7341.45,7400.06,7454.74,7492.64,7527.49,7544.56,7552.47,7547.89,7510.43,7462.37,7415.74,7358.58,7290.22,7224.66,7164.77,7111.24,7057.85,7013.44,6985.96,6942.01,6925.61,6919.65,6909.68,6908.08,6909.87,6915.59,6919.6,6921.4,6918.35,6902.8,6872.28,6835.08,6795.04,6753.48,6713.39,6670.59,6631.42,6590.56,6561.15,6551.4,6547.34,6555.71,6575.97,6599.13,6623.62,6656.84,6701.13,6758.75,6798.89,6848.26,6861.93,6885.84,6925.21,6960.46,6994.88,7014.09,7029.47,7040.42,7044.36,7036.39,7003.87,6945.7,6874.84,6801.8,6726.4,6654.5,6585.53,6332.67,5632.55,4738.66,2910.45,1229.85,56.683,39.685,39.188,162.228,466.216,2332.24,2345.17,2352,2348.67,2343.09,2327.09,2318.74,2307.1,2294.28,2282.93,2266.82,2250.3,2245.81,2245.6,2243.69,2244.31,2233.02,2231.71,2234.05,2225.59,2221.93,2217.43,2210.38,2201.71,683.938,467.703,2766.48,4785.26,5658.86,6149.41,6235.88,6334.03,6435.12,6522.63,6594.1,6629.1,6571.82
9000,9000,9000,9000,9000,9000,9000,9000,9000,9000,9000,9000,9000,9000,9000,9000,9000,9000,9000,9000,9000,9000,9000,9000,9000,9000,8889.25,9000,9000,9000,9000,9000,9000,9000,9000,9000,9000,9000,9000,9000,9000,9000,9000,9000,9000,9000,8860.04,8490.29,8061.61,7670.71,7343.41,7022.07,6711.84,6466.94,6324.63,6227.28,6204.96,6268.63,6410.01,6584.92,6836.62,7135.84,7550.62,8086.5,8644.72,9000,9000,9000,9000,9000,9000,9000,9000,9000,9000,9000,9000,9000,9000,9000,9000,9000,9000,9000,9000,9000,9000,9000,9000,9000,9000,9000,9000,9000,9000,9000,9000,9000,9000,9000,9000,9000,9000,9000,9000,9000,9000,9000,9000,9000,9000,9000,9000,9000,9000,9000,9000,9000,9000,9000,9000,9000,9000,8803.3,8353.06,7955.1,7659.79,7546.6,7540.32,7515.46,7489.07,7475.83,7488.53,7505.23,7539.38,7572.07,7610.31,7662.39,7734.97,7805.91,7876.49,7942.67,8009.73,8076.62,8141.23,8200.86,8238.41,8247.74,8238.17,8216.95,8200.63,8159.25,8111.92,8051.05,7970.02,7875.72,7784.86,7702.5,7632.73,7569.53,7522.04,7478.66,7459.09,7459.64,7471.88,7485.98,7502.5,7521.16,7553.6,7589.46,7637.17,7679.92,7712.13,7734.41,7758.73,7772.7,7788.57,7787.91,7773.12,7725.45,7678.74,7626.92,7585.8,7544.56,7510.2,7446.21,7377.64,7306.14,7240.11,7171.79,7121.48,7072.9,7030.93,7000.59,7007.66,7034.33,7075.81,7136.91,7201.28,7259.24,7307.47,7333.64,7344.7,7351.2,7353.07,7348.89,7338.88,7334.65,7314.26,7320.32,7327.86,7328.47,7326.31,7325.53,7318.17,7307.38,7287.37,7273.33,7251.74,7226.11,7221.72,7208.42,7210.28,7197.38,7189.85,7187.09,7189.59,7185.38,7184.72,7190.63,7207.55,7232.05,7266.88,7306.01,7333.62,7354.04,7373.26,7384.04,7381.53,7365.77,7341.74,7306.81,7266.27,7226,7177.61,7136.74,7102.35,7073.24,7039.89,7015.01,6992.76,6989.27,6987.73,6997.59,7012.69,7025.82,7042.15,7080.69,7104.89,7135.53,7157.19,7135.38,6990.2,6868.15,6745.85,6622.64,6476.68,6343.41,6218.76,6092.37,6019.06,5998.28,5988.87,6012.21,6056.28,6130.59,6215.24,6310.78,6403.12,6526.43,6674.62,6821.3,6937.19,7016.74,7071.09,7125.01,7184.14,7248.92,7311.95,7367.43,7411.21,7461.48,7500.42,7523.03,7526.26,7506.47,7482.84,7432.42,7385.83,7329.84,7265.32,7213.17,7154.65,7100.28,7046.98,6999.31,6963.48,6941.09,6933.96,6930.19,6914.82,6913.58,6922.05,6934.5,6957.79,6962.26,6968.54,6952.87,6930.46,6896.8,6852.62,6811,6769.26,6724.81,6685,6642.73,6610.98,6599.61,6594.12,6602.84,6626.45,6651.46,6680.69,6725.69,6776.92,6831,6864.4,6900.98,6950.19,6981.56,7009.16,7034.29,7058.96,7070.32,7083.46,7092.67,7091.75,7085.02,7053.89,7002.03,6921.03,6835.15,6771.94,6684.53,6616.68,6344.86,5764.76,4813.17,2929.74,1421.85,68.67,48.278,39.191,177.817,743.861,2326.58,2331.48,2337.94,2341.8,2331.61,2316.52,2308.02,2296.98,2286.47,2278.59,2263.2,2250.03,2246.05,2243.42,2249.98,2246.52,2240.42,2239.48,2236.73,2230.14,2222.03,2217.72,2210.84,2202.25,825.857,447.389,2527.35,4654.48,5570.28,6197.63,6315.86,6408.12,6509.19,6609.39,6657.52,6720.64,6692.97
9000,9000,9000,9000,9000,9000,9000,9000,9000,9000,9000,9000,9000,9000,9000,9000,9000,9000,9000,9000,9000,9000,9000,9000,9000,9000,8898.81,9000,9000,9000,9000,9000,9000,9000,9000,9000,9000,9000,9000,9000,9000,9000,9000,9000,9000,9000,8824.24,8465.35,8057.45,7673.77,7340.85,7039.43,6744.39,6499.21,6355.18,6252.85,6232.41,6301.26,6423.12,6584.64,6805.08,7087.9,7478.25,7972.43,8493.07,8874.07,9000,9000,9000,9000,9000,9000,9000,9000,9000,9000,9000,9000,9000,9000,9000,9000,9000,9000,9000,9000,9000,9000,9000,9000,9000,9000,9000,9000,9000,9000,9000,9000,9000,9000,9000,9000,9000,9000,9000,8657.44,9000,9000,9000,9000,9000,9000,9000,9000,9000,9000,9000,9000,9000,9000,9000,9000,9000,8805.69,8346.08,7925.89,7632.22,7513.15,7508.58,7493.26,7480.49,7475.49,7484.75,7502.18,7542.34,7589.48,7636.9,7686.97,7750.35,7817.42,7886.57,7953.24,8023.74,8092.94,8148.05,8203.65,8237.07,8242.23,8232.59,8211.26,8194.92,8154.86,8104.75,8047.51,7972.85,7883.39,7793.59,7717.32,7651.54,7587.63,7540.47,7497.63,7474.02,7469.14,7477.12,7485.73,7496.26,7510.49,7543.16,7577.4,7627.65,7668.22,7695.95,7719.38,7735.14,7744.43,7762.32,7763.58,7748.58,7700.87,7653.95,7607.17,7567.52,7528.06,7493.29,7428.38,7353.83,7281.05,7215.52,7148.6,7096.88,7045.72,7008.81,6985.82,6990.92,7024.4,7070.21,7132.01,7199.14,7258.66,7307.13,7337.41,7349.61,7359.35,7360.36,7359.94,7357.79,7350.63,7333.53,7337.41,7343.97,7351.02,7343.14,7338.93,7341.05,7327.75,7315.9,7303.07,7274.91,7272.93,7261.98,7258.94,7239.54,7227.44,7221.99,7220.9,7223.27,7221.63,7221.99,7226.46,7236.27,7265.44,7295.15,7332.02,7357.59,7374.67,7391.79,7399.63,7402.72,7388.84,7360.95,7327.78,7286.19,7247.97,7199.14,7153.59,7117.78,7084.72,7046.97,7019.86,6997.92,6992.72,6991.91,7007.79,7026.78,7039.68,7058.74,7094.24,7122.8,7146.49,7150.34,7117.98,6969.65,6844.72,6721.62,6598.87,6457.8,6327.93,6207,6089.29,6032.82,6011.99,6003.34,6018.96,6058.13,6131.96,6217.92,6304.33,6404.43,6521.26,6662.59,6799.08,6916.61,6999.04,7051.68,7102.68,7150.69,7208.46,7253.63,7309.77,7357.98,7395.27,7428.04,7440.84,7438.03,7425.34,7404.23,7357.58,7308.25,7252.65,7186.03,7148.19,7103.7,7065.65,7024.45,6980.66,6962.56,6953.2,6960.96,6965.28,6951.7,6954.12,6965,6979.54,6999.55,7024.91,7026.61,7010.29,6988.02,6955.92,6916.22,6869.78,6827.67,6780.38,6732.51,6684.72,6650.02,6632.98,6623.89,6629.22,6647.09,6671.46,6703.87,6758.88,6821.17,6883.12,6918.72,6966.19,7008.91,7038.69,7067.44,7098.55,7106.43,7103.17,7104.42,7114.63,7112.31,7107.4,7061.22,7012.71,6920.18,6848.66,6779.74,6709.42,6625.45,6403.63,5802.92,4788.13,2975,1241.24,70.774,37.451,51.393,170.239,799.103,2330.07,2334.04,2339.79,2337.33,2332.88,2325.18,2312.54,2304.54,2291.55,2282.09,2267.24,2255.05,2251.16,2248.99,2249.35,2246.75,2240.64,2240.32,2234.67,2229.6,2226.87,2218.23,2211.44,2203.47,938.227,496.815,2967.84,4911.71,5549.21,6051.02,6204.56,6452.86,6592.89,6735.76,6744.08,6771.4,6766.86
9000,9000,9000,9000,9000,9000,9000,9000,9000,9000,9000,9000,9000,9000,9000,9000,9000,9000,9000,9000,9000,9000,9000,9000,9000,9000,9000,9000,9000,9000,9000,9000,9000,9000,9000,9000,9000,9000,9000,9000,9000,9000,9000,9000,9000,9000,8851.36,8483.37,8079.89,7702.14,7365.4,7065.34,6785.28,6531.71,6390.8,6293.5,6281.09,6360.86,6494.53,6661.84,6862.47,7124.56,7489.45,7960.62,8439.7,8837.29,9000,9000,9000,9000,9000,9000,9000,9000,9000,9000,9000,9000,9000,9000,9000,9000,9000,9000,9000,9000,9000,9000,9000,9000,9000,9000,9000,9000,9000,9000,9000,9000,9000,9000,9000,9000,9000,9000,9000,9000,9000,9000,9000,9000,9000,9000,9000,9000,9000,9000,9000,9000,9000,9000,9000,8894.95,9000,8799.88,8320.5,7914.55,7638.94,7507.48,7504.65,7489.34,7479.12,7469.87,7476.32,7496.14,7535.15,7584.25,7629.65,7680.43,7735.65,7794.94,7858.48,7918.76,7979.98,8040.95,8095.29,8147.01,8180.35,8192.55,8183.82,8168.59,8156.06,8123.42,8079.9,8031.62,7966.68,7887.26,7812.39,7749.61,7690.34,7637.42,7593.76,7557.96,7537.33,7533.78,7539.4,7549.6,7559.33,7570.88,7600.72,7632.71,7679.73,7717.14,7745.62,7765.9,7780.95,7783.1,7800.08,7802,7788.63,7738.06,7693.31,7642.52,7602.38,7562.12,7525.94,7460.26,7378.58,7300.8,7228.21,7156.82,7098.79,7048.45,7011.29,6991.17,7000.46,7037.43,7090.54,7156.6,7235.81,7296.96,7344.86,7372.72,7385.58,7394.85,7397.42,7399.91,7396.12,7392.72,7375.32,7381.18,7385.52,7390.27,7388.54,7389.06,7390.61,7372.66,7357.5,7346.25,7330.09,7314.59,7304.93,7295.23,7281.93,7268.34,7256.36,7262.41,7266.71,7264.98,7265.13,7254.55,7275.71,7306.35,7334.76,7370.18,7392.32,7402.7,7414.71,7423.05,7425.66,7407.82,7380.8,7347.88,7307.53,7271.36,7220.83,7176,7139.16,7104.68,7069.77,7043.22,7020.6,7013.44,7014.57,7029.88,7049.17,7064.67,7081.69,7116.86,7145.66,7163.1,7163.24,7116.48,6968.29,6840.18,6716.04,6596.09,6454.87,6325.89,6204.08,6091.04,6037.3,6021.36,6011.5,6015.3,6055.59,6128.69,6216.62,6291.45,6388.18,6514.4,6649.41,6779.72,6891.46,6970.55,7023.04,7068.07,7112.3,7159.2,7205.9,7250.2,7292.58,7323.79,7354.55,7365.56,7358.06,7353.9,7336.54,7297.69,7261.17,7215.87,7168.9,7143.18,7103.74,7068.75,7034.43,7004.95,6991.31,6995.95,7007.51,7013.82,7003.95,7008.22,7019.17,7035.2,7055.09,7074.96,7079.49,7063.61,7042.35,6995.88,6959.08,6920.57,6876.48,6825.71,6775.03,6722.44,6682.93,6660.2,6643.38,6645.92,6655.9,6673.31,6705.99,6767.62,6823.06,6879.74,6911.61,6963.26,6994.39,7026.45,7052.19,7080.19,7098.9,7099.6,7113.24,7124.69,7130.46,7113.7,7074.59,7013.78,6926.6,6855.11,6775.26,6705.58,6625.77,6454.3,5977.83,5186.22,3382.09,1229.41,58.026,35.51,31.999,88.133,448.08,2324.14,2335.91,2339.5,2335.58,2329.75,2322.37,2309.55,2299.81,2289.12,2279.88,2265.17,2253.59,2250.16,2248.01,2248.45,2246.78,2241.19,2240.86,2237.62,2229.39,2226.88,2203.11,2212.45,2204.21,1382.69,1559.68,5003.39,6150.31,6574.2,6730.04,6858.34,6898.44,6900.34,6897.72,6877.74,6869.76,6841.18
9000,9000,9000,9000,9000,9000,9000,9000,9000,9000,9000,9000,9000,9000,9000,9000,9000,9000,9000,9000,9000,9000,9000,9000,9000,9000,9000,9000,9000,9000,9000,9000,9000,9000,9000,9000,9000,9000,9000,9000,9000,9000,9000,9000,9000,9000,8875.73,8493.88,8115.58,7728.18,7393.9,7100.25,6806.29,6565.49,6426.53,6340.73,6335.89,6418.63,6569.62,6745.42,6942.98,7181.42,7533.46,7978.08,8425.85,8829.44,9000,9000,9000,9000,9000,9000,9000,9000,9000,9000,9000,9000,9000,9000,9000,9000,9000,9000,9000,9000,9000,9000,9000,9000,9000,9000,9000,9000,9000,9000,9000,9000,9000,9000,9000,9000,9000,9000,9000,9000,9000,9000,9000,9000,9000,9000,9000,9000,9000,9000,9000,9000,9000,9000,9000,9000,8812.65,8798.57,8311.38,7919.27,7653.65,7520.75,7511.25,7498.46,7486.71,7478.92,7484.45,7500.95,7542.8,7587.35,7631.15,7679.22,7728.54,7782.6,7833.49,7885.68,7942.1,7992.51,8039.36,8092.93,8126.09,8139.31,8132.94,8126.31,8118.74,8087.26,8050,8012.71,7955.5,7887.63,7830.35,7777.19,7727.46,7686.31,7647.11,7613.22,7594.43,7589.08,7599.92,7608.4,7617.33,7628.51,7656.07,7685.61,7731.69,7773.69,7799.85,7818.32,7833.67,7837.49,7856.38,7854.41,7843.56,7790.36,7740.82,7688.68,7647.6,7603.08,7564.98,7495.17,7406.93,7324.78,7245.43,7168.11,7109.3,7061.51,7023.7,7004.13,7019.02,7059.15,7116.77,7189.98,7271.33,7334.65,7380.25,7416.29,7430.24,7446.12,7455.37,7464.05,7466.9,7464.35,7456.05,7463.55,7465.86,7470.4,7467.76,7465.48,7462.1,7445.46,7425.5,7414.38,7388.51,7372.71,7361.81,7348.79,7337.93,7316.23,7312.62,7318.01,7321.27,7319.58,7300.79,7302.33,7316.69,7342.82,7367,7394.04,7409.33,7412.05,7419.51,7424.79,7425.11,7408.76,7384.77,7354.23,7319.71,7287.43,7241.69,7201.1,7168.42,7140.71,7110.09,7081.67,7060.09,7054.3,7054.54,7069.66,7086.82,7101.86,7117.67,7149,7174.27,7189.79,7185.69,7137.98,6985.58,6855.29,6728.95,6609.77,6466.69,6344.7,6221.84,6103.3,6038.92,6025.38,6011.77,6018.56,6049.82,6124.67,6208.25,6289.98,6390.98,6516.53,6644.32,6765.22,6872.5,6954.89,6997.91,7044.03,7076.73,7125.21,7167.06,7205.78,7243.19,7278.77,7296.12,7317.96,7313.87,7312.08,7299,7271.53,7241,7209.13,7173.09,7152.47,7120.95,7086.74,7057.18,7035.31,7024.58,7027.44,7039.4,7044.7,7035.34,7038.86,7039.05,7052.9,7070.69,7089.63,7095.56,7080.6,7062.51,7032.85,6997.38,6954.61,6904.28,6853.07,6800.19,6743.12,6702.01,6673.55,6655.3,6657.25,6665.58,6682.86,6709.69,6746.03,6796.46,6845.34,6879.46,6919.38,6945.6,6980.47,7015.86,7044.18,7061.97,7087.2,7103.2,7119.2,7113.52,7096.67,7033.18,6970.63,6857.04,6795.34,6691.67,6631.89,6488.45,6054.11,5584.5,3893.71,893.957,111.944,33.185,33.012,32.489,69.118,442.498,1813.85,2336.72,2338.83,2334.11,2327.26,2319.96,2309.35,2300.08,2287.14,2275.86,2261.56,2252.41,2249.2,2245.09,2247.66,2246.51,2241.89,2241.48,2235.68,2227.23,2227.75,2128.68,2211.5,2099.38,23.965,320.298,4191.31,6162.24,6544.39,6835.5,6917.35,6916.78,6922.1,6483.62,6637.32,6751.81,6788.89
9000,9000,9000,9000,9000,9000,9000,9000,9000,9000,9000,9000,9000,9000,9000,9000,9000,9000,9000,9000,9000,9000,9000,9000,9000,9000,9000,9000,9000,9000,9000,9000,9000,9000,9000,9000,9000,9000,9000,9000,9000,9000,9000,9000,9000,9000,9000,8537.92,8146.67,7795.73,7435.87,7123.94,6829.27,6604.82,6465.42,6395.51,6389.68,6468.29,6613.23,6783.41,6982.17,7223.74,7567.57,7999.46,8430.75,8829.84,9000,9000,9000,9000,9000,9000,9000,9000,9000,9000,9000,9000,9000,9000,9000,9000,9000,9000,9000,9000,9000,9000,9000,9000,9000,9000,9000,9000,9000,9000,9000,8822.16,7802.24,8590.29,8790.78,8765.92,8801.8,9000,9000,9000,9000,9000,9000,9000,9000,9000,9000,9000,9000,9000,9000,9000,9000,9000,9000,9000,9000,8795.12,8313.3,7928.78,7672.16,7539.58,7524.37,7510.12,7496.07,7482.6,7480.56,7501.89,7539.21,7579.51,7617.16,7662.93,7704.58,7750.64,7795.14,7841.48,7893.5,7942.51,7985.68,8041.06,8076.57,8093.03,8094.25,8092.11,8088.44,8061.9,8028.9,7996.36,7947.22,7892.23,7840.21,7796.66,7760.85,7723.37,7688.88,7661.92,7646.36,7644.08,7642.55,7660.71,7667.87,7670.78,7698.38,7729.17,7768.51,7817.3,7847.75,7865.85,7891.58,7888.73,7902.87,7903.8,7899.6,7844.36,7792.94,7739.83,7696.3,7650.19,7609.27,7538.1,7447.65,7361.77,7279.28,7200.07,7140.67,7093.23,7049.96,7032.83,7047.26,7092.58,7149.78,7223.86,7298.27,7355.91,7399.71,7438.36,7456.45,7473.93,7488.15,7503.2,7511.04,7513.5,7510.61,7516.46,7521.18,7526.48,7522.17,7519.02,7512.34,7496.15,7475.22,7464.78,7442.67,7428.48,7417.05,7406.69,7386.98,7372.87,7371.93,7375.58,7376.9,7360.66,7354.34,7349.92,7360.97,7377.23,7394.13,7413.19,7418.98,7417.42,7419.4,7422.63,7420.38,7408.02,7386.46,7362.03,7334.22,7308.55,7272.27,7234.4,7207.51,7182.02,7154.43,7125.11,7104.21,7099.55,7099.02,7111.59,7126.9,7139.62,7152.87,7180.35,7201.06,7214,7205.82,7155.38,7004.53,6871.3,6745.36,6625.55,6480.73,6352.17,6232.13,6114.69,6041.06,6026.64,6012.48,6017.19,6046.02,6114.25,6205.23,6295.42,6388.49,6499.83,6639.89,6760.58,6862.08,6929.93,6977.17,7013.1,7047.79,7079.6,7126.6,7158.08,7193.11,7212.28,7243.85,7258.23,7262.72,7268.36,7261.27,7240.94,7220.49,7196.95,7173.74,7160.19,7135.66,7107.72,7079.15,7060.48,7048.3,7050.77,7060.73,7065.36,7053.27,7052.38,7048.66,7059.48,7071.24,7087.92,7092.16,7075.77,7058.63,7029.59,6998.7,6959.28,6911.9,6862.16,6809.91,6753.38,6709.46,6675.18,6655.69,6648.08,6656.09,6659.61,6678.1,6707.95,6750.89,6794.84,6823.53,6860.13,6884.09,6921.78,6958.58,6992.43,7032.19,7064.17,7070.52,7102.09,7090.41,7069.05,7018.67,6970.11,6829.75,6775.68,6650.04,6017.89,5552.15,3151.05,65.106,33.904,33.549,33.457,33.313,49.626,537.158,2019.56,2273.8,2329.95,2337.06,2338.08,2332.69,2324.81,2317.56,2306.93,2297.82,2285.16,2274.73,2260.61,2249.58,2246.34,2244.9,2244.48,2244.26,2240.25,2239.84,2236.78,2231.01,2229.64,2177.17,2215.59,2208.36,39.37,17.43,4038.38,5916.19,6455.73,6793.01,6894.43,6874.8,6900.4,6372.98,2677.62,5107.58,6470.67
9000,9000,9000,9000,9000,9000,9000,9000,9000,9000,9000,9000,9000,9000,9000,9000,9000,9000,9000,9000,9000,9000,9000,9000,9000,9000,9000,9000,9000,9000,9000,9000,9000,9000,9000,9000,9000,9000,9000,9000,9000,9000,9000,9000,9000,9000,9000,8656.24,8255.38,7861.31,7514.46,7186.57,6883.54,6660.75,6513,6458.28,6459.62,6532.69,6680.91,6871.81,7087.35,7346.89,7705.47,8157.6,8588.8,8908.9,9000,9000,9000,9000,9000,9000,9000,9000,9000,9000,9000,9000,9000,9000,9000,9000,9000,9000,9000,9000,9000,9000,9000,9000,9000,9000,9000,9000,8829,8523,7982.85,7440.62,3797.44,7924.44,8324.52,8495.8,8666.6,8828.11,9000,9000,9000,9000,9000,9000,9000,9000,9000,9000,9000,9000,9000,9000,9000,9000,8813.8,9000,9000,8761.47,8284.78,7933.27,7689.87,7544.61,7524.05,7514.35,7494.13,7497.73,7497.1,7509.29,7540.73,7573.57,7606,7646.37,7682.52,7727.76,7767.57,7809.83,7864.66,7916.4,7966.43,8023.96,8061.82,8084.58,8087.52,8091.42,8089.46,8061.82,8028.97,7997.97,7952.45,7905.01,7862.57,7826.39,7797.19,7765.99,7739.87,7717.79,7707.39,7706.2,7714.98,7707.47,7717.9,7725.97,7754.62,7787.46,7839.57,7881.65,7908.47,7930.61,7958.66,7956.2,7968.4,7969.62,7957.7,7902.69,7847.21,7782.88,7735.26,7686.82,7645.1,7570.88,7481.96,7404.06,7320.47,7240.86,7185.96,7139.94,7098.77,7081.13,7098.03,7146.19,7203.38,7272.02,7342.92,7395.15,7438.71,7475.28,7497.1,7516.89,7537.92,7557.75,7568.9,7577.62,7567.42,7575.26,7577.16,7579.92,7577.23,7569.59,7563.26,7547.46,7526.46,7518.32,7492.83,7467.52,7453.77,7443.19,7431.11,7419.35,7415.95,7420.97,7417.65,7412.06,7404.43,7394.7,7399,7407.7,7417.27,7426.03,7421.36,7414.3,7411.24,7407.8,7403.28,7391.03,7378.61,7361.49,7339.67,7321.52,7290.9,7262.19,7240.55,7220.63,7194.95,7171.9,7153.12,7148.19,7147.63,7160.04,7173.77,7184.58,7193.66,7219.04,7240.56,7249.59,7236.04,7185.27,7032.88,6897.04,6767.78,6647.73,6499.89,6368.08,6246.48,6126.13,6043.37,6026.18,6009.72,6010.98,6040.36,6118.33,6206.23,6296.02,6385.98,6488.94,6608.4,6725.22,6820.21,6883.52,6925.79,6958.6,6990.68,7026.41,7058.41,7091.03,7121.22,7152.58,7183.65,7208.16,7216.46,7224.36,7226.42,7214.49,7199.9,7186.34,7169.44,7166.27,7147.28,7124.31,7099.58,7079.9,7067.06,7070.88,7080.48,7081.6,7067.85,7055.17,7054.09,7055.08,7063.33,7075.93,7073.49,7053.6,7033.17,7004.36,6974.43,6940.07,6894.81,6844.33,6792.06,6735.13,6692.33,6655.47,6636.58,6622.29,6625.6,6624.49,6635.81,6658.55,6692.72,6730.62,6758.57,6790.96,6823.52,6862.85,6902.44,6948.75,6991.7,7022.19,7054.7,7086.66,7091.08,7074.04,7011.36,6933.92,6807.31,6727.47,5740.83,4219.64,3044.97,767.598,147.734,40.14,33.85,28.044,37.849,212.438,2008.76,2326.89,2332.38,2326.38,2335.42,2337.96,2332.03,2323.08,2304.51,2294.05,2290.67,2284.1,2265.18,2251.68,2235.06,2231.42,2227.78,2238.75,2238.9,2243.56,2238.36,2232.81,2227.1,2225.89,2221.83,2217.44,2210.57,1294.22,17.375,17.541,1293.02,5083.9,5488.87,5639.24,5712.7,5627.26,3866.21,3387.54,1183.27,3998.3
9000,9000,9000,9000,9000,9000,9000,9000,9000,9000,9000,9000,9000,9000,9000,9000,9000,9000,9000,9000,9000,9000,9000,9000,9000,9000,9000,9000,9000,9000,9000,9000,9000,9000,9000,9000,9000,9000,9000,9000,9000,9000,9000,9000,9000,9000,9000,8805.89,8402.75,7968.48,7598.05,7275.57,6976.72,6732.58,6577.88,6525.76,6543.5,6658.44,6821.87,7048.99,7295.07,7590.52,7985.27,8461.79,8865.04,9000,9000,9000,9000,9000,9000,9000,9000,9000,9000,9000,9000,9000,9000,9000,9000,9000,9000,9000,9000,9000,9000,9000,9000,9000,9000,9000,9000,8811,8793,7650,6831,6651,2322,6929.92,8243.6,8297.35,8396.23,8656.99,9000,9000,9000,9000,9000,9000,9000,9000,9000,9000,9000,9000,9000,9000,9000,9000,8759.8,9000,8684.83,8778.72,8316.88,7966.98,7728.27,7587.01,7563.14,7537.15,7512.42,7492.8,7508.8,7512.37,7531.34,7557.08,7580.31,7613.01,7646.21,7688.64,7728.29,7772.81,7835.12,7894.28,7949.55,8016.96,8060.28,8087.77,8099.25,8105.78,8106.03,8078.82,8045.15,8018.38,7976.57,7940.6,7904.77,7873.73,7850.98,7828.9,7807.47,7790.84,7784.85,7786.02,7787.21,7786.62,7798.48,7809.39,7838.27,7869.96,7926.5,7972.88,8012.8,8037.12,8057.15,8060.92,8073.63,8075.3,8058.79,7996.61,7926.38,7861.13,7812.9,7754.75,7711.59,7635.51,7549.76,7453.02,7378.55,7304.74,7245.85,7199.25,7160.26,7142.09,7159.08,7208.69,7264.98,7327.98,7393.14,7442.74,7484.43,7527.28,7547.73,7573.65,7594.82,7621.66,7634.83,7634.1,7622.58,7624.28,7626.99,7630.83,7621.38,7613.45,7603.42,7587.76,7569.68,7558.84,7534.77,7523.62,7503.65,7493.93,7483.97,7473.17,7471.87,7473.88,7470.56,7464.53,7450.83,7437.13,7433.17,7435.13,7434.45,7434.8,7420.83,7403.71,7391.94,7384.71,7380.15,7369.47,7361.86,7348.18,7330.38,7321.43,7296.37,7278.8,7262.98,7245.35,7227.79,7205.48,7188.25,7186.36,7187.11,7201.27,7212.73,7221.82,7230.19,7253.2,7271.98,7282.67,7266.65,7215.2,7066.13,6927.27,6795.99,6672.78,6519.08,6381.72,6259.21,6137.24,6050.29,6028.28,6010.85,6010.41,6037.87,6115.8,6205.95,6296.2,6384.07,6481.56,6596.47,6706.9,6795.21,6854.97,6894.61,6924.91,6952.29,6984.7,7014.22,7043.44,7073.07,7101.44,7134.08,7158,7171,7183.41,7189.53,7190.33,7182.68,7177.6,7167.69,7170.52,7159.58,7139.59,7116.74,7098.13,7086.17,7085.64,7094.44,7093.3,7068.43,7058.86,7052.07,7050.9,7048.48,7061.08,7047.52,7023.32,7007.73,6977.34,6937.31,6895.23,6860.98,6814.06,6762.75,6708.19,6663.27,6625.58,6596.91,6577.41,6562.54,6557.42,6578.59,6604.61,6632.52,6653.19,6679.08,6703.7,6736.08,6776.67,6824.65,6880.18,6925.05,6965.51,6999.37,7034.53,7038.73,7032.72,6975.02,6934.61,6828.46,6625.36,6179.95,5417.91,4026.21,2634.98,1560.4,571.634,28.733,22.708,16.223,185.583,1630.66,2248.22,2318.9,2322.17,2325.47,2332.78,2320.45,2305.41,2297.97,2301.08,2295.77,2277.76,2270.87,2257.91,2235.32,2231.47,2230.6,2229.62,2235.95,2241.95,2232.75,2240.94,2232.98,2231.58,2227.94,2223.87,2212.54,2146.92,21.681,17.43,367.295,4443.95,6151.42,5592.63,5857.25,5850.33,5878.83,5154.15,4590.16,3095.71
9000,9000,9000,9000,9000,9000,9000,9000,9000,9000,9000,9000,9000,9000,9000,9000,9000,9000,9000,9000,9000,9000,9000,9000,9000,9000,9000,9000,9000,9000,9000,9000,9000,9000,9000,9000,9000,9000,9000,9000,9000,9000,9000,9000,9000,9000,9000,8858.87,8443.72,8014.43,7650.78,7322.14,7026.5,6795.58,6624.76,6606.26,6641.13,6769.05,6970.28,7238.98,7531.97,7879.35,8324.41,8815.88,9000,9000,9000,9000,9000,9000,9000,9000,9000,9000,9000,9000,9000,9000,9000,9000,9000,9000,9000,9000,9000,9000,9000,9000,9000,9000,9000,9000,9000,8622,8802,6966,5391,5319,1566,5498.8,5795.67,6767.67,7199.6,7091.35,9000,9000,9000,9000,9000,9000,9000,9000,9000,9000,9000,9000,9000,9000,9000,9000,9000,8884.77,8557.72,8804.09,8359.14,8026.47,7792.63,7654.27,7629.15,7592.62,7547.54,7538.34,7530.56,7525.23,7528.96,7541.35,7555.97,7578.68,7607.68,7652.24,7698.23,7749.41,7823.14,7896.47,7964.72,8035.48,8084.69,8117.84,8128.77,8139.82,8145.18,8117.12,8086.38,8062.1,8029.08,7997.75,7971.53,7954.21,7931.5,7911.92,7892.23,7881.9,7876.82,7873.63,7883.71,7893.07,7903.75,7916.36,7941.45,7974.9,8032.63,8085.65,8123.98,8146.85,8168.78,8172.59,8183.63,8183.1,8164.66,8102.26,8034.52,7967.51,7909.66,7843.38,7801.83,7725.91,7642.23,7552.99,7472.19,7390.32,7329.97,7277.39,7234.75,7217.93,7233.19,7276.02,7325.46,7378.06,7441.39,7477.52,7520.5,7564.92,7590.96,7617.52,7639.54,7659.19,7674.74,7685.19,7675.75,7668.29,7669.68,7671.04,7673.17,7657.77,7650.54,7633.07,7621.4,7614.57,7595.41,7576.26,7562.65,7550.89,7543.58,7533.65,7531.47,7532.87,7525.18,7511.61,7494.27,7474.92,7459.84,7451.03,7441.44,7431.28,7406.75,7380.25,7359.1,7345.82,7337.2,7329.08,7323.83,7316.19,7306.09,7303.94,7289.91,7283.83,7274.81,7262.84,7247.18,7228.07,7214.61,7215.09,7215.56,7228.84,7240.97,7248.19,7256.77,7280.69,7301.18,7311.07,7293.76,7246.18,7102.56,6962.22,6828.07,6701.8,6542.11,6398.01,6270.27,6145,6056.46,6026.05,6009.29,6008.7,6037.42,6118.61,6209.12,6302.22,6390.13,6487.9,6601.03,6709.82,6793.58,6851.53,6894.24,6923.39,6948.29,6969.94,6994.45,7015.49,7037.98,7066.44,7094.32,7118.44,7122.37,7126.23,7131.66,7156.97,7157.63,7142.93,7142.84,7152.11,7145.58,7133.86,7111.98,7105.46,7093.31,7091.57,7099.3,7094.83,7077.67,7064.02,7043.77,7027.51,7025.36,7041.29,7029.99,7000.12,6977.31,6923.53,6890.4,6854.79,6818.23,6770.53,6717.79,6661.17,6615.44,6575.41,6543.94,6522.02,6500.9,6490.81,6496.5,6532.5,6554.85,6581.45,6606.96,6630.74,6665.68,6707.12,6750.47,6801.62,6857.69,6911.6,6953.56,6978.81,6985.67,6980.88,6914.29,6890.72,6759.05,6664.8,6549.5,5905.74,5196.08,4065.19,2429.97,1680.32,325.78,34.394,30.631,155.372,754.674,2015.52,2340.08,2334.93,2331.93,2339.04,2333.21,2322.59,2314.43,2306.67,2297.98,2286.54,2277.48,2264.76,2252.9,2249.2,2234.62,2245.04,2245.72,2243.19,2244.65,2241.3,2233.63,2231.9,2227.92,2220.75,2212.53,2203.75,54.781,17.43,113.541,3115.34,5855.52,5624.24,6027.29,6324.77,6410.27,6133.4,5589.99,6096.51
9000,9000,9000,9000,9000,9000,9000,9000,9000,9000,9000,9000,9000,9000,9000,9000,9000,9000,9000,9000,9000,9000,9000,9000,9000,9000,9000,9000,9000,9000,9000,9000,9000,9000,9000,9000,9000,9000,9000,9000,9000,9000,9000,9000,9000,9000,9000,8810.13,8408.52,7968.91,7414.62,7319.97,7036.48,6813.62,6665.31,6661.77,6723.55,6888.6,7128.96,7453.93,7797.17,8192.49,8679.85,9000,9000,9000,9000,9000,9000,9000,9000,9000,9000,9000,9000,9000,9000,9000,9000,9000,9000,9000,9000,9000,9000,9000,9000,9000,9000,9000,9000,9000,9000,8145,8567.78,6461.85,5274,5129.92,1746,4428,4122,4347,5148,4607.85,9000,9000,9000,9000,9000,9000,9000,9000,9000,9000,9000,9000,9000,9000,9000,9000,9000,9000,9000,8784.33,8352.74,8052.25,7840.04,7706.31,7678.49,7650.23,7619.4,7587.29,7566.05,7552.65,7544.29,7548.15,7552.62,7570.42,7599.45,7649.6,7701.98,7762.05,7849.32,7933.53,8009.29,8089.31,8145.76,8178.8,8184.99,8194.07,8195.74,8166.99,8136.77,8112.07,8078.27,8052.33,8031.92,8023.7,8008.17,7994.93,7977,7968.72,7962.85,7963.48,7971.96,7985.27,8000.64,8016.93,8042.2,8073.93,8125.43,8172.97,8208.08,8230.56,8232.18,8239.42,8242.85,8238.33,8218.21,8159.34,8092.07,8022.44,7963.19,7900.38,7849.73,7776.97,7690.36,7606.46,7528.37,7456.4,7399.35,7351.78,7321.02,7311.39,7327.97,7368.66,7414.34,7463.23,7520.05,7557.67,7589.62,7631.09,7653.88,7676.43,7696.02,7710.9,7720.97,7727.87,7709.89,7708.02,7714.61,7722.86,7712.23,7703.89,7690.37,7677.19,7667.92,7670.62,7648.96,7643.04,7624.02,7611.56,7603.41,7592.37,7585.21,7579.85,7568.93,7548.97,7523.52,7496.28,7472.61,7449.13,7429.41,7408.41,7372.19,7337.23,7308.6,7289.9,7280.39,7272.9,7273.96,7276.38,7274.4,7287.87,7287.22,7291.95,7289.57,7287.12,7279.74,7263.23,7250.5,7250.21,7246.33,7260.24,7271.38,7276.18,7283.72,7304.05,7326.45,7334.91,7315.32,7267.19,7134.25,6993.04,6856.68,6729.88,6562.53,6413.74,6278.05,6153.78,6061.16,6020.12,6004.44,6002.19,6030.49,6112.88,6208.25,6308.49,6400.28,6506.08,6620.44,6736.66,6826.62,6873.41,6907.17,6934.74,6947.98,6972.14,6991.3,7011.83,7031.05,7044.95,7060.14,7074.99,7068.34,7076.53,7084.82,7092.43,7093.48,7095.03,7102.3,7115.43,7116.66,7109.56,7099.32,7090.7,7085.03,7086.78,7091.87,7094.25,7075.45,7058.11,7032.5,7010.95,7000.54,7006.96,6974.82,6963.01,6921.62,6879.64,6844.28,6800.67,6762.74,6714.14,6662.43,6607.52,6558.88,6515.87,6481.25,6455.35,6432.21,6426.15,6429.43,6453.02,6474.99,6506.19,6533.5,6566.04,6602.63,6642.59,6679.22,6732.59,6797.95,6840.65,6884.33,6898.27,6920.69,6913.5,6862.36,6812.71,6672.02,6633.08,6528.45,6132.01,5420.88,4034.48,2944.7,1877.44,518.109,60.778,41.204,128.172,573.008,1764.93,2337.95,2336.71,2333.63,2340.89,2335.14,2324.07,2315.5,2307.71,2294.49,2286.04,2277.1,2266.78,2253.98,2249.79,2248.97,2245.67,2243.97,2241.52,2242.11,2238.85,2233.98,2233.98,2226.85,2217.42,2211.53,2203.41,120.69,21.805,24.438,1189.82,3876.05,5421.09,6196.41,6480.88,6473.94,6385.96,6480.15,6479.73
9000,9000,9000,9000,9000,9000,9000,9000,9000,9000,9000,9000,9000,9000,9000,9000,9000,8883,8892,8901,8901,9000,9000,9000,9000,9000,9000,9000,9000,9000,9000,9000,9000,9000,9000,9000,9000,9000,9000,9000,9000,9000,9000,9000,9000,9000,9000,8709.35,8326.04,7927.7,7595.87,7285.92,7018.09,6807.57,6681.72,6727.06,6818.91,7016.88,7301.62,7672.36,8064.34,8504.47,9000,9000,9000,9000,9000,9000,9000,9000,9000,9000,9000,9000,9000,9000,9000,9000,9000,9000,9000,9000,9000,9000,9000,9000,9000,9000,9000,9000,9000,9000,9000,8171.77,8891.78,7478.52,6902.39,6119.52,1736.78,3509.77,3653.85,3572.85,3122.62,2897.62,8819.5,9000,9000,9000,9000,9000,9000,9000,9000,9000,9000,9000,9000,9000,9000,9000,9000,9000,9000,8739.58,8321,8045.7,7851.42,7719.62,7684.77,7645.31,7611.88,7580,7555.18,7538.61,7529.77,7528.33,7529.02,7554.71,7592.47,7650.7,7718.74,7795.14,7895.39,7993.02,8084.35,8175.2,8232.86,8263.9,8266.39,8270.79,8265.26,8235.7,8199.85,8173.84,8141.19,8112.75,8088.29,8072.69,8055.28,8038.11,8016.98,8006.65,8001,8002.29,8018.52,8041.44,8062.62,8077.58,8103.61,8139.6,8192,8240.88,8273.45,8290.42,8297.25,8301.36,8300.05,8290.57,8266.77,8204.58,8119.34,8049,7973.72,7908.27,7852.36,7778.24,7692.8,7615.71,7545.53,7477.93,7425.13,7384.47,7360.21,7353.04,7377.45,7425.52,7472.15,7520,7573.26,7618.03,7655.74,7690.1,7709.62,7729.84,7745.22,7759.67,7769.37,7772.72,7746.21,7766.06,7766.51,7769.25,7760.41,7746.19,7731.3,7725.13,7719.14,7722.08,7713.52,7701.3,7686.85,7665.44,7653.18,7639.43,7630.93,7617.74,7599.12,7569.95,7537.96,7498.66,7466.84,7432.77,7401.6,7371.62,7328.39,7287.24,7255.79,7232.59,7221.61,7211.7,7213.5,7222.51,7228.26,7248.46,7266.63,7280.45,7288.65,7296.58,7299.15,7294.28,7282.64,7287.52,7285.56,7291.77,7299.96,7304.95,7309.45,7329.72,7348.4,7357.02,7344.81,7306.8,7186.66,7041.92,6903.49,6769.32,6595.4,6439.75,6301.79,6168.44,6065.41,6010.08,5994.01,5995.07,6022.92,6104.59,6204.68,6308.93,6404.73,6510.04,6627.27,6763.55,6849.82,6901.6,6927.24,6963.65,6982.77,6995.33,7014,7031.12,7029.75,7039.88,7040.73,7049.34,7046.85,7046.56,7050.74,7050.68,7051.38,7053.7,7062.99,7071.31,7075.28,7077.2,7079.23,7083.28,7083.92,7084.13,7094.84,7097.29,7089.27,7086.15,7057.29,7042.7,7027.09,7005.98,6984.72,6947.21,6905.13,6863.17,6810.55,6774.6,6725.11,6673.61,6612.1,6553.53,6504.89,6460.93,6424.51,6398.29,6369.73,6357.48,6356.68,6378.46,6401.92,6429.29,6459.3,6493.26,6533.2,6581.76,6630.37,6693.35,6753.47,6804.56,6836.65,6878.45,6865.86,6842.87,6799.6,6732.02,6630.32,6491.94,6429.77,5913.09,5126.71,4039.3,3014.92,1619.08,429.046,93.266,64.822,160.381,664.62,1674.31,2283.93,2342.54,2338.2,2344.38,2338.2,2326.18,2317.35,2309.88,2294.55,2284.51,2280.09,2269.95,2256.72,2251.97,2248.83,2250.13,2250.55,2245.84,2243.05,2241.81,2236.83,2234.82,2224.19,2216.81,2211.07,2202.99,456.891,24.004,17.486,171.174,1781.93,4065,6115.61,6374.25,6460.72,6567.08,6476.47,6615.42
9000,9000,9000,9000,9000,9000,9000,9000,9000,9000,9000,9000,9000,9000,8892,8892,8856,8811,8838,8784,8847,8891.67,9000,9000,9000,9000,9000,9000,9000,9000,9000,9000,9000,9000,9000,9000,9000,9000,9000,9000,9000,9000,9000,9000,9000,9000,9000,8602.33,8225.86,7864.24,7521.53,7218.11,6969.48,6774.55,6674.81,6762.02,6889.49,7133.48,7468.25,7874.57,8304.52,8764.84,9000,9000,9000,9000,9000,9000,9000,9000,9000,9000,9000,9000,9000,9000,9000,9000,9000,9000,9000,9000,9000,9000,9000,9000,9000,9000,9000,9000,9000,9000,9000,8882.65,9000,8756.39,8324.39,7811.39,2663.39,5444.39,5426.7,6254.37,5651.24,3428.24,9000,9000,9000,9000,9000,9000,9000,9000,9000,9000,9000,9000,9000,9000,9000,9000,9000,9000,8894.26,8708.53,8297.8,8042.83,7863.17,7729.39,7680.67,7633.34,7595.69,7562.01,7534.14,7524.38,7516.05,7508.12,7506.74,7536.6,7588.46,7662.46,7744.15,7832.29,7945.54,8052.09,8157.03,8250.48,8310.91,8343.2,8349.23,8349.63,8336.89,8304.52,8271.51,8236.28,8198.74,8164.06,8133.44,8104.6,8079.36,8058.21,8026.35,8005.29,7999.02,7999.72,8023.22,8056.17,8087.49,8116.13,8152.29,8192.96,8251.52,8308.58,8351.85,8377.26,8392.52,8400.42,8405.11,8389.55,8358.25,8293.18,8203.88,8111.29,8025.98,7937.72,7862.02,7776.84,7687.13,7609.33,7541.12,7477.07,7427.9,7389.15,7365.2,7364.07,7388.91,7440.89,7495.06,7541.53,7602.36,7649,7688.4,7717.47,7728.86,7744.65,7757.54,7767.56,7774.45,7776.92,7751.75,7767.81,7768.67,7773.82,7758.45,7752.2,7741.59,7734.92,7732.84,7735.38,7724.53,7721.26,7693.36,7668.32,7656.57,7640.67,7626.45,7607.87,7580.61,7546.21,7508.02,7466.18,7428.25,7391.07,7357.21,7319.28,7271.95,7233.95,7200.13,7181.2,7168.68,7159.88,7167.74,7182.62,7194.81,7220.96,7248.4,7274.3,7288.97,7306.83,7318.55,7315.82,7311.16,7317.95,7322.58,7325.32,7335.39,7339.95,7344.6,7365.91,7381,7395.81,7396.5,7370.84,7261.16,7111.91,6965.91,6822.7,6643.41,6475.11,6330.64,6184.57,6067.78,6000.12,5981.75,5987.38,6023.14,6108.88,6209.92,6319.81,6423.38,6526.69,6660.05,6805.47,6894.79,6943.94,6976.88,7006.48,7026.42,7042.06,7065.46,7078.86,7057.16,7057.66,7055.7,7055.17,7047.08,7029.02,7026.47,7021.32,7025.23,7038.23,7048.19,7057.73,7066.33,7072.18,7081.79,7090.88,7091.26,7089.3,7092.75,7091.18,7100.1,7083.82,7048.61,7030,7017.3,6990.61,6957.54,6917.48,6870.57,6825.89,6776,6734.32,6680.77,6632.07,6571.75,6516.17,6468.1,6426.89,6389.72,6361.54,6335.45,6316.71,6317.76,6332.93,6344.18,6367.48,6395.59,6433.36,6471.17,6525.17,6575.41,6632.59,6719.45,6771.11,6830.32,6849.97,6839.79,6821.71,6805.84,6753.9,6640.65,6551.64,6298.07,5906.66,5406.65,4470.71,3242.65,1848.62,575.83,112.716,46.55,78.388,331.633,981.889,2111.18,2340.52,2338.19,2343.52,2337.56,2326.01,2316.93,2309.77,2297.22,2287.81,2281.31,2271.49,2258.61,2253.7,2252.58,2251.79,2252.13,2250.1,2246.46,2242.47,2237.4,2234.97,2224.35,2216.02,2210.49,2202.29,1054.8,80.829,24.162,71.698,432.504,2467.79,4684.75,6067.3,6372.2,6395.84,6389.15,6694.68
