10000,10000,10000,10000,9713,9188.37,8742.29,8337.58,7941.55,7626.03,7422.61,7334.23,7379.99,7539.99,7795.98,8095.41,8499.97,9028.98,9675.7,10000,10000,10000,10000,10000,10000,10000,10000,10000,10000,10000,10000,10000,10000,10000,10000,10000,10000,10000,10000,10000,10000,10000,10000,10000,10000,10000,10000,10000,10000,10000,10000,10000,10000,10000,10000,10000,10000,10000,9870,9780,10000,10000,10000,10000,10000,10000,10000,10000,10000,10000,10000,10000,9572.11,9108.07,8786.59,8663.06,8713.34,8778.75,8810.01,8830.34,8850.99,8858.89,8886.21,8915.73,8938.16,8971.91,9000.01,9020.16,9044.86,9074.09,9088.45,9095.86,9109.91,9119.66,9119.47,9142.11,9130.24,9109.75,9073.56,9052.83,9031.04,9003.36,8988.81,8990.08,8999.7,9009.89,9033.45,9061.99,9075.27,9096.55,9115.54,9145.21,9182.76,9199.04,9203.93,9212.64,9218.19,9214.54,9210.85,9197.29,9176.61,9132.4,9112.73,9098.41,9070.41,9058.9,9052.39,9052.39,9042.14,9008.5,8977.18,8926.39,8877.47,8841.07,8815.21,8786.3,8750.67,8724.03,8707.95,8714.99,8739.68,8773.28,8791.16,8792.71,8804.33,8819.6,8824.57,8824.46,8826.44,8817.56,8808.8,8819.41,8832.85,8835.75,8838.52,8835.14,8844.43,8865.28,8891.13,8908.62,8918.61,8942.55,8974.32,8993.48,9011.09,9026.14,9037.52,9043.85,9057.39,9071.96,9056.76,9036.68,9032.38,9023.37,9006.58,9003.31,9039.73,9013.04,8978.71,8945.31,8906.11,8887.14,8857.64,8838.54,8797.92,8772.84,8731.19,8706.63,8682.49,8683.56,8651.79,8585,8286.61,8042.58,7870.39,7702.46,7510.9,7321.75,7157.28,6995.54,6864.08,6909.14,6969.27,6997.65,7049.26,7141.92,7262.95,7381.74,7529.07,7683.05,7830.38,7925.51,8004.54,8063.94,8100.33,8125.03,8150.88,8181.04,8221.44,8258.83,8287.48,8321.78,8337.38,8323.79,8319.73,8301.68,8285.96,8239.74,8165.06,8120.41,8047.08,7917.08,7783.62,7628.14,7468.07,7286.7,7114.58,6954.42,6800.91,6653.32,6250.11,5343.29,3365.85,500.884,1402.76,1418.05,3324.84,3221.88,3192.06,3154.67,3131.45,3113.91,3110.69,3107,3103.2,3090.85,3068.92,3067.88,3075.8,3081.35,3086.46,3096.51,3233.4,3481.18,147.593,508.355,4665.43,6356.33,7812.83,7923.32,7954.57,8008.86,8056.94,8102.91,8131.25,8157.45,8173.58,8211.95,8245.37,8270.89,8300.89,8324.18,8348.84,8383.14,8396.93,8409.26,8404.62,8400.46,8392.25,8360.16,8348.96,8307.02,8275.11,8239.37,8207.22,8178.91,8139.83,8094.06,8055.7,8028.88,8014.39,8022.97,8014.61,8009.51,8010.56,8000.09,8028.04,8023.88,8008.2,7984.84,7963.59,7932.72,7901.43,7866.64,7832.29,7787.65,7754.97,7721.28,7687.44,7664.26,7648.74,7635.77,7635.72,7637.94,7635.27,7640.31,7650.66,7669.36,7679.58,7685.2,7688.14,7685.84,7683.54,7680.66,7674.36,7658.3,7645.17,7633.33,7624.93,7620.85,7617.36,7609.53,7614.68,7623.95,7640.9,7667.39,7693.66,7718.88,7746.11,7772.45,7793.95,7813.75,7818.85,7809.24,7783.28,7742.03,7711.86,7709.3,7689.56,7672.36,7668.17,7662.18,7666.67,7666.75,7661.88,7652.62,7647.44,7636.79,7623.88,7597.84,7577.98,7556.78,7530.67,7498.31,7465.48,7428.04,7387.49,7341.26,7296.2,7251.88,7213.31,7170.95,7104.34,7036.75,6940.2,6850.74,6762.49,6668.74,6584.71,6510.42,6450.19,6393.61,6341.75,6328.28,6354.68,6410.7,6500.46,6597.38,6703.6,6809.17,6921.84,7035.36,7143.95,7200.71,7234.61,7252.86
10000,10000,10000,10000,9667.22,9165.77,8736.02,8340.63,7948.24,7630.79,7444.56,7365.96,7421.02,7577.64,7830.49,8120.3,8519.46,9034.02,9648.51,10000,10000,10000,10000,10000,10000,10000,10000,10000,10000,10000,10000,10000,10000,10000,10000,10000,10000,10000,10000,10000,10000,10000,10000,10000,10000,10000,10000,10000,10000,10000,10000,10000,10000,10000,10000,10000,10000,10000,10000,10000,10000,10000,10000,10000,10000,10000,10000,10000,10000,10000,10000,10000,9547.34,9120.57,8818.97,8697.55,8752.17,8815.8,8841.46,8861.59,8881.45,8884.95,8900.94,8925.59,8943.85,8969.66,8992.64,9005.38,9024.16,9048.67,9062.65,9063.63,9075.99,9080.9,9078.67,9107.33,9101.59,9081.51,9051.69,9032.01,9010.65,8986.7,8977.68,8975.79,8987.65,8994.16,9021.26,9050.11,9069.67,9096.54,9120.34,9155.1,9189.16,9201.71,9212.86,9220.8,9223.04,9216.51,9211.3,9199.7,9175.18,9133.31,9113.65,9100.35,9070.77,9053.26,9052.4,9052.5,9041.92,9013.7,8991.09,8949.12,8911.32,8885.95,8866.12,8844.85,8816.71,8792.21,8779.92,8780.35,8799.05,8825.09,8824.44,8819.68,8827.58,8834.85,8833.92,8821.42,8814.05,8797.3,8785.74,8794.64,8805.2,8804.79,8803.67,8797.44,8811.94,8837.94,8865.79,8888.28,8902.03,8931.21,8972.66,9000.23,9021.01,9041.84,9059.72,9069.33,9082.11,9103.54,9085.2,9062.67,9054.34,9050.46,9032.07,9025.54,9055.5,9021.54,8980.69,8939.84,8892,8865.36,8828.62,8804,8763.24,8739.38,8698.01,8671.75,8646.24,8646.32,8620.66,8556.04,8265.28,8025.41,7859.15,7696.28,7510.22,7321.69,7156.39,6993.46,6860.78,6898.28,6958.21,6984.56,7037.58,7131.82,7254.94,7377.43,7528.07,7677.94,7823.69,7923.08,7996.54,8057.45,8083.15,8084.64,8107.06,8125.13,8163.18,8189,8214.13,8232.77,8239.6,8237.5,8223.33,8213.29,8182.69,8138.04,8095.45,8045.23,7971.79,7846.86,7725.37,7571.73,7412.74,7244.61,7076.44,6920.88,6772.37,6612.41,6208.44,5406.02,3758.33,1265.49,1481.94,1369.32,3257.27,3219.68,3188.71,3152.45,3129.03,3111.23,3107.86,3104.86,3106.29,3093.05,3070.44,3069.2,3077.38,3081.89,3086.74,3095.75,3211.41,3408.8,137.573,400.378,4315.54,6209.88,7891.3,7975.9,8011.79,8060.46,8090.02,8128.1,8147.71,8159.06,8181.76,8205.8,8216.13,8250.65,8269.81,8278.05,8303.39,8337.91,8350.2,8360.77,8354.39,8346.66,8338.9,8319.63,8287.2,8269.09,8234.21,8199.63,8161.07,8131.12,8090.26,8044.85,8006.9,7982.88,7970.18,7981.5,7985.99,7985.67,7988.87,7993.44,8007.69,8001.94,7992.09,7969.39,7944.98,7917,7886.32,7850.3,7817.42,7769.06,7734.38,7699.55,7662.34,7631.64,7608.75,7593.98,7586.41,7569.66,7579.01,7580.67,7585.78,7604.54,7612.69,7617.84,7620.54,7622.73,7622.77,7626.85,7625.44,7615.1,7603.57,7599.02,7600.8,7599.38,7599.8,7595,7595.64,7602.6,7623.82,7649.39,7678.29,7702.38,7729.77,7756.16,7779.15,7800.7,7807.63,7794.86,7768.27,7744.95,7718.25,7706.79,7690.97,7680.99,7678.82,7673.35,7672.2,7674.45,7669.65,7668.6,7655.54,7650.38,7636.76,7611.4,7593.6,7575.99,7552.02,7524.27,7494.3,7457.35,7416.18,7371.86,7330.83,7288.3,7250.6,7206.16,7140.81,7069.36,6969.59,6874.23,6784.88,6685.98,6598.16,6521.85,6462.65,6406.8,6348.76,6330.31,6346.71,6399.4,6488.85,6584.59,6687.18,6791.34,6899.67,7015.44,7123.4,7190.68,7232.1,7251.06
10000,10000,10000,10000,9667.77,9161.58,8746.4,8363.21,7967.57,7643.21,7479.5,7415.6,7477.25,7636.21,7886.43,8166.24,8551.47,9057.76,9644.84,10000,10000,10000,10000,10000,10000,10000,10000,10000,10000,10000,10000,10000,10000,10000,10000,10000,10000,10000,10000,10000,10000,10000,10000,10000,10000,10000,10000,10000,10000,10000,10000,10000,10000,10000,10000,10000,10000,10000,10000,10000,10000,10000,10000,10000,10000,10000,10000,10000,10000,10000,10000,10000,9519.12,9133.31,8882.75,8783.61,8817.24,8858.59,8885.14,8902.93,8921.31,8917.09,8928.14,8946.65,8956.86,8978.83,8998.06,9004.03,9015.43,9034.42,9040.13,9039.26,9048.66,9051.02,9043.92,9071.05,9061.33,9043.21,9009.29,8991.37,8970.62,8945.55,8939.09,8941.82,8953.9,8971.87,8998.53,9031.95,9060.67,9089.78,9118.87,9155.49,9194.37,9209.82,9222.31,9234.7,9237.87,9228.11,9222.76,9206.7,9183.09,9136.34,9116.18,9098.92,9069.24,9048.57,9047.36,9043.33,9036.24,9011.97,8992.62,8955.54,8926.78,8909.15,8898.25,8881.21,8857,8839.66,8827.87,8830.68,8850.56,8870.86,8867.31,8861.71,8864.57,8863.83,8857.83,8842.82,8826.37,8808.8,8795.81,8801.79,8808.22,8806.37,8805.57,8795.43,8810.66,8836,8863.04,8887.95,8906.87,8937.14,8983.26,9014.78,9037.82,9044.04,9078.04,9089.54,9108.89,9128.52,9116.69,9093.92,9086.83,9083.68,9064.43,9058.31,9074.66,9032.91,8982.25,8931.17,8877.26,8846.09,8803.71,8768.97,8730.28,8701.65,8659.25,8632.04,8610.72,8610.96,8581.4,8521.79,8245.1,8014.01,7852.34,7693.18,7508.63,7323.84,7158.6,6993.94,6864.69,6886.88,6945.93,6975.36,7032.43,7125.86,7246.75,7380.26,7533.27,7667.5,7835.33,7942.44,8009.72,8056.43,8071.9,8087.04,8098.43,8121.05,8135.29,8150.9,8157.58,8165.65,8156.42,8138.85,8127.66,8116.12,8092.98,8063.32,8015.26,7974.45,7922.79,7821.09,7706.72,7566.06,7417.67,7266.37,7104.93,6947.35,6808.37,6653.77,6259.36,5532.52,4024.34,1405.74,1536.46,1301.27,3218.99,3214.08,3184.39,3149.96,3127.34,3108.72,3105.23,3096.4,3105.85,3094.68,3072.63,3070.29,3077.66,3082.38,3086.5,3094.32,3192.76,3352.82,194.611,154.54,1559.84,2235.42,3173.42,3576.25,3996.79,4761.65,5880.45,7997.5,6641.94,7963.77,8176.05,8186.56,8204.03,8233.49,8239.55,8263.08,8283.37,8300.38,8308.82,8316.91,8295.33,8306.7,8304.16,8266.23,8259.74,8232.5,8192.39,8161.05,8123.92,8089.38,8048.77,8003.8,7965.96,7943.15,7933.59,7943.45,7950.65,7957.61,7962.23,7964.77,7982.43,7977.85,7970.51,7951.92,7927.21,7901.06,7871.89,7835.79,7802.71,7758.39,7717.6,7682.72,7641.29,7608.89,7584.51,7564.18,7553.78,7548.33,7534.9,7537.76,7544.48,7556.64,7568.23,7573.29,7574,7577.42,7579.48,7590.91,7593.62,7588.68,7583.88,7585.2,7588.36,7593.51,7592.2,7590.91,7588.79,7600.25,7618.24,7640.52,7669.21,7693.1,7719.17,7744.88,7769.83,7789.25,7794.93,7782.71,7754.77,7727.44,7705.24,7694.93,7679.1,7671.26,7672.44,7667.32,7670.15,7675.87,7672.89,7671.11,7662.26,7658.61,7644.9,7627.21,7618.75,7606.81,7584.23,7560.63,7531.66,7497.99,7459.28,7416.95,7372.11,7331.65,7293,7249.52,7182.32,7109.25,7004.67,6899.59,6808.06,6705.87,6612.91,6532.81,6469.81,6412.67,6352.39,6330.45,6339.58,6386.14,6476.22,6570.79,6673.94,6777.33,6883.62,6998.25,7109.94,7190.55,7239.37,7257.65
10000,10000,10000,10000,9678.62,9158.55,8752.63,8378.97,7992.06,7684.83,7536.42,7507.07,7575.25,7735.88,7985.55,8255.66,8614.59,9111.9,9684.95,10000,10000,10000,10000,10000,10000,10000,10000,10000,10000,10000,10000,10000,10000,10000,10000,10000,10000,10000,10000,10000,10000,10000,10000,10000,10000,10000,10000,10000,10000,10000,10000,10000,10000,10000,10000,10000,10000,10000,10000,10000,10000,10000,10000,10000,10000,10000,10000,10000,10000,10000,10000,9865.1,9489.71,9130.93,8925.89,8848.52,8872.04,8894.4,8916.06,8932.68,8950.1,8945.04,8953.04,8964.87,8968.85,8984.39,8997.75,9001.44,9003.88,9017.92,9019.01,9016.25,9018.32,9023.59,9013.91,9036.82,9026.56,9005.1,8968.62,8946.74,8928.66,8904.07,8900.4,8899.9,8917.05,8936.64,8970.82,9007.22,9044.61,9079.57,9106.5,9152.38,9197.59,9219.88,9234.8,9249.1,9256.81,9247.25,9239.17,9223.93,9196.98,9147.76,9130.08,9108.2,9076.2,9058.75,9056.51,9049.9,9039.58,9018.17,9001.73,8972.11,8946.04,8937.79,8929,8916,8900.18,8884.72,8877.82,8884.94,8902.89,8919.02,8914.38,8906.41,8910.86,8908.28,8897.86,8878.53,8857.78,8838.72,8823.53,8825.88,8833.25,8823.62,8819.31,8806.76,8819.97,8845.22,8870.93,8891.95,8906.99,8938.72,8985.64,9019.85,9043.64,9065.58,9062.41,9101.24,9123.44,9144.33,9134.02,9111.96,9105.93,9103.17,9083.69,9075.51,9092.26,9046.47,8990.4,8932.35,8869.66,8833.86,8783.01,8745.03,8701.01,8672.22,8628.13,8598.95,8573.03,8576.33,8537.58,8479.55,8223.74,7999.66,7840.74,7694.43,7512.65,7330.87,7165.12,7000.35,6874.08,6878.93,6936.57,6968.44,7027.24,7128.16,7256.1,7390.23,7556.61,7722.92,7893.01,7995.3,8060.36,8103.19,8115.12,8123.58,8123.26,8131.19,8133.51,8138.67,8133.63,8123.35,8116.4,8093.47,8087.11,8067.84,8041.25,8011.09,7980.25,7936.89,7887.49,7801.21,7694.75,7554.91,7402.02,7271.76,6539.61,6918.09,6850.23,6656.02,4127.64,632.861,256.023,127.052,705.102,3012.59,3288.96,3208.28,3180.35,3147.94,3122.23,3106.47,3099.58,3090.32,3100.64,3094.81,3073.42,3070.83,3076.95,3082.48,3087.02,3095.26,3185.08,3325.36,44.301,431.191,1099.16,493.026,7.774,8.327,17.903,19.449,53.448,45.112,71.577,262.17,1261.99,3603.18,5302.62,7494.45,8148.09,8224.81,8241.39,8242.56,8212.34,8237.01,8230.86,8227.79,8194.98,8182.11,8178.81,8163.41,8137.82,8104.55,8076.04,8049.89,8008.56,7964.08,7925.6,7908.37,7898.13,7907.51,7915.1,7922.81,7929.02,7935.33,7953.82,7949.06,7943.31,7925.62,7905.77,7881.15,7853.81,7812.83,7787.02,7744.68,7704.31,7669.66,7628.26,7593.78,7566.99,7530.67,7526.68,7525.54,7501.38,7495.36,7514.76,7531.55,7534.88,7546.1,7551.02,7553.13,7558.85,7569.45,7562.75,7567.49,7578.85,7588.76,7597.44,7603.73,7610.43,7609.37,7608.71,7620.25,7636.4,7656.41,7681.78,7704.67,7727.46,7750.38,7772.2,7787.5,7789.36,7771.9,7743.46,7716.28,7690.58,7675.47,7661.37,7657.3,7656.13,7648.94,7651.41,7658.99,7659.86,7658.7,7657.34,7630.16,7632.15,7613.65,7634.99,7624.81,7608.88,7574.15,7560.49,7515.15,7479.18,7446.51,7409.19,7377.48,7335.76,7290.45,7226.17,7150.34,7043.1,6935.52,6837.85,6730.15,6631.32,6546.47,6479.89,6416.94,6358.21,6330.46,6330.36,6373.99,6461.97,6556.47,6657.64,6760.5,6868.97,6979.32,7095.81,7190.55,7243.3,7258.32
10000,10000,10000,10000,9662.15,9139.82,8748.9,8409.41,8036.18,7745.87,7611.03,7632.19,7703.34,7864.9,8104.6,8385.41,8753.11,9256.71,9796.45,10000,10000,10000,10000,10000,10000,10000,10000,10000,10000,10000,10000,10000,10000,10000,10000,10000,10000,10000,10000,10000,10000,10000,10000,10000,10000,10000,10000,10000,10000,10000,10000,10000,10000,10000,10000,10000,10000,10000,10000,10000,10000,10000,10000,10000,10000,10000,10000,10000,10000,10000,10000,9865.2,9505.81,9163.49,8997.64,8911.72,8914.56,8918.33,8937.97,8949.85,8965.49,8960.92,8965.41,8969.81,8966.69,8978.8,8989.31,8985.33,8986.64,8995.09,8992.88,8988.24,8993.1,8995.81,8984.78,9005.88,8991.22,8968.95,8937.63,8916.17,8893.96,8875.2,8872.3,8874.39,8892.33,8914.7,8945.64,8987.53,9026.57,9061.16,9089.63,9140.46,9192.11,9216.57,9235.29,9259.69,9269.36,9258.36,9251.79,9236.2,9211.51,9163.53,9136.89,9118.62,9084.57,9066.66,9060.53,9052.61,9046.2,9021.1,9008.66,8981.26,8961.6,8961.76,8957.97,8949.23,8941.52,8930.13,8927.79,8931.3,8950.73,8965.12,8955.14,8947.67,8951.2,8944.64,8933.56,8913.97,8889.72,8869.33,8854.2,8855.11,8859.97,8847.98,8843.6,8825.14,8836.19,8860.39,8878.04,8895.99,8910.99,8939.05,8984.19,9015.96,9037.35,9056.64,9063.66,9070.7,9116.22,9134.39,9132.15,9113.26,9106.86,9110.44,9096.82,9088.29,9102.42,9051.67,8992.25,8927.99,8861.05,8818.81,8762.99,8721.12,8673.48,8643.05,8598.92,8562.26,8523.05,8523.86,8491.83,8439.79,8216,7990.72,7836.71,7691.9,7517.15,7338.97,7173.11,7007.5,6887.02,6873.08,6929.4,6963.83,7025.69,7127.84,7261.26,7399.32,7568.5,7727.42,7902.55,8011.88,8073.97,8103.87,8121.6,8121.56,8110.2,8101.54,8102.54,8096.06,8091.38,8075.04,8055.21,8047.48,8017.66,8011.17,7981.15,7953.44,7928.73,7903.74,7842.09,7753.98,7678.17,7558.96,7426.5,7254.6,4987.81,4955.67,5778.88,6092.11,4777.2,230.544,24.029,358.044,3217.83,3448.04,3276.82,3191.72,3167.68,3134.1,3118.21,3095.9,3088.68,3084.83,3088.82,3084.92,3067.88,3061.41,3059.88,3069.24,3075.26,3092.14,3166.52,3278.8,41.706,186.827,830.434,356.25,0,7.078,13.712,43.268,93.942,159.812,289.913,1067.3,3333.24,6240.66,7572.48,8054.92,8165.6,8195.9,8211.1,8213.57,8206.37,8199.82,8191.46,8182.68,8174.74,8158.34,8135.27,8125.63,8091.5,8056.61,8033.83,8008.15,7971.5,7929.99,7895.2,7874.29,7861.73,7871.63,7880.94,7890.13,7896.26,7900.74,7919.61,7915.87,7911.2,7896.13,7876.8,7853.33,7825.34,7793.96,7764.87,7720.98,7682.65,7649.82,7608.52,7573.85,7550.43,7529.22,7516.78,7509.68,7497.92,7497.71,7494.52,7515.32,7522.04,7528.79,7533.62,7538.51,7547.49,7550.84,7565.06,7572.98,7585.92,7599.18,7607.85,7620.91,7633.31,7637.75,7641.92,7648.24,7665.45,7682.76,7704.71,7722.87,7743.64,7765.29,7780.16,7790.59,7787.27,7769.12,7736.96,7706.5,7680.58,7663.89,7647.21,7644.91,7643.42,7636.78,7634.59,7642.93,7643.46,7637.84,7626.76,7628.24,7624.25,7627.89,7644.08,7641.84,7627.41,7611.78,7593.75,7566.2,7532.09,7496.06,7462.21,7422.65,7384.19,7336.85,7273.67,7196.11,7091.32,6977.19,6875.21,6760.08,6654.25,6563.91,6491.33,6422.28,6363.22,6327.83,6320.91,6359.63,6446.08,6542.62,6641.95,6745.55,6853.74,6963.32,7081.45,7190.98,7244.17,7259.29
10000,10000,10000,10000,9559.79,9076.26,8706.54,8392.43,8032.14,7806.13,7709.76,7779.47,7884.07,8083.7,8358.53,8688.88,9109.16,9654.32,10000,10000,10000,10000,10000,10000,10000,10000,10000,10000,10000,10000,10000,10000,10000,10000,10000,10000,10000,10000,10000,10000,10000,10000,10000,10000,10000,10000,10000,10000,10000,10000,10000,9870,10000,10000,10000,10000,10000,10000,10000,10000,10000,10000,10000,10000,10000,10000,10000,10000,10000,10000,10000,9841.21,9491.35,9204.87,9038.48,8954.79,8946.33,8940.15,8956.92,8966.7,8979.37,8969.6,8969,8973.5,8969.72,8978.76,8979.57,8971.41,8971.2,8973.22,8966.29,8961.79,8962.21,8962.39,8952.38,8974.67,8962.86,8937.27,8909.29,8890.63,8875.19,8858.47,8857.55,8862.44,8882.72,8908.67,8942.78,8984.85,9020.84,9055.61,9084.93,9133.39,9191.19,9221.25,9246.07,9271.91,9281.15,9274.54,9264.08,9247.06,9220.38,9171.54,9144.17,9121.43,9086.98,9061.91,9055.09,9047.29,9039.61,9020.41,9007.54,8980.6,8971.57,8976.79,8980.75,8979.63,8976.51,8971.37,8969.73,8977.34,8992.01,9001.91,8992.75,8982.89,8987.83,8980.46,8966.54,8945.57,8915.55,8898.17,8882.91,8880.19,8882.95,8868.53,8866.22,8847.33,8852.74,8876.34,8889.69,8901.62,8915.97,8942.82,8984.73,9012.2,9033.41,9049.96,9057.6,9074,9084.5,9121.6,9136.59,9123,9121.55,9122.99,9110.8,9103.78,9112.3,9057.72,8995.64,8925.38,8852.03,8800.84,8741.31,8692.67,8642.82,8608.71,8560.23,8529.9,8483.73,8473.7,8447.7,8396.53,8191.14,7981.49,7835.26,7688.06,7517.8,7343.95,7182.49,7016.33,6897.78,6869.44,6926.64,6960.81,7025.9,7131.28,7254.4,7406.13,7576.72,7740.84,7927.15,8043.58,8093.12,8121.25,8138.28,8130.71,8126.97,8109.95,8094.66,8081.41,8061.87,8041.95,8018.26,7977.99,7953.73,7929.8,7920.05,7892.18,7883.21,7861.77,7826.99,7741.01,7661.52,7561.42,7441.2,7327.92,6787.08,4004.96,2827.02,3480.95,5439.69,640.976,12.971,152.206,1281.45,3161.87,3276.33,3198.91,3173.04,3143.16,3118.88,3095.87,3088.27,3083.66,3083.75,3091.01,3072.91,3068.8,3070.51,3076.58,3081.13,3097.23,3163.54,3278.19,382.028,0,126.491,11.14,29.541,218.544,606.275,729.22,1597.62,2606.98,3371.55,4439.13,6261.09,7560.14,8001.77,8123.32,8144.42,8148.74,8158.25,8157.68,8153.29,8157.03,8144.91,8137.2,8132.71,8112.38,8098.06,8076.79,8046.82,8018.03,8002.36,7978.39,7944.67,7902.52,7867.99,7849.5,7836.05,7847.02,7854.16,7862.27,7868.88,7873.26,7888.31,7885.03,7878.59,7862.91,7844.16,7809.11,7771.95,7749.56,7734.01,7694.12,7657.86,7624.55,7587.63,7554.94,7532.88,7514.28,7492.84,7487.25,7476,7484.96,7476.64,7501.58,7508.61,7513.28,7521.28,7528.06,7517.08,7540.55,7559.04,7578.55,7595.94,7617.54,7637.19,7655.56,7666.27,7672.83,7680.23,7688.28,7700.94,7717.86,7732.59,7748.19,7761.45,7776.8,7786.23,7786.88,7777.7,7756.86,7722.11,7689.59,7662.14,7641.09,7620.75,7616.57,7612.42,7602.76,7598.65,7606.64,7608.23,7610.11,7615.61,7626.18,7629.98,7633.17,7644.44,7651.03,7649.44,7643.37,7629.29,7607.83,7576.86,7543.52,7504.01,7468.87,7433.05,7385.15,7323.58,7246.57,7144.42,7027.65,6918.55,6796.11,6681.63,6583.63,6505.57,6431.11,6369.09,6326.31,6311.34,6344.85,6427.88,6525.56,6625.91,6727.66,6839.69,6947.63,7068.19,7185.6,7239.65,7249.02
10000,10000,10000,10000,9433.43,8949.52,8572.12,8337.24,8035.5,7866.26,7816.93,7931.91,8081.83,8331.29,8667.31,9067.44,9558.39,10000,10000,10000,10000,10000,10000,10000,10000,10000,10000,10000,10000,10000,10000,10000,10000,10000,10000,10000,10000,10000,10000,10000,10000,10000,10000,10000,10000,10000,10000,10000,10000,10000,10000,10000,10000,10000,10000,10000,10000,9890,10000,10000,10000,10000,10000,10000,10000,10000,10000,10000,10000,10000,10000,9827.59,9534.7,9217.83,9068,8989.48,8979.21,8976.46,8993.2,8999.58,9013.13,8999.83,8992.82,8994.79,8988.22,8994.02,8992.45,8976.7,8976.6,8974.05,8965.16,8952.03,8948.78,8943.51,8928.42,8956.12,8945.69,8926.26,8899.94,8885.53,8872.68,8861.78,8864.95,8872.13,8892.07,8920.24,8955.33,8993.64,9029.14,9067.04,9095.88,9144.29,9200.47,9227.05,9257.44,9281.48,9290.11,9282.82,9273.03,9251.3,9225.9,9176.01,9152.44,9119.62,9082.48,9060.64,9048.99,9040.12,9034.6,9012.11,9002.54,8979.94,8972.05,8985.39,8991.6,8994.64,8998.33,8997.2,9001.01,9009.69,9019.74,9024.97,9019.16,9011.97,9015.96,9008.49,8995.25,8970.17,8938.07,8922.18,8908.13,8900.32,8904.42,8892.09,8885.08,8866.15,8873.05,8887.85,8899.21,8908.97,8919.69,8940.21,8978.86,9003.8,9022.41,9038.38,9061.42,9080.89,9095.17,9107.01,9127.28,9125.95,9124.62,9129.71,9121.34,9109.28,9116.26,9065.06,8999.63,8923.92,8843.57,8786.31,8720.18,8666.52,8612.22,8575.52,8531.72,8486.17,8442.27,8428.45,8390.29,8346.17,8167.03,7966.48,7824.57,7685.14,7521.5,7353.39,7192.59,7032.35,6914.37,6873.51,6924.38,6963.84,7031.71,7140.84,7272.16,7427.29,7612.46,7784.57,7969.87,8077.65,8136.23,8173.72,8175.03,8162.55,8149.67,8129.96,8108.35,8085.52,8059.06,8036.32,7992.19,7953.51,7928.92,7904.37,7895.88,7873.25,7854.95,7840.44,7819.4,7742.71,7667.82,7578.91,7475.68,7364.07,7154.02,6864.31,6745.91,2515.79,4119.82,2959.22,591.584,358.153,1230.74,2435.14,3285.88,3208.06,3174.29,3145.9,3122.54,3092.66,3088.43,3083.6,3085.59,3091.18,3075.05,3074.15,3075.76,3084.8,3090.11,3101.5,3165.51,3265.95,2298.79,33.861,1200.79,1137.96,2197.41,3877.43,4441.75,4946.25,5451.04,5969.61,6491.09,7223.49,7685.81,7892.15,8011.61,8091.47,8132.62,8152.7,8152.94,8153.75,8163.79,8133.92,8129.38,8116.32,8102.48,8088.66,8076.36,8068.82,8039.96,8022.75,8001.85,7972.88,7933.07,7893.89,7861.5,7839.21,7823.85,7829.76,7838.37,7844.29,7849.58,7853.45,7865.96,7860.39,7852.29,7834.17,7813.65,7788.56,7743.16,7737.41,7711.89,7675.07,7643.98,7613.96,7577.84,7547.77,7525.39,7507.7,7493.23,7484.7,7468.89,7479.69,7485.88,7496.9,7504.29,7515.27,7525.46,7533.83,7544.43,7560.46,7586.84,7608.07,7632.79,7661.91,7687.19,7707.16,7719.69,7726.11,7733.54,7743.01,7750.14,7760.01,7765.37,7771.06,7775.55,7782.05,7781.14,7771.79,7756.82,7733.24,7697.08,7662.06,7634.44,7612.33,7587.52,7554.21,7548.02,7540.42,7555.44,7565.06,7566.28,7558.73,7576.95,7596.47,7614.02,7625.66,7636.98,7659.47,7658.09,7666.37,7659.36,7644.68,7618.67,7592.13,7554.57,7521.56,7485.83,7442.72,7383.25,7307.37,7208.64,7082.32,6968.72,6839.33,6718.1,6610.78,6522.98,6443.23,6377,6322.07,6301.98,6334.79,6413.5,6511.44,6612.47,6717.6,6829.41,6936.33,7055.32,7173.12,7223.26,7227.87
10000,10000,10000,9803.65,9278.93,8849.8,8481.22,8264.48,8039.27,7907.96,7918.36,8085.43,8288.79,8599.59,9006.09,9483.97,10000,10000,10000,10000,10000,10000,10000,10000,10000,10000,10000,10000,10000,10000,10000,10000,10000,10000,10000,10000,10000,10000,10000,10000,10000,10000,10000,10000,10000,10000,10000,10000,10000,10000,10000,10000,10000,10000,10000,10000,10000,10000,10000,10000,10000,10000,10000,10000,10000,10000,10000,10000,10000,10000,10000,9862.14,9538.12,9232.01,9096.49,9021.99,9015.42,9016.91,9030.42,9032.76,9046.13,9028.09,9017.14,9014.57,9007.57,9006.72,9000.3,8982.45,8975.27,8969.65,8956.38,8945.22,8939.57,8931.41,8920.85,8947.29,8937.92,8923.01,8902.44,8891.26,8885.58,8879.79,8884.77,8885.67,8907.05,8931.45,8959.01,8995.27,9027.36,9059.39,9088.03,9136.95,9192.09,9220.15,9246.63,9266.18,9271.56,9259.48,9242.9,9215.93,9185.73,9138.89,9114.3,9082.54,9046.98,9023.12,9008.87,8997.61,8990.04,8968.52,8959.41,8946.55,8947.64,8962.23,8978.51,8987.64,8999.99,9005.93,9012.71,9018.03,9026.64,9031.98,9023.12,9018.83,9021.66,9015.84,9005.59,8983.02,8949.76,8938.37,8923.97,8917.13,8925.98,8916.09,8911.92,8889.7,8895.21,8911.75,8919.44,8923.76,8932.38,8947.34,8975.72,9001.44,9019.81,9031.26,9056.14,9067.75,9087.71,9084.89,9093.67,9102.77,9123.96,9128.77,9120.27,9107.52,9115.51,9060.17,8997.16,8918.03,8833.26,8771.76,8703.6,8642.18,8584.34,8540.52,8481.2,8444.26,8388.42,8361.94,8322.04,8280.04,8131.39,7957.26,7822.52,7688.75,7531.53,7367.57,7212.8,7052.65,6934.27,6882.28,6924.46,6966.7,7041.01,7153.99,7290.64,7456.85,7646.65,7822.32,8019.4,8140.98,8197.87,8220.83,8221.23,8212.3,8183.48,8160.89,8125.93,8096.88,8068.72,8028.15,7989.47,7943.94,7917.83,7898.5,7892.22,7853.78,7854.65,7849.32,7819.57,7756.38,7690.96,7609.07,7512.28,7417.72,7289.67,7165.43,7100.83,6282.82,3156.1,3758.36,1970.62,271.811,865.309,2057.63,3275.07,3220.85,3171.39,3145.94,3119,3095.11,3086.44,3083.73,3087.55,3088.36,3074.73,3076.88,3078.59,3087.65,3096.74,3110.47,3186.46,3308,3177.02,17.404,1290.1,2559.02,3877.15,5299.29,5892.37,6065.94,6395.67,6671.85,7320.64,7635.66,7858.69,7970.54,8029.31,8065.73,8116.74,8123.86,8115.67,8139.89,8122.57,8126.41,8116.3,8087.05,8079.63,8061.08,8040.15,8032.69,8028.86,8008.25,7994.23,7967.81,7934.73,7900.56,7867.02,7844.6,7830.28,7831.55,7837.08,7843,7845.34,7846,7852.35,7848.05,7838.11,7821.47,7802.15,7778.47,7754.59,7731.88,7709.64,7681.13,7651,7622.25,7586.97,7556.01,7534.36,7511.37,7495.43,7486.12,7468.64,7478.65,7484.16,7497.19,7511.47,7524.97,7539.72,7558.5,7579.07,7605.16,7644.66,7673.58,7708.5,7744.14,7776.38,7800.23,7811.23,7820.15,7819.66,7819.32,7819.19,7830.5,7830.77,7830.26,7826.88,7822.5,7811.19,7800.48,7781.21,7748.04,7707.7,7669.43,7641.19,7617.49,7593.19,7583.23,7571.68,7553.58,7549.9,7560.27,7562.79,7573.25,7591.04,7610.97,7627.04,7649.28,7665.91,7692.25,7702.5,7706.03,7706.16,7693.56,7674.9,7650.1,7616.96,7585.74,7551.97,7509.16,7451.99,7379.45,7285.04,7154.02,7029.75,6891.02,6755.65,6639.73,6541.7,6455.24,6382.4,6319.32,6297.57,6329.22,6403.08,6498.92,6593.98,6699.7,6807.68,6910.53,7027.1,7138.03,7179.72,7186.36
10000,10000,10000,9661.42,9145.54,8724.07,8427.36,8208.67,8012.89,7933.69,8008.98,8223.42,8479.2,8856.79,9330.21,9846.32,10000,10000,10000,10000,10000,10000,10000,10000,10000,10000,10000,10000,10000,10000,10000,10000,10000,10000,10000,10000,10000,10000,10000,10000,10000,10000,10000,10000,10000,10000,10000,10000,10000,10000,10000,10000,10000,10000,10000,10000,10000,10000,10000,10000,10000,10000,10000,10000,10000,10000,10000,10000,10000,10000,10000,9852.41,9539.41,9242.26,9121.62,9056.31,9058.98,9060.39,9071.04,9072.22,9077.51,9061.3,9046.71,9042.41,9033.4,9027.44,9018.87,9000.26,8989.38,8976.59,8965.15,8951.85,8944.06,8933.64,8928.14,8957.81,8954.35,8940.8,8923.44,8910.36,8902.14,8894.1,8896.25,8896.4,8911.24,8926.5,8945.15,8973.36,8999.26,9026.13,9050.09,9086.61,9124.18,9135.42,9145.63,9147.54,9144.81,9135.89,9122.62,9109,9083.96,9045.07,9026.17,9004.18,8976.71,8962.81,8953.24,8935.77,8925.22,8908.95,8908.82,8904.75,8915.47,8936.49,8947.9,8955.49,8970.44,8986.6,9001.38,9012.75,9015.64,9017.39,9012.6,9013.99,9015.08,9010.88,9003.69,8988.09,8957.33,8956.03,8948.24,8948.32,8949.87,8944.75,8941.92,8921.11,8922.51,8942.02,8940.39,8942.65,8950.46,8959.03,8984.25,9006.74,9018.81,9032.54,9052.96,9068.83,9095.89,9095.38,9099.46,9095.78,9106.74,9131.88,9125.65,9107.7,9105.64,9044.92,8977.91,8900.1,8820.3,8755.46,8683.48,8616.08,8557.64,8517.45,8472.25,8433.4,8361.26,8332.81,8290.77,8247.4,8122.42,7953.96,7826.81,7699.69,7546.17,7392.41,7240.42,7082.61,6959.97,6897.01,6930.88,6977.38,7051.17,7165.17,7310.1,7473.29,7665,7845.89,8040.48,8164.13,8217.01,8241.84,8255.43,8242.79,8222.77,8182.18,8151.08,8115.97,8080.85,8043.94,8000.62,7954.02,7923.06,7904.3,7889.36,7853.08,7862.34,7852.48,7827.46,7760.14,7702.97,7620.31,7534.12,7442.24,7343.16,7218.23,7142.6,6900.82,5996.12,3667.54,3159.53,541.938,921.454,1304.89,3206.03,3244.11,3172.66,3146.19,3126.34,3102.49,3093.44,3085.12,3090.14,3091.69,3079.97,3075.93,3081.21,3089.79,3099.24,3122.49,3212.67,3363.29,3432.62,50.49,1326.83,3114.44,4582.73,6047.97,6427.45,6685.43,6933.4,7425.25,7656.5,7800.58,7931.96,8011.68,8009.66,8109.28,8111.19,8120.92,8150.04,8133.86,8145.25,8140.06,8122.92,8107.57,8076.74,8044.12,8021.37,7999.92,7995.44,8001,7982.72,7962.42,7937.03,7910.39,7880.08,7867.67,7853.21,7854.99,7853.31,7850.95,7851.69,7852.43,7848.25,7839.7,7820.01,7807.08,7784.68,7758.4,7732.52,7702.5,7672.28,7644.05,7610.1,7585.61,7549,7521.85,7498.17,7477.04,7462.13,7458.28,7446.06,7460.66,7472.12,7489.5,7508.89,7530.35,7543.5,7578.21,7607.86,7644.3,7680.99,7713.06,7767.79,7808.17,7840.52,7868.76,7883.03,7887.61,7885.92,7883.97,7880.59,7883.34,7881.79,7873.65,7860.08,7849.41,7827.67,7805.07,7778.44,7744.39,7697.28,7658.1,7625.35,7601.31,7576.7,7565.03,7549.16,7533.26,7528.41,7539.34,7549.33,7554.35,7582.34,7610.69,7634.49,7654.12,7683.67,7701.97,7714.51,7723.41,7733.56,7731.38,7714.98,7693.52,7666.59,7642.21,7611.52,7568.93,7514.54,7443.97,7353.35,7215.29,7084.27,6937.17,6792.37,6664.77,6557.6,6464.62,6386.25,6317.14,6293.42,6325.2,6393.99,6486.31,6579.35,6681.96,6786.94,6886.32,6995.57,7096.48,7132.76,7138.12
10000,10000,10000,9542.38,8993.97,8599.71,8334.65,8157.68,7986.78,7966.24,8090.95,8339.01,8652.36,9086.13,9595.26,10000,10000,10000,10000,10000,10000,10000,10000,10000,10000,10000,10000,10000,10000,10000,10000,10000,10000,10000,10000,10000,10000,10000,10000,10000,10000,10000,10000,10000,10000,10000,10000,10000,10000,10000,10000,10000,10000,10000,10000,10000,10000,10000,10000,10000,10000,10000,10000,10000,10000,10000,10000,10000,10000,10000,10000,9846.53,9532.11,9238.76,9127.84,9068.45,9070.11,9071.66,9075.43,9073.43,9076.41,9058.39,9045.73,9042.41,9036.76,9037.75,9030.97,9014.15,9002.99,8986.21,8975.26,8968.98,8958.96,8947.71,8930.47,8911.74,8903.01,8882.82,8869.04,8843.12,8821.25,8811.21,8805.43,8804.73,8817.92,8830.92,8850.92,8876.93,8906.13,8935.32,8957.74,8980.5,9012.22,9026.09,9055.89,9073.67,9083.22,9090.63,9085.8,9072.24,9052.27,9025.9,8996.74,8957.29,8925.94,8902.71,8875.81,8847.53,8835.14,8823.53,8825.11,8825.08,8835.99,8855.85,8861.19,8864.51,8880.33,8894.67,8909.1,8920.4,8924.59,8927.44,8925.81,8926.18,8931.66,8928.7,8927.19,8913.32,8891.03,8895.7,8896.03,8894.09,8895.91,8898.22,8902.71,8907.41,8919.31,8929.84,8930.27,8926.25,8934.6,8946.74,8965.33,8982.61,8994.97,9012.21,9037.54,9061.13,9085.79,9117.18,9127.26,9114.78,9129.22,9136.35,9139.51,9112.33,9063.39,8997.81,8929.32,8849.17,8770.56,8700.61,8634.08,8564.96,8509.35,8465.86,8419.22,8383.15,8347.82,8314.16,8272.04,8225.42,8124.38,7959.24,7837.23,7716.95,7572.03,7420.27,7273.29,7121.94,6995.97,6918.92,6943.05,6991.5,7069.58,7183.77,7327.27,7489.9,7685.73,7864.42,8067.01,8192.93,8247.46,8280.45,8291.68,8287.95,8274.91,8243.52,8204.82,8160.34,8125.69,8080.93,8033.32,7984.52,7947.33,7919.19,7893.78,7872.35,7867.9,7853.37,7831.54,7781.27,7707.34,7623.54,7545.24,7467.44,7376.68,7275.72,7168.66,6986.37,6760.61,5552.13,3486.71,1036.38,1200.6,1087.31,3013.75,3265.81,3171.24,3145.21,3127.48,3106.9,3097.92,3086.17,3089.71,3092.06,3081.37,3080.5,3082.71,3091.01,3101.46,3132.66,3233.74,3409.17,3547.56,280.676,1936.07,3591.76,4928.46,6639.11,6984.26,7157.98,7581.79,7770.56,7886.24,7921.88,7990.85,8011.42,8074.1,8078.89,8100.71,8131.03,8130.98,8133.16,8131.45,8119.14,8094.37,8077.07,8056.75,8035.67,7997.36,7990.47,7971.41,7963.44,7946.11,7929.53,7912.64,7897.98,7887.01,7881.35,7867.97,7865.98,7864.28,7864.33,7857.02,7857.18,7846.75,7832.29,7805.69,7770.9,7746.75,7724.46,7692.89,7650.64,7627.47,7598.72,7562.84,7536.99,7502.06,7474.26,7452.26,7437.89,7425.21,7421.32,7410.74,7430.09,7449.09,7471.59,7497.5,7526,7549.11,7583.09,7621.4,7663.46,7706.59,7750.4,7814.25,7860.06,7897.46,7925.72,7943.15,7947.24,7945.82,7940.93,7936.45,7931.2,7920.72,7903.83,7880.54,7856.59,7822.52,7786.55,7753.02,7710.38,7662.14,7621.27,7590.73,7564.24,7545.11,7533.9,7518.34,7503.98,7481.27,7508.77,7499.95,7516.45,7548.17,7593.71,7589.75,7631.1,7683.5,7696.94,7707.5,7725,7750.51,7742.53,7731.59,7717.72,7693.81,7681.05,7646.44,7605.73,7560.48,7491.37,7407.66,7261.72,7124.9,6969.73,6819.64,6683.67,6570,6471.61,6389.12,6314.19,6291.6,6321.18,6379.65,6466.59,6554.52,6656.39,6754.12,6850.68,6953.09,7041.77,7075.33,7082.36
10000,10000,10000,9417.65,8884.57,8511.5,8256.01,8113.67,7966.5,7985.73,8152.44,8421.64,8786.86,9252.08,9772.72,10000,10000,10000,10000,10000,10000,10000,10000,10000,10000,10000,10000,10000,10000,10000,10000,10000,10000,10000,10000,10000,10000,10000,10000,10000,10000,10000,10000,10000,10000,10000,10000,10000,10000,10000,10000,10000,10000,10000,10000,10000,10000,10000,10000,10000,10000,10000,10000,10000,10000,10000,10000,10000,10000,10000,10000,9839.91,9517.94,9225.47,9119,9058.14,9060.42,9063.6,9070.52,9068.46,9070.64,9056.78,9050.74,9049.49,9050.11,9053.98,9054.42,9042.75,9035.38,9022.68,9014.6,9006.43,8993.24,8978.83,8957.66,8929.64,8910.36,8883.4,8860.75,8828.57,8805.65,8785.35,8774.76,8769.43,8781.87,8794.78,8811.45,8839.08,8860.6,8886.31,8908.47,8932.64,8967.13,8987.34,9021.06,9040.42,9052.42,9064.68,9065.02,9055.75,9040.94,9013.81,8985.46,8943.06,8913.07,8891.21,8863.41,8836.82,8822.26,8804.72,8795.69,8786.69,8789.24,8801.08,8797.16,8795.68,8805.88,8820.88,8836.71,8848.71,8855.66,8864.4,8870.53,8874,8880.99,8881.33,8883.94,8875.65,8861.71,8872.05,8872.15,8866.85,8873.9,8876.95,8886.03,8895.6,8901.25,8914.49,8911.49,8911.04,8923.58,8928.08,8940.52,8954.31,8969.9,8992.39,9018.07,9045.97,9070.43,9083.13,9104.36,9103.34,9103.34,9119.09,9123.46,9103.51,9057.09,8995.86,8928.23,8852.93,8779.52,8713.59,8645.61,8578.31,8518.93,8469.46,8421.22,8380.78,8343.07,8306.66,8264.65,8219.53,8133.6,7978.04,7861.97,7741.38,7600.81,7451,7310.12,7158.14,7033.35,6941.55,6955.98,7002.44,7075.04,7180.76,7317.63,7474.1,7666.41,7839.68,8039.93,8159.44,8221.41,8257.17,8276.83,8276.77,8264.95,8236.48,8196.37,8145.69,8106.65,8067.69,8028.03,7971.38,7944.3,7910.79,7892.1,7869.5,7852.76,7831.4,7818.74,7770.65,7684.56,7622.23,7542.86,7462.73,7394.59,7274.04,7182.34,7027.73,6891.17,6510.73,4763.14,2265.18,809.198,507.18,2137,3285.92,3169.11,3144.01,3128.27,3108.4,3099.4,3088.49,3087.09,3095.19,3086.08,3081.67,3084.19,3091.95,3102.84,3139.16,3247.04,3439.99,3620.76,535.313,2593.95,4311.06,5116.66,6679.6,7219.85,7558.46,7755.1,7860,7939.98,7977.93,8001.59,8068.62,8078.53,8078.13,8120.27,8123.39,8150.01,8158.01,8147.84,8134.6,8114.75,8094.9,8064.12,8044.1,8034.85,8017.82,8003.39,7994.16,7977.36,7966.21,7948.98,7935.03,7921.76,7912.9,7900.69,7895.57,7892.96,7890.09,7881.75,7879.17,7861.11,7842.91,7813.47,7770.31,7727.19,7693.46,7671.57,7633.67,7595.7,7558.92,7524.94,7493.95,7458.3,7425.02,7411.96,7398.83,7387.02,7389.16,7392.07,7411.72,7433.84,7465.66,7502.14,7540.11,7577.69,7616.62,7650.81,7712.42,7773.79,7823,7877.1,7930.84,7968.59,7996.85,8009.12,8016.75,8010.6,8001.24,7991.66,7980.39,7964.2,7932.3,7900.55,7862.12,7815.66,7772.55,7728.9,7684.09,7633.31,7594.06,7563.48,7539.35,7522.47,7512.29,7495.87,7484.69,7472.86,7489.5,7489.81,7503.47,7534.25,7580.62,7590.67,7628.94,7688.88,7710.81,7718.21,7738.75,7755.32,7760.14,7758.7,7752.63,7734.53,7710.58,7692.55,7653.24,7601.16,7534.7,7453.07,7299.01,7155.95,6998.46,6841.67,6700.02,6579.64,6475.37,6389.76,6309.33,6289.64,6314.69,6364.67,6446.3,6527.31,6627.08,6718.79,6810.2,6903.96,6984.55,7016.03,7028.65
10000,10000,10000,9340.86,8819.46,8463.29,8215.05,8088.1,7962.4,8001.71,8191.04,8468.83,8860.13,9338.63,9849.8,10000,10000,10000,10000,10000,10000,10000,10000,10000,10000,10000,10000,10000,10000,10000,10000,10000,10000,10000,10000,10000,10000,10000,10000,10000,10000,10000,10000,10000,10000,10000,10000,10000,10000,10000,10000,10000,10000,10000,10000,10000,10000,10000,10000,10000,10000,10000,10000,10000,10000,10000,10000,10000,10000,10000,10000,9833.5,9508.31,9215.51,9106.59,9046.06,9044.79,9045.76,9056.53,9052.36,9054.62,9049.33,9047.08,9052.65,9055.97,9066.14,9068.48,9062.63,9059.73,9050.14,9042.66,9037.38,9021.86,9003.01,8981.98,8952.5,8927.49,8896.48,8872.48,8840.91,8812.68,8789.55,8771.59,8762.34,8768.97,8773.96,8788.79,8807.73,8828.96,8847.43,8867.57,8894.71,8930.74,8951.76,8985.55,9008.39,9022.88,9038.53,9044.92,9037.02,9024.04,9001.05,8976.52,8940.4,8910.39,8888.31,8860.88,8828.6,8810.38,8792.58,8776.2,8764.64,8765.3,8772.13,8736.13,8758.08,8766.17,8775.83,8792.43,8801.26,8805.81,8814.61,8819.44,8824.18,8832.29,8834.57,8836.11,8828.42,8814.17,8828.34,8827.53,8820.93,8824.73,8835.24,8846.01,8856.27,8867.02,8881.03,8880.24,8884.11,8897.79,8906.09,8911.92,8932.32,8949.97,8973.72,9003.8,9035.4,9062.53,9101.86,9118.91,9130.1,9106.66,9108.56,9101.57,9095.54,9052.81,8996,8931.45,8858.22,8787.57,8727.2,8659.11,8590.41,8529.46,8475.18,8423.79,8378.79,8342.27,8304.41,8258.52,8214.87,8142.82,7998.75,7883.92,7766.31,7627.71,7485.26,7347.78,7196.93,7074.35,6969.69,6975.19,7016.02,7079.62,7177.33,7304.52,7452.73,7637.26,7801.1,7990,8109.62,8171.4,8208.14,8233.59,8238.62,8227.53,8201.06,8168,8126.43,8084.7,8044.45,8000.09,7949.9,7913.57,7879.94,7868.64,7835.06,7824.89,7807.6,7784.63,7751.44,7669.04,7605.05,7529.29,7446.95,7378.59,7279.71,7175.05,7064.6,6928.97,6670.66,5669.16,3702.41,608.277,392.919,1040.9,3305.82,3167.24,3142.82,3127.34,3113.34,3103.09,3090.18,3097.29,3096.01,3087.21,3082.92,3085.4,3092.65,3103.12,3144.11,3248.61,3445.06,3686.1,1018.23,3394.18,4764.77,5509.61,6824.5,7514.65,7708.16,7822.51,7919.12,7978.3,7993.42,8034.26,8071.85,8063.29,8120.23,8112.79,8143.05,8167.76,8167.51,8155.34,8145.2,8118.6,8107.62,8083.75,8074.28,8054.88,8041.73,8030.7,8023.26,8010.12,7998.91,7984.34,7973.17,7960.69,7950.94,7940.31,7935.95,7932.87,7926.08,7917.18,7910.08,7890.97,7864.47,7831.5,7774.53,7727.27,7706.15,7657.77,7613.92,7568.33,7531.16,7489.6,7455.35,7409.42,7384.99,7371.54,7357.75,7348.26,7354.02,7363.21,7390.35,7422.36,7460.44,7505.5,7549.88,7601,7656.37,7695.98,7760.82,7830.09,7886.2,7939.56,7990.94,8024.46,8052.34,8064.33,8069.31,8058.75,8047.48,8030.98,8017,7989.45,7951.6,7907.82,7857.45,7801.2,7748.97,7702.05,7647.95,7604.84,7565.42,7539.71,7516.13,7499.06,7486.71,7472.33,7457.57,7453.48,7463.08,7469.68,7485.74,7511.66,7572.82,7586.24,7621,7664.39,7710.1,7732.79,7749.86,7761.01,7764.71,7773.71,7774.43,7760.4,7746.44,7723.91,7685.6,7636.46,7566.93,7484.19,7324.15,7175.32,7015.02,6853.28,6711.11,6585.18,6478.13,6388.24,6305.84,6288.13,6309.2,6350,6421.84,6499.89,6592.7,6680.19,6769.1,6852.73,6923.67,6958.28,6974.72
10000,10000,9879.74,9311.04,8798,8447.53,8199.36,8053.09,7932.73,7976.05,8166.75,8452.38,8855.81,9337.46,9845.67,10000,10000,10000,10000,10000,10000,10000,10000,10000,10000,10000,10000,10000,10000,10000,10000,10000,10000,10000,10000,10000,10000,10000,10000,10000,10000,10000,10000,10000,10000,10000,10000,10000,10000,10000,10000,10000,10000,10000,10000,10000,10000,10000,10000,10000,10000,10000,10000,10000,10000,10000,10000,10000,10000,10000,10000,9826.77,9500.42,9211.37,9099.59,9036.29,9028,9028.17,9042.92,9040.32,9049.3,9044.37,9044.99,9052.3,9054.57,9070.76,9082.07,9081.95,9082.24,9070.41,9062.99,9052.16,9042.24,9021.27,8997.75,8966.72,8940.8,8906.76,8878.22,8847.42,8815.97,8793.53,8769.91,8755.15,8757.01,8757.6,8768.18,8785.01,8800.7,8818.2,8836,8864.85,8895.13,8917.38,8952.51,8974.69,8993.55,9012.78,9023.41,9017.93,9009.23,8993.08,8968.51,8934.29,8906.29,8881.89,8853.48,8823.64,8801.84,8780.59,8764.32,8748.98,8747.3,8749.1,8727.6,8723.54,8738.15,8745.49,8756.66,8762.33,8762.88,8770.89,8771.88,8775.85,8780.41,8779.4,8781.66,8776.34,8761.95,8776.49,8774.96,8769.19,8776.62,8787.43,8799.61,8810.88,8825.36,8844.49,8851.1,8860.49,8877.39,8885.27,8892.29,8912.68,8932.37,8960.3,8995.99,9029.13,9066.95,9103.77,9127.76,9143.75,9143.8,9123.39,9107.94,9089.91,9056.48,9005.58,8940.29,8873.19,8807.78,8745.9,8680.1,8610.93,8541.05,8483.66,8435.52,8387.14,8345.53,8306.39,8259.59,8214.83,8147.77,8015.27,7903.14,7787.78,7652.4,7513.99,7377.83,7232.89,7111.79,7000,7000.67,7031.54,7089.48,7178.83,7297,7437.7,7608.07,7762.38,7942.29,8054.49,8116.25,8157.32,8183.82,8192.19,8183.88,8156.96,8105.84,8066.38,8044.23,8007.04,7970.18,7912.94,7874.24,7848.59,7834.23,7820.21,7810.22,7794.15,7772.39,7737.65,7656.51,7593.7,7520.81,7437.94,7369.87,7272.27,7172.15,7068.62,6974.57,6785.16,6206.72,4295.56,267.665,253.296,311.207,3324.67,3164.66,3141.72,3126.7,3114.89,3101.23,3091.88,3096.11,3090.67,3082.05,3080.35,3085.35,3089.9,3102.19,3145.54,3235.58,3442.13,3673.83,2171.08,3932.53,5078.83,5845.49,7481.89,7624.91,7803.52,7888.1,7947.09,7971.02,8017.96,8041.35,8075.15,8100.12,8111.01,8142.29,8158.6,8170.63,8167.4,8161.57,8149.25,8128.97,8114.73,8097.69,8087.49,8073.72,8059.31,8049.22,8045.66,8034.99,8029.05,8017.96,8005.74,7998.1,7988.97,7976.37,7979.1,7974.96,7968.34,7961.21,7948.69,7928.69,7896.25,7855.21,7787.23,7764.78,7708.65,7649.6,7602.4,7552.61,7509.26,7467.01,7427.25,7384.58,7349.85,7334.73,7326.83,7323.27,7328.44,7344.21,7378.31,7416.2,7460.03,7512.13,7566.31,7619.46,7686.36,7744.9,7803.37,7865.54,7932.7,7985.94,8035.68,8071.92,8092.64,8104.23,8105.13,8096.89,8082.27,8065.3,8043.39,8009.76,7964.93,7911.48,7853.16,7791.4,7733.96,7686.12,7634.96,7585.76,7550,7523.06,7499.64,7483.96,7470.71,7452.2,7437.97,7434.43,7440.85,7455.21,7465.91,7507.75,7558.12,7577.77,7610.73,7657.08,7693.67,7731.34,7756.71,7771.98,7774.63,7778.23,7790.29,7780.4,7769.93,7751.08,7712.43,7661.51,7594.62,7507.6,7345.51,7191.18,7031.7,6867.05,6719.79,6593.61,6482.93,6388.19,6307.56,6287.47,6303.68,6338.65,6400.03,6474.36,6558.41,6643.44,6728.16,6805.92,6868.31,6905.9,6926.02
10000,10000,9894.81,9341.58,8821.08,8461.22,8192.96,8029.8,7901.45,7945.47,8125.81,8403.91,8801.04,9276,9793.35,10000,10000,10000,10000,10000,10000,10000,10000,10000,10000,10000,10000,10000,10000,10000,10000,10000,10000,10000,10000,10000,10000,10000,10000,10000,10000,10000,10000,10000,10000,10000,10000,10000,10000,10000,10000,10000,10000,10000,10000,10000,10000,10000,10000,10000,10000,10000,10000,10000,10000,10000,10000,10000,10000,10000,10000,9833.27,9503.59,9215.63,9097.16,9023.13,9020.41,9024.4,9039.5,9038.17,9045.65,9042.67,9048.5,9060.59,9075.63,9089.63,9104.12,9105.86,9103.75,9091.81,9085.93,9077.46,9058.18,9034.48,9010.75,8977.99,8946.11,8909.12,8882.15,8848.65,8819.63,8793.58,8769.19,8751.17,8749.07,8749.84,8755.25,8767.25,8780.05,8797.77,8818.33,8844.61,8875.88,8896.78,8930,8952.6,8971.04,8993.71,9004.7,9002.86,8998.14,8987.83,8969.17,8936.16,8907.74,8885.81,8856.35,8826.54,8804.13,8778.66,8760.07,8744.68,8735.9,8733.51,8720.75,8708.74,8718.48,8722.08,8733.2,8735.53,8737.14,8739.02,8740.83,8743.81,8741.93,8745.16,8745.08,8739.09,8728.97,8740.64,8740.89,8737.41,8745.6,8759.56,8772.88,8787.32,8801.82,8824.47,8832.95,8846.51,8865.78,8881.28,8886.37,8904.37,8925.83,8960.71,8999.31,9036.64,9076.46,9116.02,9143.39,9164.46,9161.88,9159.39,9137.44,9111.6,9070.63,9022.19,8956.29,8892.24,8828.82,8766.55,8700.5,8632.98,8557.4,8496.69,8438.25,8394.57,8350.86,8306.95,8258.17,8215.64,8151.02,8030.65,7918.5,7805.32,7673.22,7539.57,7408.54,7264.96,7151.24,7032.46,7029.52,7053.03,7104.19,7188.09,7296.3,7425.33,7589.57,7735.18,7901.09,8006.4,8073.03,8114.67,8142.09,8149.12,8143.97,8103.72,8075.27,8047.32,8016.31,7991.81,7948.62,7899.88,7863.65,7841.99,7827.86,7812.44,7808.53,7786.88,7762.27,7727.11,7654.85,7595.77,7522.14,7441.89,7375.35,7277.56,7183.99,7080.05,7006.38,6900.98,6488.92,4346.87,70.454,98.843,222.311,3331.18,3161.88,3140.5,3126.46,3116.34,3108,3096.88,3095.2,3094.86,3085.37,3080.16,3081.77,3092.6,3100.99,3145.29,3222.35,3433.94,3779.25,2056.59,3098.17,5446.66,6346.83,7721.56,7828.21,7880.37,7937.67,7980.28,8014.8,8026.47,8052.54,8105.02,8086.15,8117.29,8135.79,8150.33,8160.57,8154.84,8147.19,8140.07,8122.9,8111.91,8098.27,8091.41,8080.55,8070.89,8064.09,8061.51,8054.04,8051.53,8043.95,8034.49,8028.21,8021.11,8012.85,8015.77,8016.14,8011.6,8001.54,7989.34,7964.34,7929.06,7887.98,7831.8,7779.62,7715.1,7659.96,7602.15,7546.63,7498.05,7453.32,7410.93,7374.67,7332.3,7290.52,7302.05,7304.66,7314.31,7333.12,7371.14,7412.9,7462.55,7519.87,7581.81,7642.78,7705.22,7772.91,7843.03,7899.33,7966.62,8018.77,8064.87,8098.17,8116.6,8124.27,8121.36,8114.75,8103.52,8082.11,8056.48,8017.26,7966.34,7909.15,7845.56,7779.01,7720.77,7670.02,7617.25,7569.6,7532.35,7507.18,7487.55,7466.82,7451.87,7430.29,7413.53,7407.02,7415.59,7429.07,7454.08,7485.48,7539.08,7554.03,7608.96,7650.44,7684.69,7708.33,7748.84,7780.46,7778.52,7782.84,7797.89,7792.77,7783.56,7765.18,7727.59,7675.74,7610.32,7518.82,7357.31,7200.55,7041.08,6875.56,6727.97,6599.99,6486.44,6389.8,6309.24,6286.89,6296.51,6327.37,6380.06,6451.34,6529.17,6611.78,6692.49,6764.08,6820.81,6864.23,6887.92
10000,10000,9800.36,9437.62,8909.08,8531.15,8238.68,8050.05,7904.31,7920.97,8067.21,8311.01,8689.72,9143.52,9674.19,10000,10000,10000,10000,10000,10000,10000,10000,10000,10000,10000,10000,10000,10000,10000,10000,10000,10000,10000,10000,10000,10000,10000,10000,10000,10000,10000,10000,10000,10000,10000,10000,10000,10000,10000,10000,10000,10000,10000,10000,10000,10000,10000,10000,10000,10000,10000,10000,10000,10000,10000,10000,10000,10000,10000,10000,9826.59,9500.88,9214.69,9096.46,9018.79,9016.21,9022.23,9037.29,9040.25,9052.95,9050.74,9055.83,9070.55,9088.23,9101.68,9115.33,9118.15,9121.76,9108.11,9099.55,9092.21,9072.67,9044.18,9016.18,8982.49,8948.49,8912.03,8886.12,8850.83,8819.8,8795.97,8771.28,8751.83,8749.86,8749.82,8752.52,8762.51,8775.9,8791.64,8811.15,8837.94,8866.42,8886.92,8918.62,8938.64,8959.93,8980.84,8994.88,8997.62,8996,8987.9,8975.24,8948.99,8923.85,8905.05,8873.65,8843.35,8822.2,8796.27,8773.03,8755.87,8744.75,8737.23,8701.85,8711.64,8711.79,8713.32,8716.9,8719.18,8717.36,8715.86,8711.62,8717.38,8719.53,8721.24,8724.48,8719.74,8712.49,8727.71,8728.16,8725.79,8735.07,8748.56,8758.12,8772.65,8790.18,8811.51,8822.88,8836.94,8856.39,8871.72,8879.94,8896.95,8922.75,8959,9001.83,9038.86,9083.52,9125.52,9160.33,9187.61,9192.17,9183.14,9167.83,9133.44,9094.78,9045.37,8985.21,8919.67,8858.37,8794.45,8725.44,8655.74,8588.65,8517,8453.08,8398.72,8358.44,8312.16,8260.46,8213.98,8152.2,8041.92,7931.94,7821.68,7691.35,7561.76,7435.76,7294.93,7184.94,7066.44,7063.72,7080.94,7126.92,7206.33,7309.19,7427.25,7581.72,7717.05,7873.66,7971.65,8037.73,8077.08,8105.83,8116.12,8111.53,8081.88,8056.05,8029.77,7998.39,7969.9,7937.66,7893.63,7857.12,7834.02,7820.73,7818.29,7802.72,7781.57,7766.44,7731.6,7658.82,7599.12,7528.78,7451.71,7385.1,7288.23,7197.55,7093.92,7034.47,6970.17,6734.92,4640.04,40.789,56.578,80.103,3308.71,3157.26,3138.64,3126.55,3117.57,3108.19,3110.62,3102.96,3098.69,3087.68,3081.97,3083.22,3091.06,3099.25,3143.49,3231.17,3445.25,3822.28,1567.38,2637.14,5809.05,6574.07,7830.9,7879.57,7910.81,7926.71,7989.08,8029.78,8038.62,8075.18,8074.38,8082.63,8107.29,8114.97,8128.88,8136.89,8131.97,8124.94,8118.58,8106.83,8101.68,8090.44,8087.38,8083.24,8076.27,8074.08,8077.42,8070.88,8068.93,8064.77,8059.61,8056.02,8056.22,8044.46,8050.45,8051.55,8046.94,8039.73,8026.67,7999.99,7962.1,7918.4,7867.84,7797.63,7738.27,7674.46,7611.85,7554.02,7500.44,7450.73,7407.08,7371.15,7340.9,7306.44,7290.3,7305.4,7314.02,7329.28,7378.08,7420.86,7474.84,7533.34,7597.6,7665.45,7737.9,7799.9,7868.71,7937,7987.4,8038.92,8077.67,8102.22,8121.8,8121.59,8098.79,8107.22,8100.29,8081.83,8051,8009.3,7955.51,7896.72,7831.97,7763.21,7705.2,7650.19,7601.32,7556.13,7520.28,7494.91,7465.9,7449.31,7432.54,7411.09,7390.86,7382.43,7389.5,7400.49,7426.58,7465.81,7512.35,7541.62,7583.65,7630.46,7664.98,7687.74,7728.67,7767.02,7778.36,7789.4,7785.95,7793.46,7786.3,7770.31,7730.75,7678.69,7614.8,7523.09,7359.96,7201.12,7042.1,6878.22,6729.29,6602.01,6489.04,6388.24,6308.63,6283.81,6291.56,6315.14,6362.13,6429.98,6503.23,6583.13,6664.36,6734.85,6785.22,6838.6,6868.32
10000,10000,10000,9567.12,9022.92,8625.31,8307.98,8092.99,7923.61,7896.04,7992.11,8194.46,8546.83,8976.2,9501.6,10000,10000,10000,10000,10000,10000,10000,10000,10000,10000,10000,10000,10000,10000,10000,10000,10000,10000,10000,10000,4320,1550,960,890,930,640,1210,1320,2170,1450,1780,2840,4050,10000,10000,10000,10000,10000,10000,10000,10000,10000,10000,10000,10000,10000,10000,10000,10000,10000,10000,10000,10000,10000,10000,10000,9841.51,9512.38,9223.6,9109.11,9024.55,9013.12,9014.89,9029.55,9029.62,9046.82,9049.56,9058.36,9071.06,9092.6,9105.4,9121.5,9127.46,9129.82,9120.38,9111.59,9101.54,9077.87,9050.4,9023.84,8986.13,8949.47,8915.49,8890.69,8857.82,8826.38,8802.79,8779.37,8760.46,8757.54,8754.59,8755.43,8763.95,8777.27,8791.84,8809.13,8832.71,8857.21,8877.34,8902.62,8920.72,8945.29,8965.03,8981.37,8983.98,8984.59,8981.45,8970.49,8949.35,8932.17,8917.96,8891.21,8863.82,8842.8,8819.88,8795.49,8774.28,8761.54,8749.83,8726.7,8715.15,8714.56,8713.25,8715.37,8716.93,8710.45,8710.61,8705.29,8709.12,8712.21,8712.21,8715.11,8712.14,8708.48,8725.99,8727,8720.99,8730.52,8741.33,8754.11,8764.07,8779.4,8797.95,8809.17,8824.42,8840.44,8856.67,8862.56,8881.32,8909.78,8945.43,8989.33,9032.3,9079.7,9126.41,9162.61,9195.17,9202.58,9198.45,9179.55,9150.14,9113.67,9066.71,9000.52,8945.57,8878.09,8816.36,8749.2,8676.39,8609.24,8542.53,8475.23,8416.85,8365.26,8318.18,8268.69,8217.86,8155.08,8051.72,7941.43,7831.99,7705.02,7579.67,7457.42,7321,7215.23,7104.94,7098.27,7108.99,7155.42,7231.78,7326.76,7436.28,7580.95,7711.11,7853.75,7940.92,8005.47,8047.95,8074.5,8088.04,8079.54,8052.03,8030.69,7998.96,7979.9,7962.79,7936.08,7892.29,7863.4,7841.22,7832.13,7819.25,7814.03,7797.72,7778.21,7737.5,7675.72,7613.24,7544.42,7467.88,7398.37,7310.48,7222.7,7119.29,7068.98,7012.67,6840.37,4701.7,45.318,389.233,77.294,3215.5,3152.17,3136.51,3125.46,3117.41,3107.94,3111.7,3105.2,3099.92,3084.26,3080.17,3081.44,3089.81,3097.07,3140.33,3226.57,3455.36,3867.56,1293.26,2418.39,5944.79,6735.08,7887.77,7921.85,7951.93,7983.87,7999.97,8010.59,8057.59,8043.59,8071.04,8071.57,8079.87,8086.61,8100.26,8107.29,8103.49,8095.94,8091.94,8084.78,8083.54,8079.51,8078.67,8076.26,8075.49,8075.99,8079.25,8077.11,8078.48,8075.59,8072.57,8071.33,8070.15,8067.64,8074.19,8075.46,8074.31,8067.72,8054.88,8029.06,7992.96,7950.56,7891.17,7831.02,7758.25,7698.47,7633.28,7569.97,7518.26,7466,7421.57,7383.72,7354.9,7332.76,7310.32,7296.25,7330.64,7339.99,7392.34,7438.14,7490.99,7549.71,7616.69,7685.92,7757.97,7827.86,7894.51,7950.52,7995.32,8036.19,8067.63,8091.96,8109.7,8098.68,8098.76,8078.05,8074.26,8061.49,8034.25,7992.99,7938.01,7882.02,7817.5,7751,7691.4,7641.22,7593.38,7550.66,7516.27,7486.41,7465.21,7438.38,7418.91,7395.13,7371.37,7360.26,7362.57,7376.76,7402.23,7439.67,7486.91,7523.01,7563.37,7604.77,7641.22,7672.02,7713.06,7745.44,7761,7776.52,7784.73,7784.68,7779.35,7764.08,7725.1,7673.78,7610.61,7518.43,7360.71,7196.91,7042.05,6879.4,6731.76,6603.43,6489.73,6388.99,6310.03,6281.52,6280.87,6306.25,6346.96,6412.78,6479.72,6560.97,6642.38,6709.17,6757.58,6821.52,6853.65
10000,10000,10000,9713.68,9166.23,8743.67,8400.16,8154.87,7955.73,7880.26,7922.54,8081.57,8408.24,8817.49,9333.99,9854.92,10000,10000,10000,10000,10000,10000,10000,10000,10000,10000,10000,10000,10000,10000,2240,760,1160,770,500,80,70,70,70,80,80,70,80,90,80,70,80,250,8109.93,9789.8,10000,10000,10000,10000,10000,10000,10000,10000,10000,10000,10000,10000,10000,10000,10000,10000,10000,10000,10000,10000,10000,9836.28,9511.17,9232.33,9119.64,9031.42,9014.9,9013.87,9026.46,9031.63,9047.12,9053.9,9066.83,9082.83,9101.72,9117.69,9138.69,9143.74,9148.35,9137.71,9126.69,9114.68,9094.31,9063.45,9036.32,9000.74,8960.49,8928.48,8904.98,8874.01,8847.95,8826.66,8801.27,8781.62,8779.01,8776.16,8776.49,8782.93,8790.84,8799.38,8816.83,8835.8,8857.41,8876.21,8898.67,8914.1,8932.36,8953.84,8965.66,8971.87,8970.8,8974.46,8967.77,8955.43,8944.3,8934.14,8911.12,8885.94,8869.43,8847.56,8824.97,8802.01,8788.34,8774.36,8745.87,8735.62,8734.92,8730.76,8728.44,8723.62,8722.48,8720.64,8714.62,8720.69,8718.34,8718.97,8717.85,8717.54,8717.69,8729.34,8731.5,8728.99,8732.72,8742.4,8751.65,8761.88,8773.81,8788.81,8797.47,8811.62,8828.69,8841.21,8849.56,8865.99,8897.53,8936.42,8981.4,9030.51,9081.04,9127.99,9172.51,9211.88,9219.1,9216.69,9205.21,9174.38,9135.41,9092.71,9036.13,8964.41,8908.52,8842.89,8775.95,8702.56,8630.68,8563.99,8490.65,8430.7,8376.58,8325.74,8275.21,8222.88,8156.53,8060.61,7948.36,7838.79,7711.47,7589,7474.06,7341.59,7241.75,7136.09,7130.22,7140.92,7186.42,7260.04,7351.04,7451.6,7589.79,7711.24,7845.08,7921.84,7984.25,8023.83,8046.7,8059.28,8051.61,8031.93,8009,7989.35,7973.46,7959.6,7938.53,7905.26,7877.45,7860.92,7852.98,7847.62,7840.77,7828.15,7802.28,7755.43,7705.27,7644.95,7574.94,7499.9,7436.66,7349.52,7260.05,7160.7,7116.33,7065.08,6853.78,4438.34,141.671,131.833,84.52,3132.95,3146.83,3133.76,3123.12,3115.75,3106.71,3105.55,3106.88,3100.7,3086.07,3077.92,3079.51,3087.57,3095,3135.11,3221.27,3462.8,3882.8,815.992,1785.97,6023.44,6834.55,7952.09,7967.61,7986.17,7992.11,8006.59,8036.56,8032.11,8041.68,8055.31,8049.55,8053.77,8058.36,8065.2,8079.25,8078.22,8072.41,8071.97,8066.46,8069.17,8070.22,8071.7,8072.75,8072.28,8078.11,8083.9,8080.17,8085.73,8083.77,8082.44,8082.31,8082.11,8080.45,8090.81,8095.71,8092.63,8087.64,8078.07,8052.82,8016.73,7973.63,7921.4,7854.44,7788.52,7719.82,7652.82,7593.33,7539.34,7484.26,7440.84,7404.4,7375.1,7354.27,7344.37,7339.18,7354.45,7349.04,7410.7,7457.21,7508.41,7566.36,7630.21,7699.85,7771.3,7834.39,7896.51,7946.58,7986.94,8022.79,8045.52,8063.68,8069.75,8068.91,8063.5,8049.51,8029.21,8022.95,7986.68,7960.85,7906.63,7854.3,7792.93,7730.67,7674.48,7623.43,7580.63,7540.83,7509.59,7482.22,7456.98,7427.6,7404.35,7380.79,7355,7341.09,7344.31,7351.19,7379,7415.71,7459.05,7508.61,7534.49,7576.14,7610.85,7641.72,7673.61,7708.23,7731.99,7744.07,7755.88,7759.83,7755.6,7740.5,7705.46,7655.42,7597.08,7506.94,7359.66,7197.44,7044.17,6884.52,6735.72,6609.37,6498.44,6397.36,6317.55,6280.08,6272.1,6295.95,6331.75,6393.38,6462.05,6540.66,6620.12,6686.63,6735.08,6808.27,6842.94
10000,10000,10000,9856.64,9320.72,8867.5,8502.73,8218.17,7984.63,7862.65,7855.92,7974.27,8282.3,8669.47,9166.07,9715.69,10000,10000,10000,10000,10000,10000,10000,10000,10000,10000,10000,10000,10000,8740,6040,4680,4490,4350,2220,180,80,70,70,70,70,70,70,70,70,70,80,780,8550,9249.78,10000,10000,10000,10000,10000,10000,10000,10000,10000,10000,10000,10000,10000,10000,10000,10000,10000,10000,10000,10000,10000,9823.28,9510.2,9239.81,9119.57,9033.67,9003.45,9008.32,9020.11,9026.82,9048.61,9054.57,9070.17,9088.87,9109.03,9125.69,9142.99,9151.66,9154.6,9138.7,9129.17,9117.09,9094.64,9063.56,9034.56,8998.02,8964.32,8931.34,8909.6,8882.54,8862.33,8842.13,8823.02,8808.68,8803.46,8801.75,8802.14,8803.87,8810.17,8818.43,8832.12,8850.41,8869.28,8876.53,8893.87,8905.08,8917.2,8936.32,8946.87,8954.19,8958.73,8961.01,8961.83,8957.14,8957.26,8950.18,8935.98,8918.88,8905.52,8886.93,8863.29,8841.1,8824.87,8807.07,8776.69,8763.33,8760.98,8755.61,8751.71,8749.7,8742.08,8740.23,8738.73,8738.79,8736.02,8739.06,8737.06,8736.51,8734.53,8743.9,8744.47,8741.31,8742.55,8751.56,8753.77,8759.61,8768.67,8781.6,8791.78,8803.9,8818.78,8832.33,8838.74,8857.23,8890.83,8932.34,8979.54,9032.03,9086.76,9137.89,9181.89,9223.85,9236.7,9233.15,9223.61,9196.94,9157.28,9115.5,9063.83,9002.41,8928.92,8871.34,8802.7,8725.68,8654.62,8586.03,8506.64,8445.99,8393.17,8339.96,8286.26,8229.7,8161.07,8064.05,7950.9,7837.38,7711.04,7591,7480.01,7353.32,7257.42,7164.14,7162.09,7172.63,7218.35,7291.23,7381.61,7479.96,7611.08,7725.56,7847.13,7916.12,7976.28,8009.18,8036.92,8048.19,8039.31,8012.95,8004.12,7988.94,7976.29,7967.15,7951.47,7925.13,7902.55,7892.58,7891.61,7884.76,7884.02,7873.86,7848.56,7807.63,7750.85,7688.08,7616.95,7540.15,7474.08,7388.41,7293.73,7197.9,7152.73,7089.48,6754.1,3803.5,23.258,51.364,148.904,2995.18,3142.99,3130.28,3120.03,3112.76,3105.75,3101.5,3107.5,3101.25,3084.17,3075.11,3076.6,3084.81,3092.14,3123.72,3209.67,3460.79,3880.66,631.105,1781.2,6094.43,6979.92,8031.78,8043.31,8043.75,8039.76,8027.56,8028.76,8027.76,8042.68,8030.4,8032.65,8031.29,8033.54,8044.2,8051.27,8051.4,8049.35,8051.88,8050.2,8057.08,8061.35,8067.51,8069.94,8074.25,8080,8086.44,8088.44,8092.84,8091.26,8088.53,8089.06,8093.26,8093.97,8098.77,8107.89,8109.38,8103.85,8093.28,8071.93,8039.21,7997.73,7947.63,7882.91,7818.27,7751.61,7683.01,7626.47,7571.58,7522.17,7478.02,7442.41,7417.34,7396.15,7382.93,7383.05,7389.71,7377.7,7442.8,7485.54,7530.21,7583.04,7642.29,7706.84,7773.86,7836.56,7887.8,7931.42,7963.81,7991.55,8016.37,8024.92,8019.99,8016.69,8012.75,8006.06,7995.71,7974.76,7939.3,7915.25,7863.79,7818.09,7761.75,7702.34,7650.99,7604.96,7563.91,7532.71,7505.23,7479.16,7452.06,7421.69,7397.81,7375.95,7348.27,7331.57,7332.83,7338.98,7363.75,7399.18,7441.49,7487.04,7529.25,7559.37,7585.08,7613.44,7644.36,7661.4,7699.71,7715.09,7725.23,7730.36,7726.02,7712.48,7682.09,7635.4,7579.87,7494.93,7357.62,7198.08,7048.97,6889.46,6742.94,6619.92,6509.38,6408.31,6326.26,6280.4,6264.88,6285.76,6321.04,6378.07,6448.59,6525.43,6601.94,6671.89,6720.9,6800.13,6837.41
10000,10000,10000,10000,9499.88,9008.29,8617.12,8292.29,8012.44,7850.34,7794.73,7877.61,8164.03,8530.82,9010.66,9555.59,10000,10000,10000,10000,10000,10000,10000,10000,10000,10000,10000,10000,10000,10000,10000,10000,10000,10000,10000,10000,9890,9800,9800,9820,9860,9870,9880,9870,9880,10000,10000,10000,10000,10000,10000,10000,10000,10000,10000,10000,10000,10000,10000,10000,10000,10000,10000,10000,10000,10000,10000,10000,10000,10000,10000,9828.2,9523.83,9259.04,9132.3,9042.62,9004.67,9006.52,9018.34,9028.25,9051.42,9060.77,9074.83,9093.68,9115.6,9127.87,9146.11,9153.2,9150.68,9137.95,9128.25,9112.41,9088.44,9055.09,9024.53,8992.92,8959.65,8932.26,8911.46,8891.06,8875.35,8860.24,8844.26,8834.11,8830.52,8829.87,8826.99,8833.57,8836.57,8839.24,8848.98,8866.5,8875.72,8881.55,8891.46,8897.26,8907.66,8924.02,8932.97,8935.25,8942.11,8947.43,8951.95,8956.45,8962.84,8967.02,8959.98,8945.67,8934.76,8920.48,8901.12,8878.61,8859.12,8835.88,8805.59,8792.64,8788.72,8784.67,8781.07,8777.82,8770.41,8772.83,8770.93,8772.86,8768.96,8766.24,8766.16,8764.6,8766.75,8777.14,8773.18,8769.45,8766.78,8768.44,8767.06,8767.24,8772.03,8782.76,8791.35,8800.72,8808.17,8821.8,8832.11,8853.87,8888.27,8931.99,8981.09,9029.82,9088.57,9141.6,9184.4,9226.47,9243.09,9244.38,9235.43,9205.17,9173.02,9131.83,9079.41,9021.7,8957.4,8891.79,8824.75,8748.27,8674.39,8603.02,8526.42,8465.33,8406.77,8348.96,8295.69,8237.46,8164.56,8064.78,7948.44,7831.59,7704.69,7585.8,7480.22,7358.51,7266.17,7183.73,7182.77,7199.23,7248.87,7325.89,7409.55,7508.73,7637.12,7748.68,7861.03,7919.15,7976.14,8009.76,8031.84,8043.64,8017.54,8010.27,8004.46,7997.29,7987.39,7983.72,7977.22,7958.28,7944.4,7940.56,7944.78,7943.94,7943.93,7941.51,7922.3,7876.94,7820.03,7753.7,7680.8,7601.39,7536.21,7437.17,7346.53,7246.79,7199.4,7112,6605.63,3384.52,7.318,100.053,258.736,3067.89,3138.64,3126.82,3116.32,3109.41,3104.1,3109.2,3107.99,3102.17,3082.12,3071.59,3073.07,3082.04,3089.38,3113.44,3200.51,3461.35,3866.37,556.985,2308.93,6203.54,7116.77,8091.12,8087.09,8087.57,8074.48,8038.35,8041.98,8035.21,8029.52,8019.13,8008.4,8002.09,8005.92,8017.02,8026.98,8028.59,8030,8037.63,8039.05,8050.4,8059.93,8067.39,8073.66,8076.32,8084.7,8092.28,8091.27,8096.67,8094.41,8093.5,8095.47,8097.8,8097.42,8106.97,8109.19,8112.21,8110.34,8104.63,8084.17,8054.64,8013.87,7945.92,7907.54,7848.85,7784.99,7720.57,7665.43,7616.21,7564.77,7526.73,7493.45,7466.5,7447.16,7434.38,7428.54,7434.62,7418.06,7468.21,7513.7,7552.77,7597.81,7650.89,7709.97,7770.89,7825.23,7868.36,7903.85,7929.42,7944.65,7956.5,7973.73,7959.27,7939.24,7955.22,7947.03,7938.89,7920.13,7887.46,7861.68,7821.94,7779.39,7733.94,7680.85,7630.45,7591.29,7552.84,7532.41,7508.38,7482.94,7452.56,7422.26,7400.23,7380.73,7355.96,7337.92,7332.93,7337.83,7362.61,7396.7,7436.27,7479.83,7517.39,7556.1,7573.53,7594.22,7628.29,7636.33,7670.43,7686.45,7695.07,7698.88,7695.84,7684.38,7655.88,7611.65,7559.63,7479.75,7354.66,7199.01,7053.86,6894.69,6747.7,6624.47,6517.17,6417.35,6334.97,6280.11,6257.86,6277.79,6314.9,6366.95,6438.02,6513.65,6588.2,6663.45,6712.28,6796.78,6834.63
10000,10000,10000,10000,9639.24,9133.44,8719.51,8363.06,8036.71,7837.77,7750.85,7800.74,8060.39,8395.02,8854.86,9366.98,10000,10000,10000,10000,10000,10000,10000,10000,10000,10000,10000,10000,10000,10000,10000,10000,10000,10000,10000,10000,10000,10000,10000,10000,10000,10000,10000,10000,10000,10000,10000,10000,10000,10000,10000,10000,10000,10000,10000,10000,10000,10000,10000,10000,10000,10000,10000,10000,10000,10000,10000,10000,10000,10000,10000,9853.91,9559.11,9290.99,9147.5,9045.77,8999.86,9006.16,9018.52,9031.6,9053.41,9062.7,9078.62,9097.2,9116.66,9128.76,9144.16,9146.1,9143.13,9130.15,9119.47,9104.61,9078.14,9042.04,9013.29,8983.66,8951.62,8925.48,8910.89,8896.57,8883.89,8878.79,8869.01,8867.85,8869.72,8868.31,8867.73,8871.39,8869.73,8868.56,8875.23,8886.9,8894.25,8891.89,8895.17,8896.52,8901.36,8913.88,8920.81,8919.67,8925.82,8934.1,8945.17,8959.44,8975.7,8984.9,8984.68,8978.51,8974.42,8963.33,8945.72,8925.46,8897.95,8872.24,8844.12,8830.69,8830.27,8827.15,8817.38,8814.96,8810.91,8815.12,8814.59,8815.13,8812.23,8812.26,8811.18,8810.04,8809.58,8815.52,8810.74,8801.71,8795.82,8794.77,8787.33,8784.34,8784.62,8788.52,8794.22,8799.05,8804.22,8817.5,8827.89,8849.19,8884.2,8924.64,8973.27,9025.9,9082.78,9135.99,9181.01,9220.8,9238.56,9240.24,9232.97,9208.23,9176.66,9139.94,9091.06,9039.4,8975.57,8912.65,8836.12,8768.1,8693.08,8620.76,8535.57,8484.58,8423.96,8365.21,8311.02,8245.83,8163.2,8064.39,7945.45,7826.19,7695.84,7575.21,7475.23,7356.91,7268.06,7195.41,7200.96,7222.69,7280.21,7361.13,7431.79,7540.8,7663.88,7772.88,7879.59,7935.9,7989.67,8013.75,8029.49,8029.77,8016.29,8010.62,8012.73,8008.52,8003.46,8004.07,8007.6,7996.75,7993.22,7997.66,8008.36,8011.1,8016.13,8016.42,8000.85,7955.47,7891.33,7820.33,7741.3,7658.05,7578.52,7482.92,7388.34,7284,7232.21,7130.64,6261.75,2898.26,15.842,216.78,434.039,2832.52,3133.9,3122.75,3112.46,3104.82,3102.24,3106.81,3107.76,3101.83,3079.46,3067.18,3069.27,3078.87,3082.73,3104.85,3201.97,3465.94,3883.67,636.551,2953.14,6263.27,7203.72,8124.69,8124.58,8121.65,8098.81,8073.54,8048.8,8035.01,8018.7,8000.7,7984.65,7986.37,7986.66,7996.22,8008.09,8014.77,8022.96,8036.06,8040.59,8055.41,8066.36,8074.85,8080.39,8087.03,8094.08,8100.19,8099.36,8103.9,8098.35,8094.44,8099.45,8097.75,8094.51,8097.22,8104.76,8105.94,8107.61,8104.8,8081.85,8052.04,8024.34,7955.74,7913.75,7875.27,7816.93,7756.66,7705.12,7659.99,7615.11,7578.1,7546.62,7522.79,7502.06,7488.35,7480.58,7478.94,7459.47,7500.48,7536.14,7568.31,7607.51,7649.24,7706.92,7757.88,7804.9,7839.01,7866.27,7883.42,7893.37,7904.69,7913.63,7895.19,7870.96,7888.23,7885.07,7879.65,7859.7,7826.69,7808.2,7773.22,7740.42,7698.19,7651.71,7610.29,7573.33,7549.03,7528.31,7507.81,7484.25,7456.12,7425.38,7406.77,7387.6,7366.75,7349.58,7342.27,7346.95,7366.22,7399.07,7437.12,7477.03,7511.53,7544.9,7571.94,7582.31,7612.06,7632.47,7643.59,7653.93,7660.21,7662.01,7658.5,7644.65,7618.56,7579.83,7530.65,7457.46,7346.68,7196.35,7054.74,6895.21,6751.4,6629.35,6522.65,6427.14,6345.42,6281.43,6253.29,6272.21,6309.58,6359.25,6430.92,6504.12,6581.06,6658.14,6705.33,6789.98,6830.27
10000,10000,10000,10000,9724.64,9190.11,8762.67,8391.62,8043.8,7810.44,7680.89,7732.08,7968.06,8277.36,8716.51,9205.42,9770.62,10000,10000,10000,10000,10000,10000,10000,10000,10000,10000,10000,10000,10000,10000,10000,10000,10000,10000,10000,10000,10000,10000,10000,10000,10000,10000,10000,10000,10000,9470,9710,10000,10000,10000,10000,10000,10000,10000,10000,10000,10000,10000,10000,10000,10000,10000,10000,10000,10000,10000,10000,10000,10000,10000,9886.23,9606.76,9331.71,9167.74,9055.16,9003.71,9006.8,9016.23,9032.02,9055.51,9067.04,9081.45,9092.58,9108.61,9118.17,9131.6,9130.32,9127.17,9108.04,9097.62,9078.67,9051.11,9022.2,8992.5,8961.32,8935.26,8911.41,8902.85,8894.89,8894.07,8893.86,8892.36,8893.33,8898.97,8901.51,8901.32,8905.65,8903.63,8897,8898.03,8901.18,8905.7,8899.05,8896.06,8893.35,8892.96,8902.97,8903.54,8903.71,8911,8921.73,8937.19,8957.51,8982.33,8998.53,9005.57,9005.75,9007.63,8999.93,8985.93,8965.29,8937.88,8913.35,8882.32,8869.22,8863.74,8861.88,8855.71,8852.88,8849.71,8853.33,8854.4,8857.55,8851.46,8852.01,8852.98,8850.04,8845.56,8849.92,8843,8830.07,8818.26,8812.62,8802.98,8797.1,8790.84,8791.57,8792.95,8798.2,8802.42,8813.09,8822.3,8841.34,8872.97,8911.14,8963,9012.33,9066.96,9118.06,9157.91,9199.01,9217.91,9219.83,9218.08,9194.76,9168.09,9134.67,9089.75,9045.84,8983.93,8925.77,8842.35,8783.99,8708.49,8638.59,8560.06,8495.79,8440.5,8383.83,8327.22,8257.32,8167.15,8061.58,7940.35,7818.16,7685.98,7565.79,7464.64,7350.27,7261.47,7196.83,7209.58,7236.65,7300.71,7384.59,7470.79,7564.42,7682.56,7791.76,7894.39,7946.06,7994.07,8014.47,8026.93,8026.94,8019.57,8016.39,8021.12,8020.24,8019.31,8026.71,8036.85,8039.84,8042.06,8053,8066.42,8074.69,8081.17,8082.97,8069.71,8022.43,7955.51,7877.09,7795.37,7705.5,7624.66,7521.99,7419.54,7319.68,7263.72,7139.18,5928.14,2518.39,25.959,263.934,366.491,2313.03,3128.75,3118.06,3108.21,3100.83,3100.65,3104.25,3106.93,3101.06,3077.12,3062.95,3065,3074.97,3079.29,3097.05,3193.05,3462.19,3880.89,708.21,3664.34,6352.23,7289.65,8159.12,8157.97,8145.4,8123.6,8081.93,8056.43,8036.12,8015.66,7999.11,7980.87,7974.53,7976.73,7992.23,8006.4,8016.47,8029.93,8049.18,8057.58,8073.98,8088.23,8095.08,8100.31,8102.04,8106.95,8114.14,8109.04,8110.82,8104.38,8098.71,8100.06,8093.99,8088.39,8086.3,8091.5,8094.25,8094.27,8090.53,8073.53,8049.71,8026.9,7961.57,7915.53,7892.39,7844.95,7791.71,7745.62,7704.19,7665.29,7631.02,7601.16,7578.17,7555.52,7540.52,7528.33,7522.49,7518.65,7536.79,7558.85,7582.83,7612.01,7649.47,7697.23,7742.29,7782.2,7806.8,7825.64,7837.9,7848.07,7834.85,7852.53,7830.69,7832.93,7821.3,7816.22,7818.29,7799.49,7770.08,7754.13,7719.75,7694.87,7668.63,7627.09,7588.99,7561.89,7539.27,7527.47,7513,7492.08,7466.86,7438.5,7423.71,7409.83,7391.5,7372.8,7364.81,7368.62,7387.49,7413.81,7447.19,7478.46,7506.59,7537.62,7560.28,7578.86,7595.54,7603.17,7608.77,7614.27,7615.92,7614.58,7606.48,7594.69,7572.16,7536.56,7494.2,7425.77,7328.06,7184.48,7050,6895.55,6753.11,6632.73,6529.18,6434.09,6351.1,6283.1,6249.64,6267.25,6304.47,6351.94,6424.61,6492.81,6572.89,6651.65,6697.25,6782.92,6822.81
10000,10000,10000,10000,9670.62,9148.54,8714.85,8352.82,8013.02,7779.98,7644.45,7685.17,7900.12,8198.55,8618.91,9097.24,9649,10000,10000,10000,10000,10000,10000,10000,10000,10000,10000,10000,10000,10000,10000,10000,10000,10000,10000,10000,10000,10000,10000,9710,9450,9540,9740,9810,9750,7550,4440,5250,7650,7700,8280,9710,10000,9810,9710,9780,10000,10000,10000,10000,10000,10000,10000,10000,10000,10000,10000,10000,10000,10000,10000,10000,9652.94,9379.71,9191.66,9068.28,9004,9008.81,9017.79,9033.85,9055.32,9064.41,9076.97,9086.11,9099.11,9102.65,9111.71,9108.11,9100.36,9081.18,9068.91,9049.69,9026.94,8996,8967.95,8940.67,8919.13,8900.15,8895.39,8898.39,8903.72,8909.43,8920.37,8927.67,8938.23,8942.42,8945.32,8946.86,8937.63,8926.82,8925.9,8925.29,8922.7,8909.9,8903.37,8895.42,8889.61,8891.24,8887.87,8884.29,8892.34,8903.07,8922.99,8951.49,8981.48,9002.58,9016.05,9022.25,9029.01,9023.38,9013.37,8995.03,8967.8,8942.43,8914.35,8900.36,8898.78,8896.14,8887.45,8886.41,8885.47,8888.29,8890.2,8892.84,8890.17,8890.95,8891.55,8885.11,8881.34,8883.05,8869.68,8854.68,8844,8832.03,8822.82,8810.22,8803.42,8798.49,8798.78,8800.97,8803.99,8812.86,8823.71,8840.5,8871.79,8905.86,8956.19,9004.9,9056.12,9105.53,9141.54,9180.91,9196.95,9202.54,9202.14,9181.66,9154.41,9122.46,9084.71,9041.52,8982.03,8928.48,8861.63,8775.25,8699.88,8646.68,8569.03,8513.06,8443.79,8390.94,8335.92,8267.28,8157.69,8048.87,7926.58,7805.63,7671.21,7552.19,7449.53,7335.76,7250.42,7187.28,7210.27,7240.03,7307.8,7395.85,7459.97,7575.23,7689.57,7796.97,7897.9,7947.65,7994.73,8012.11,8018.28,8006.69,8017.68,8019.74,8028.6,8031.14,8037.4,8049.01,8068.09,8077.6,8090.95,8105.31,8124.53,8131.7,8145.88,8150.83,8136.45,8089.3,8016.45,7930.35,7839.91,7749.14,7658.78,7546.05,7434.77,7342.21,7281.55,7128.4,5196.16,2180.13,30.138,362.411,574.306,2162.2,3122.91,3113.94,3104.29,3096.96,3099.67,3101.83,3104.98,3099.26,3074.34,3058.6,3060.59,3070.77,3078.29,3090.76,3190.26,3454.88,3867.13,599.001,3714.46,6393.52,7368.58,8203.16,8190.93,8181.46,8152.87,8112.6,8085.41,8060.32,8029.19,8014.53,7995.35,7987.68,7991.34,8007.87,8025.57,8040.63,8057.23,8080.74,8089.5,8109.67,8121.7,8126.66,8126.74,8126.65,8129.81,8128.67,8121.86,8119.03,8104.22,8097.77,8091.67,8083.82,8076.18,8075.79,8070.44,8072.83,8073.3,8071.52,8056.07,8039.35,8023.03,7964.66,7922.48,7904.83,7863.31,7818.3,7777.87,7740.28,7703.96,7673.41,7644.82,7620.9,7595.41,7575.56,7543.81,7546.91,7543.09,7545.18,7562.29,7579.79,7602.38,7636.19,7673.95,7714.73,7748.5,7765.81,7783.76,7791.9,7795.84,7789.98,7795.36,7780.41,7762.78,7756.88,7747.24,7741.97,7743.37,7717.41,7699.7,7671.6,7661.54,7635.16,7598.79,7568.02,7547.33,7531.94,7524.11,7514.97,7492.03,7474.66,7453.69,7443.28,7432.65,7418.05,7403.84,7393.69,7394.11,7409.45,7432.65,7459.25,7487.52,7507.55,7529.98,7547.94,7560.56,7569.74,7570.52,7570.26,7569.97,7566.26,7560.28,7551.52,7538.52,7516.64,7484.64,7447.49,7386.6,7302.24,7160.27,7028.07,6882.35,6743.15,6625.26,6525.61,6434.18,6350.55,6277.91,6244.83,6260.58,6298.73,6345.18,6415.85,6483.18,6564.74,6643.04,6689.61,6771.67,6813.69
10000,10000,10000,10000,9514.03,9005.75,8606.71,8258.25,7947.4,7734.23,7611.79,7653.22,7850.64,8136.9,8544.53,9014.79,9559.92,10000,10000,10000,10000,10000,10000,10000,10000,10000,10000,10000,10000,10000,10000,10000,10000,10000,10000,10000,10000,10000,10000,10000,10000,10000,10000,10000,9890,9130,7990,8500,9650,10000,10000,10000,10000,10000,10000,10000,10000,10000,10000,10000,10000,10000,10000,10000,10000,10000,10000,10000,10000,10000,10000,10000,9698.78,9416.46,9215.75,9079.36,9007.11,9011.96,9017.07,9031.97,9050.02,9057.07,9064.4,9071.78,9078.33,9076.46,9079.17,9070.83,9062.15,9042.38,9029.87,9007.51,8984.44,8957.22,8934.75,8912.62,8897.88,8885.44,8889.08,8898.56,8913.31,8929.72,8946.69,8958.62,8978.84,8986.49,8990.26,8991.97,8981.99,8967.17,8960.11,8951.37,8946.03,8929.65,8918.68,8904.19,8890.01,8887.54,8881.06,8876.62,8881.79,8893.62,8915,8948.73,8979.67,9006.41,9028.6,9037.71,9049.77,9048.29,9040.39,9022.73,8995.19,8969.01,8940.96,8927.08,8928.44,8920.25,8913.54,8915.1,8909.68,8914.74,8916.78,8920.8,8918.34,8917.74,8915.84,8910.2,8905.02,8902.52,8886.14,8869.03,8854.52,8840.28,8826.89,8819.63,8811.62,8807.94,8807.37,8811.21,8815.54,8826.05,8834.71,8850.09,8879.79,8912,8958.96,9004.56,9053.48,9098.52,9126.68,9162.77,9176.68,9184.74,9184.94,9167.22,9144.37,9111.12,9075.63,9039.75,8984.46,8929.29,8864.32,8794.56,8721.22,8631.61,8577.95,8521.24,8462.52,8385.09,8345.42,8274.92,8172.85,8032.7,7918.54,7790.83,7658.89,7540.25,7435.18,7323.28,7235.81,7172.63,7200.5,7235.92,7306.46,7395.96,7474.98,7574.77,7687.47,7793.51,7894.86,7946.59,7993.75,8005.92,8007.1,8002.81,8015.09,8019.51,8029.96,8040.21,8049.36,8066.61,8092.18,8111.19,8127.1,8150.13,8174.19,8187.34,8199.07,8207.59,8194.73,8141.01,8063.19,7971.8,7871.72,7773.87,7674.08,7543.86,7430.75,7335.02,7267.71,7102.45,4648.06,1530.91,30.317,462.631,718.831,2345.93,3119.29,3111.74,3101.47,3094.02,3097.65,3099.98,3103.42,3097.47,3071.92,3054.52,3056.32,3066.69,3074.8,3085.15,3181.56,3439.75,3854.09,450.393,3448.25,6364.82,7381.58,8215.53,8211.09,8204.04,8179.12,8136.8,8111.92,8090.28,8063.51,8042.08,8022.41,8013.51,8017.85,8034.85,8058.92,8079.23,8097.96,8123.28,8133.78,8152.82,8164.39,8166.29,8164.94,8158.79,8154.32,8150.69,8136.99,8129.83,8109.23,8094.87,8082.98,8069.34,8060.54,8053.65,8045.5,8043.51,8046.24,8046.77,8017.62,8004.91,8003.2,7957.97,7925.21,7890.94,7875.12,7839.46,7804.51,7770.37,7738.12,7707.24,7680.01,7652.13,7617.31,7587.09,7560.46,7560.59,7551.21,7551.52,7559.36,7576.58,7595.19,7627.23,7663.5,7700.16,7724.85,7745.46,7761.79,7766.19,7768.89,7767.04,7761.11,7735.37,7714.17,7707.85,7701.48,7706.9,7695.33,7667.76,7655.2,7635.51,7623.92,7596.11,7572.2,7546.63,7528.62,7521.89,7519.43,7515.48,7503.52,7484.77,7467.36,7465.22,7461.78,7450.56,7439.08,7429.55,7427.67,7439.26,7456.64,7479.72,7500.32,7516.35,7531.15,7544.98,7552,7555.17,7549.35,7543.54,7534.71,7523.85,7511.68,7499.72,7485.42,7464.43,7436.06,7400.5,7345.02,7268.38,7130.47,7003.75,6866.14,6728.69,6613.45,6518.54,6429.95,6347.63,6274.54,6242.68,6251.6,6291.81,6335.56,6406.66,6473.91,6558.03,6635.25,6683.06,6765.47,6809.41
10000,10000,10000,9841.33,9326.89,8847.49,8486.31,8151.41,7880.06,7687.62,7585.35,7636.42,7841.21,8128.52,8534.64,8984.66,9522.18,10000,10000,10000,10000,10000,10000,10000,10000,10000,10000,10000,10000,10000,10000,10000,10000,10000,10000,10000,10000,10000,10000,10000,10000,10000,10000,10000,10000,10000,10000,10000,10000,10000,10000,10000,10000,10000,10000,10000,10000,10000,10000,10000,10000,10000,10000,10000,10000,10000,10000,10000,10000,10000,10000,10000,9760.99,9469.85,9248.62,9090.32,9004.6,9010.79,9015.24,9027.96,9042.69,9045.19,9049.29,9053.11,9052.98,9047.89,9042.52,9028.39,9017.59,8996.65,8980.4,8957.65,8936.35,8908.74,8892.46,8877.03,8864.09,8857.59,8870.06,8886.96,8911.1,8935.64,8968.34,8986.94,9008.36,9022.84,9033.03,9036.53,9023.3,9007.3,8993.67,8983.12,8972.77,8952.17,8936.42,8916.4,8897.29,8888.56,8877.06,8869.36,8876.85,8883.92,8907.15,8940.68,8979.89,9009.72,9033.64,9048.46,9060.86,9060.41,9054.14,9037.77,9009.45,8985.85,8959.46,8945.04,8944.72,8934.73,8930.9,8930.68,8927.7,8933.2,8938.96,8936.53,8936,8940.55,8940.92,8935.37,8927.01,8918.73,8904.04,8880.86,8866.74,8850.12,8837.95,8828.86,8824.2,8821.24,8823.47,8823.13,8829,8839.45,8853.23,8865.88,8888.86,8920.68,8961.26,9002.02,9045.17,9083.14,9105.42,9136.77,9147.69,9147.84,9146.76,9127.08,9104.16,9070.69,9039.66,9008.21,8954.13,8904.72,8846.36,8776.63,8704.35,8625.83,8546.93,8506.17,8455.18,8395.81,8327.36,8252.96,8176.51,8023.48,7888.74,7770.14,7645.5,7527.14,7418.59,7308.32,7219.77,7156.19,7184.5,7221.38,7295.12,7385.97,7475.42,7560.57,7670.42,7779.83,7878.36,7938.01,7982,7996.69,7998.73,7993.46,8005.11,8012.44,8025.67,8044.03,8058.37,8083.27,8114.68,8143.89,8168.37,8197.81,8228.12,8241.83,8257.68,8268.28,8254.94,8199.62,8110.77,8011.94,7904.3,7795.18,7679.45,7544.08,7416.52,7322.23,7252.96,6985.15,4718.56,1141.49,25.754,556.697,1507.62,2440.78,3118.93,3111.06,3100.19,3092.29,3096.63,3100.58,3102.03,3096.13,3070.06,3051.43,3052.71,3062.53,3070.68,3079.49,3168.67,3401.69,3824.22,288.653,3480.17,6330.46,7359.65,8218.4,8224.53,8224.65,8201.82,8160.7,8130.56,8115.88,8094.5,8075.1,8054.77,8047.19,8051.58,8070.62,8095.28,8117.83,8140.25,8167.42,8178.55,8197.53,8207.69,8205.89,8202.89,8192.46,8183.01,8170.28,8151.31,8137,8116.41,8093.3,8076.75,8057.18,8037.51,8027.67,8016.59,8014.52,8014.04,8021.1,7993.38,7985.62,7992.14,7953.91,7930.4,7900.65,7880.81,7861.54,7827.66,7797.13,7768.86,7737.31,7706.4,7667.33,7617.09,7600.98,7583.9,7569.73,7557.29,7550.92,7555.19,7567.85,7587.53,7615.89,7649.48,7684.86,7697.52,7720.31,7733.23,7738.89,7741.28,7736.08,7725.98,7705.03,7668.56,7666.95,7675.91,7669.42,7645.35,7622.66,7615.27,7601.96,7587.52,7572.66,7546.07,7531.39,7521.27,7517.74,7520.37,7523.37,7515.88,7500.8,7489.92,7491.08,7494.8,7488.54,7480.46,7469.15,7466.13,7474.14,7490.08,7507.01,7522.55,7529.32,7538.41,7547.7,7551.56,7550.64,7542.33,7528.42,7515.05,7496.96,7479.08,7461.81,7443.02,7421.41,7394.27,7359.27,7307.86,7237.9,7099.88,6981.81,6848.1,6714.47,6602.31,6509.03,6423.83,6343.88,6270.15,6239.59,6243.12,6284.31,6328.32,6398.41,6465.73,6550.17,6626.51,6675.77,6756.22,6805.08
10000,10000,10000,9659.31,9153.33,8704.76,8365.23,8047.28,7819.47,7643.34,7565.13,7630.49,7845.61,8134.06,8534.19,8973.13,9491.72,10000,10000,10000,10000,10000,10000,10000,10000,10000,10000,10000,10000,10000,10000,10000,10000,10000,10000,10000,10000,10000,10000,10000,10000,10000,10000,10000,10000,10000,10000,10000,10000,10000,10000,10000,10000,10000,10000,10000,10000,10000,10000,10000,10000,10000,10000,10000,10000,10000,10000,10000,10000,10000,10000,10000,9796.84,9499.19,9266.76,9115.51,9009.12,9020.79,9018.97,9030.2,9037.15,9038.26,9038.21,9032.65,9021.87,9013.57,9000.88,8980.65,8962.65,8942.22,8922.8,8900.15,8877,8860.02,8841.82,8831.18,8824.63,8827.61,8844.33,8867.84,8903.57,8935.91,8975.86,9006.01,9038.53,9054.48,9071.85,9078.94,9064.88,9047.08,9035.55,9018.72,9006.73,8983.55,8959.82,8937.62,8913.88,8898.89,8883.63,8872.52,8877.62,8884.03,8910.94,8948.83,8984.51,9015.94,9037.98,9052.83,9069,9069.45,9060.83,9043.04,9017.72,8994.77,8971.88,8958.47,8961.03,8950.31,8944.38,8943.71,8942.56,8952.19,8956.98,8956.54,8958.16,8961.41,8966.66,8960.61,8952.9,8944.58,8930.27,8904.63,8892.15,8874.99,8863.52,8859.69,8855.2,8850.68,8854.26,8856.63,8864.01,8870.43,8880.31,8888.57,8903.6,8927.93,8960.61,8997.35,9038.3,9069.09,9083.38,9105.58,9111.37,9109.52,9107.65,9088.27,9064.07,9029.03,8997.77,8971.49,8922,8871.36,8813.1,8747.31,8678.8,8605.02,8521.5,8458.11,8420.86,8379.21,8319.83,8225.83,8146.11,8010.95,7871.69,7749.14,7633.4,7514.23,7406.19,7294.65,7204.89,7140.18,7165.92,7204.73,7278.52,7367.88,7455.2,7539.05,7649.1,7759.77,7861.43,7925.86,7969.8,7984.29,7988.74,7983.29,7995.12,8002.09,8021.47,8041.19,8060.79,8091.54,8126.92,8163.05,8194.7,8225.38,8260.35,8284.16,8301.84,8312.99,8300.04,8245.51,8152.83,8048.74,7931.4,7812.93,7687.01,7540.65,7410.13,7314.61,7236.13,6836.91,4392.54,541.188,24.452,512.623,2466.9,2744.62,3121.04,3111.78,3101.38,3092.43,3096.72,3101.75,3101.29,3094.47,3068.33,3048.81,3049.55,3058.24,3066.24,3073.69,3152,3373.5,3797.26,139.597,3206.03,6214.66,7332.36,8199.65,8217.34,8220.49,8209.02,8173.75,8149.4,8134.05,8124.68,8106.19,8086.94,8079.83,8084.67,8099.99,8129.47,8152.27,8180.33,8205.73,8218.48,8235.13,8246.45,8241.74,8232.6,8219.17,8202.61,8182.85,8160.88,8141.51,8113.26,8086.48,8062.2,8037.21,8011.74,7994.23,7979.07,7975.87,7977.02,7981.94,7970.66,7964.11,7966.76,7953.25,7925.82,7904.58,7879.33,7873.25,7839.96,7809.41,7784.35,7751.89,7718.54,7672.07,7618.11,7604.1,7584.51,7562.73,7546.06,7538.14,7540.82,7550.66,7569.29,7598.42,7632.82,7652.15,7679.92,7689.71,7692.05,7718.45,7716.67,7711.35,7698.32,7674.68,7641.02,7643.07,7646.72,7612.47,7608.48,7584.75,7583.5,7566.52,7563.62,7552.7,7531.96,7512.6,7510.99,7508.54,7519.85,7526.62,7520.81,7512.37,7507.77,7516.16,7525.68,7525.2,7517.31,7508.57,7506.5,7510.3,7518.87,7529.87,7540.4,7540.65,7544.04,7545.96,7546.69,7540.86,7526.24,7509.1,7487.8,7462.75,7439.52,7419.37,7399.22,7374.82,7344.75,7308.58,7260.82,7195.31,7062.81,6948.58,6824.39,6696.48,6588.21,6495.9,6415.59,6338.63,6263.27,6237.77,6237.33,6276.96,6319.48,6387.92,6456.27,6540.38,6615.34,6667.25,6747.67,6801.62
10000,10000,10000,9483.56,8997.01,8576.26,8251.35,7956.43,7756.97,7599.27,7541.96,7618.91,7834.56,8130.06,8512.44,8938.44,9432.54,10000,10000,10000,10000,10000,10000,10000,10000,10000,10000,10000,10000,10000,10000,10000,10000,10000,10000,10000,10000,10000,10000,10000,10000,10000,10000,10000,10000,10000,10000,10000,10000,10000,10000,10000,10000,10000,10000,10000,10000,10000,10000,10000,10000,10000,10000,10000,10000,10000,10000,10000,10000,10000,10000,10000,9825.17,9529.6,9294.88,9147.36,9033.95,9037.07,9031.58,9033.42,9035.8,9025.35,9020.34,9006.97,8993.36,8972.92,8949.75,8919.49,8903.63,8877.75,8861.1,8836.59,8814.87,8791.82,8780.22,8773.66,8778.71,8787.94,8806.58,8839.51,8885.21,8927.15,8979.01,9020.77,9060.69,9086.01,9111.02,9121.03,9114.51,9099.2,9085.62,9061.83,9050.93,9023.34,8998.78,8965.41,8939.14,8919.07,8901.84,8884.7,8885.73,8894.12,8916.61,8953.76,8987.29,9016.51,9041.7,9057.21,9069.85,9072.77,9063.25,9044.5,9014.21,8996.51,8977.92,8964.38,8965.18,8950.39,8944.32,8946.31,8943.08,8953.41,8959.72,8961.11,8965.44,8976.21,8981.06,8981.59,8973.53,8965.47,8952.45,8932.84,8921.73,8904.67,8894.67,8893.31,8889.19,8888.8,8894.06,8899,8900.93,8905.3,8906.23,8913.5,8922.81,8939.7,8966.02,8995.65,9024.69,9050.69,9055.34,9070.81,9073.63,9070.11,9063.25,9041.88,9015.87,8978.87,8952.91,8924.02,8877.03,8828.09,8768.26,8707.51,8641.44,8561,8482.51,8425.59,8369.02,8324.54,8274.38,8207.48,8131.67,7986.58,7854.41,7719.29,7620.07,7500.12,7395,7283.58,7192.75,7123.84,7142.88,7182.26,7256.26,7345.71,7434.19,7519.76,7625.88,7737.65,7843.83,7923.8,7963.92,7979.61,7990.73,7985.44,7995.62,7999.16,8017.5,8040.15,8062.08,8095.44,8137.07,8174.9,8207.27,8248.14,8285.14,8304.71,8327.15,8342.05,8329.2,8274.94,8178.02,8068.86,7944.48,7816.14,7680.09,7527.27,7399.07,7289.9,7200,6667.04,4178.03,409.045,4.218,405.067,2875.46,2804.95,3126.16,3114.87,3104.08,3095.08,3098.43,3103.08,3100.98,3092.92,3067.37,3046.97,3046.66,3053.68,3061.02,3066.35,3137.6,3368.57,3796.94,74.273,2634.9,6219.51,7313.83,8160.82,8205.95,8210.95,8201.25,8175.97,8162.02,8153.8,8147.77,8135.24,8119.05,8112.61,8119.04,8134.35,8164.47,8187.17,8213.59,8239.77,8253.53,8273.23,8279.33,8273.55,8261.71,8243.11,8216.24,8192.19,8163.55,8137.55,8106.38,8073.62,8041.64,8008.48,7974.7,7951.74,7936,7927.98,7929.78,7936.69,7918.46,7922.83,7947.46,7931.19,7926.3,7904.21,7879.25,7880.39,7850.85,7824.18,7794.75,7762.26,7716.5,7673.74,7638.65,7605.86,7576.88,7552.74,7537.07,7523.38,7527.39,7537.99,7558.9,7589.63,7621,7654.25,7661.78,7674.07,7674.37,7702.45,7705.08,7697.75,7685.48,7664,7637.72,7632.9,7591.19,7581.54,7590.52,7563.46,7556.48,7544.56,7543.69,7538.84,7530.59,7510.81,7501.52,7491.93,7522.2,7531.8,7526.34,7523,7524.47,7533.99,7546.25,7550,7545.55,7539.7,7536.34,7536.47,7540.35,7549.83,7555.85,7551.01,7547.68,7548.33,7545.54,7534.27,7517.33,7493.54,7466.22,7436.19,7408.39,7382.76,7357.01,7331.93,7299.29,7264.36,7213.39,7152.6,7021.57,6911.64,6796.56,6674.19,6570.09,6482.1,6406.37,6333.3,6259.58,6237.13,6231.99,6269.91,6313.63,6379.61,6447.53,6529.75,6603.42,6658.24,6736.64,6796.66
10000,10000,9847.39,9324.28,8856.19,8458.34,8142.2,7872.08,7695.33,7552.87,7512.73,7598.72,7811.89,8110.14,8479.61,8889.27,9345.19,9806.83,10000,10000,10000,10000,10000,10000,10000,10000,10000,10000,10000,10000,10000,10000,10000,10000,10000,10000,10000,10000,10000,10000,10000,10000,10000,10000,10000,10000,10000,10000,10000,10000,10000,10000,10000,10000,10000,10000,10000,10000,10000,10000,10000,10000,10000,10000,10000,10000,10000,10000,10000,10000,10000,10000,9887.48,9607.97,9364.03,9203.54,9086.39,9075.16,9055.71,9043.16,9038.14,9017.65,9003,8981.27,8955.76,8924.88,8891.68,8858.87,8836.74,8811.42,8793.21,8770.15,8751.91,8735.18,8728.14,8726.5,8737.71,8753.6,8780.12,8818.21,8874.23,8929.17,8990.15,9038.7,9086.26,9123.71,9152.4,9168.58,9166.07,9154.63,9140.96,9118.34,9105.63,9078.87,9052.94,9018.51,8986.89,8961.7,8937.11,8920.81,8917.9,8918.09,8939.7,8972.6,8999.23,9029.5,9051.53,9063.61,9077.49,9079.5,9065.21,9046.2,9015.06,8998.39,8977.49,8960.91,8954.46,8934.89,8925.46,8929.67,8929.64,8939.86,8949.72,8952.66,8962.13,8976.59,8990.56,8992.22,8979.84,8970.96,8968.38,8952.04,8954.19,8946.45,8938.61,8940.91,8939.07,8937.47,8942.11,8942.82,8936.96,8946.74,8946.02,8942.41,8947.83,8959.83,8977.26,8997.35,9021.2,9038.51,9031.16,9042.5,9042.89,9035.53,9021.53,8997.61,8963.24,8929.13,8896.12,8869.07,8821.81,8769.98,8713.08,8650.51,8587.87,8515.03,8440.05,8386.5,8331.24,8285.53,8241.82,8182.89,8115.49,7971.97,7834.42,7707.63,7610.33,7493.58,7386.61,7276.72,7182.19,7109.61,7115.98,7154.93,7228.62,7319.82,7407.78,7496.95,7603.07,7720.42,7829.86,7925.06,7968.71,7983.8,7992.69,8005.16,8015.51,8017.01,8021.36,8043.38,8069.97,8103.56,8147.43,8185.01,8221.58,8262.03,8300.96,8322.23,8345.25,8360.54,8349.62,8294.05,8201.21,8090.07,7959.84,7827.61,7686.8,7530.15,7387.16,7282.06,7186.12,6351.47,3603.9,371.183,15.019,855.267,3012.02,2905.43,3132.3,3119.72,3106.83,3098.11,3101.77,3103.99,3100.89,3091.58,3067.5,3045.66,3044.25,3049.32,3056.25,3059.62,3117.38,3334.37,3759.7,113.251,1836.97,5871.67,7255.43,8121.37,8178.93,8187.19,8185.58,8167.35,8164.13,8165.81,8168.62,8160.53,8146.76,8143.91,8147.65,8167.02,8196.28,8221.42,8246.51,8273.36,8286.23,8306.24,8312.53,8301.83,8283.66,8263.97,8234.62,8217.64,8177.96,8138.68,8095.95,8064.21,8022.32,7979.39,7930.63,7895.5,7874.33,7865.25,7873.01,7881.44,7871.51,7875.08,7898.25,7894.1,7896.53,7893.19,7886.43,7884.35,7857.89,7831.18,7804.29,7766.63,7713.07,7675.44,7629.4,7591.29,7562,7537.9,7519.37,7507.16,7508.43,7519.46,7545.4,7576.92,7608.96,7642.68,7649.21,7668.48,7671,7678.25,7704.8,7694.55,7681.29,7659.9,7638.36,7616.33,7600.44,7592.6,7578.05,7542.21,7543.45,7531.64,7533.97,7529.52,7522.4,7518.75,7508.11,7487.54,7508.59,7530.84,7526.44,7526.47,7530.43,7542.89,7555.15,7558.58,7557.48,7553.4,7548.2,7550.58,7546.94,7552.45,7559.13,7552.77,7544.02,7538.73,7533.61,7519.7,7500.52,7475.56,7445.05,7408.65,7375.44,7348.9,7320.35,7292.37,7261.42,7224.09,7176.87,7114.82,6982.78,6877.34,6770.58,6652.81,6550.52,6466.76,6395.44,6325.5,6254.1,6235.42,6225.45,6261.59,6306.77,6371.39,6440.82,6520.89,6594.3,6652.19,6731.77,6796.99
10000,10000,9695.29,9180.09,8729.07,8348.73,8041.99,7791.79,7630.2,7505.47,7479.84,7579.48,7790.69,8091.83,8450.58,8834.33,9281.7,9709.69,10000,10000,10000,10000,10000,10000,10000,10000,10000,10000,10000,10000,10000,10000,10000,10000,10000,10000,10000,10000,10000,10000,10000,10000,10000,10000,10000,10000,10000,10000,10000,10000,10000,10000,10000,10000,10000,10000,10000,10000,10000,10000,10000,10000,10000,10000,10000,10000,10000,10000,10000,10000,10000,10000,10000,9718.64,9456.91,9274.24,9129.93,9125.01,9097.83,9068.49,9055.42,9036.34,9020.21,8989.64,8944.59,8897.93,8835.82,8802.38,8771.27,8746.56,8728.15,8704.95,8687.69,8677.04,8677.15,8682.69,8699.82,8720.89,8757.13,8799.39,8865,8927.93,8998.86,9059.7,9119.23,9168.12,9207.51,9250.22,9285.87,9278.1,9266.12,9235.98,9218.6,9188.17,9148.42,9110.66,9070.29,9037.86,9006.97,8985.85,8982.03,8992.96,9015.58,9045.56,9070.13,9091.32,9113.16,9125.11,9134.97,9131.29,9116.41,9097.91,9058.42,9035.65,9015.39,9001.35,8993.32,8970.53,8959.34,8957.52,8946.22,8949.72,8961.99,8964.43,8977.94,8998.12,9016.61,8996.86,9012.91,9004.84,9007.27,8997.47,8996.3,8995.52,8986.16,8991.78,8995.29,8999.19,9003.23,9003.95,9005.83,8989.42,9002.5,8999.73,8997.17,9003.7,9016.16,9029.78,9043.71,9056.68,9050.94,9054.17,9051.18,9039.72,9018.66,8988.53,8908.51,8872.5,8846.39,8814.4,8768,8718.91,8662.41,8602.04,8544.83,8488.52,8411.82,8340.92,8292.94,8250.2,8212.36,8160.96,8095.71,7956.81,7824.61,7696.77,7602.93,7485.83,7376.56,7268.25,7169.19,7093.02,7089.73,7129.1,7203.55,7298.05,7391.42,7477.79,7585.88,7705.66,7821.25,7928.08,7975.28,7989.41,7996.16,8006.04,8024.04,8012.74,8018.12,8041.62,8065.31,8099.07,8139.99,8176.29,8210.89,8253.25,8296.24,8318.89,8346.26,8362.37,8351.87,8299.97,8206.5,8096.65,7961.83,7825.67,7677.29,7509.14,7363.15,7248.51,7068.93,5785.89,2739.13,180.273,9.933,1384.65,3177.23,3071.31,3139.37,3125.73,3110.09,3099.75,3102.96,3103.82,3099.53,3088.79,3066.82,3044.23,3041.33,3044.93,3050.71,3052.23,3097.54,3286.23,3691.03,274.546,1290.1,5379.69,7157.09,8022.32,8125.52,8135.42,8138.6,8128.43,8134.64,8146.25,8158.83,8156.22,8150.31,8154.94,8167.14,8190.63,8221.59,8243.77,8265.58,8294.86,8310.12,8327.31,8329.94,8322.84,8307.33,8282.04,8262.69,8223.61,8159.05,8100.82,8055.02,8002.19,7948.33,7888.76,7818.55,7772.03,7753.87,7760.54,7779.39,7796.39,7807.18,7832.63,7866.4,7879.06,7909.13,7923.08,7921.71,7892.52,7865.77,7843.05,7811.87,7771.62,7729.06,7673.4,7621.56,7578.5,7548.32,7527.35,7510.15,7498.13,7497.54,7510.11,7534.82,7566.02,7599.29,7630.62,7656.17,7669.9,7681.23,7698.26,7695.53,7686.9,7674.45,7655.84,7635.39,7620.7,7599.98,7584.66,7567.62,7539.52,7529.92,7522.25,7520.58,7514.34,7506.11,7502.32,7500.76,7498.98,7505.03,7512.72,7513.7,7516.34,7519.31,7533.29,7548.76,7553.3,7553.68,7550.57,7549.05,7550.63,7547.29,7548.5,7549.53,7537.39,7526.1,7517.85,7507.76,7493.12,7474.25,7447.28,7416.69,7384.38,7351.37,7324.48,7292.73,7264.48,7234.95,7196.91,7147.79,7088.29,6955.21,6851.59,6750.99,6639.55,6542.76,6462.24,6393.08,6325.03,6251.63,6236.04,6222.33,6254.95,6300.8,6365.19,6434.59,6511.96,6583.64,6643.95,6723.76,6797.14
10000,10000,9570.93,9063.9,8622.51,8252.99,7954.81,7715.44,7570.85,7460.03,7443.85,7549.8,7764.18,8069.69,8421.27,8798.36,9236.41,9652.06,10000,10000,10000,10000,10000,10000,10000,10000,10000,10000,10000,10000,10000,10000,10000,10000,10000,10000,10000,10000,10000,10000,10000,10000,10000,10000,10000,10000,10000,10000,10000,10000,10000,10000,10000,10000,10000,10000,10000,10000,10000,10000,10000,10000,10000,10000,10000,10000,10000,10000,10000,10000,10000,10000,10000,9782.21,9514.09,9305.56,9142.26,9144.39,9122.82,9097.62,9084.94,9075.17,9073.91,9053.09,8999.21,8959.36,8881.57,8818.78,8778.42,8740.91,8712.34,8680.43,8654.96,8644.73,8627.93,8640.24,8664.77,8693.37,8732.27,8777.23,8841.09,8909.2,8994.59,9057.51,9124.61,9182.44,9248.1,9311.09,9332.45,9324.18,9311.52,9285.06,9269.44,9237.36,9195.18,9149.86,9109.13,9075.76,9052.87,9038.37,9034.64,9040.78,9057.91,9084.99,9108.56,9125.39,9138.63,9140.7,9148.42,9141.59,9125.06,9099.26,9066.19,9045.14,9027.83,9014.91,9009.04,8984.43,8975.75,8978.66,8973.72,8984.95,8998.26,9001.66,9022.96,9045.98,9060.11,9053.67,9040.87,9054.5,9024.95,9032.02,9024.48,9026.55,9013.83,9018.32,9026.76,9030.77,9035.33,9035.56,9033.5,9035.69,9018.43,9028.97,9024.11,9032.47,9043.09,9050.97,9052.28,9064.14,9064.39,9066.5,9062.99,9054.94,9032.4,8996.88,8948.21,8898.05,8853.15,8807.28,8752.18,8690.71,8628.79,8555.19,8490.92,8435.93,8375.16,8303.89,8255.9,8220.03,8186.54,8141.67,8079.33,7942.44,7813.22,7687.71,7594.02,7476.27,7364.74,7256.44,7155.18,7076.98,7065.23,7104.17,7181.17,7274.83,7369.54,7463.42,7573.51,7699.12,7819.6,7940.4,7990,8001.95,8006.77,8012.01,8020.76,8009.93,8018.46,8040.64,8059.29,8091.34,8129.24,8164.14,8196.36,8235.04,8276.8,8303.2,8327.2,8346.13,8337.99,8291.72,8200.42,8091.42,7965.46,7827.69,7677.56,7502.21,7361.53,7244.65,7062.98,5242.47,2267.19,243.817,13.617,1661.01,3118.87,3064.97,3146.31,3133.92,3115.24,3102.62,3104.25,3103.98,3097.43,3086.15,3066.37,3043.26,3038.96,3041.83,3047.04,3047.01,3075.79,3218.96,3593.28,350.252,1304.75,4957.43,7039.53,7900.18,8078.79,8089.22,8083.95,8083.47,8098.69,8115.79,8135.94,8143.94,8142.79,8151.36,8167.22,8193.57,8228.71,8256.22,8283.39,8304.49,8321.31,8341.24,8343.58,8332.6,8326.51,8317.83,8280.16,8223.6,8139.93,8060.37,8009.46,7950.17,7886.96,7817.53,7729.12,7676.63,7667.55,7691.19,7725,7750.78,7771.05,7801.61,7837.55,7860.51,7899.29,7915.71,7916.17,7888.56,7860.51,7837.03,7804.36,7763.58,7719.81,7660.14,7607.47,7564.66,7540.36,7519.14,7502.44,7490.2,7481.79,7497.12,7525.37,7559.71,7595.32,7623.93,7643.13,7661.77,7678.96,7677.3,7683.69,7675.53,7662.74,7641.07,7619.33,7604.91,7581.64,7565.25,7548.16,7530.2,7514.33,7502.38,7500.97,7494.96,7488.64,7485.1,7483.88,7481.45,7488.64,7495.22,7495.21,7497.79,7504.59,7517.66,7530.98,7533.58,7536.53,7534.16,7532.09,7534.79,7530.44,7529.3,7530.06,7515.28,7500.25,7488.7,7478.74,7466.49,7444.85,7423.13,7396.4,7365.69,7336.09,7306.66,7277.16,7247.92,7215.93,7177.59,7125.65,7061.19,6930.32,6827.02,6735.19,6629.27,6531.91,6455.33,6389.43,6332.36,6255.49,6239.39,6221.99,6251.93,6296.99,6361.75,6430.21,6504.74,6576,6638.11,6718.35,6798.57
10000,10000,9465.62,8964.73,8533.08,8171.57,7875.52,7647.01,7517.52,7418.88,7413.26,7524.35,7738.04,8046.17,8390.75,8755.5,9180.3,9581.39,9880.52,10000,10000,10000,10000,10000,10000,10000,10000,10000,10000,10000,10000,10000,10000,10000,10000,10000,10000,10000,10000,10000,10000,10000,10000,10000,10000,10000,10000,10000,10000,10000,10000,10000,10000,10000,10000,10000,10000,10000,10000,10000,10000,10000,10000,10000,10000,10000,10000,10000,10000,10000,10000,10000,10000,9792.55,9510.05,9294.32,9121.68,9128.62,9097.74,9066.57,9055,9058.89,9058.52,9039.36,8978.4,8947.64,8865.36,8799.04,8755.69,8714.15,8681.2,8648.31,8620.68,8605.96,8591.13,8604.86,8632.38,8663.31,8699.72,8736.76,8800.55,8876.65,8967.72,9041.24,9111.69,9172.37,9250.9,9329.51,9360.66,9360.66,9354.68,9339.13,9327.41,9302.81,9269.54,9220.25,9172.7,9138.7,9113.69,9096.97,9086.65,9088.09,9110.01,9134.78,9154.28,9163.64,9166.45,9168.85,9171.26,9163.79,9141.76,9110.24,9066.22,9041.76,9027.18,9016.6,9010.8,8988.81,8984.02,8985.94,8983.74,8995.76,9005.89,9008.79,9027.93,9049.78,9055.98,9050.67,9033.21,9037.38,9024.24,9007.47,9000.57,9003.67,8998.52,9013.25,9031.98,9040.97,9056.38,9066.67,9068.1,9062,9059.37,9043.62,9055.74,9060.1,9065.7,9062.18,9044.47,9046.65,9041.78,9037.15,9027.73,9007.41,8981.92,8942.65,8892.12,8843.03,8797.26,8752.48,8695.47,8634.58,8570.27,8497.19,8440.36,8388.05,8349.53,8269.45,8223.31,8193.92,8164.49,8124.78,8066.54,7929.14,7799.5,7674.82,7583.46,7463.99,7351.02,7244.3,7136.54,7055.84,7039.67,7076.8,7154.84,7252.3,7350.34,7447.53,7557.99,7687.7,7816.1,7947.47,8001.58,8007.65,8008.89,8013.87,8014.98,7994.83,8006.31,8022.32,8040.74,8068.56,8104.94,8132.76,8160.01,8193.86,8230.51,8253.72,8273.9,8283.77,8276.33,8236.29,8148.81,8044.76,7927.85,7799.22,7654.19,7483.46,7344.77,7225.62,6977.26,5092.64,2173.37,241.331,44.112,1690.83,3115.09,3114.63,3158.29,3143.42,3122.84,3107.5,3106.79,3103.98,3096.43,3083.97,3066.11,3043.79,3038.26,3040.11,3044.8,3044.85,3066.96,3177.04,3503.94,474.913,1113.73,4822.86,6935.39,7827.01,8031.05,8055.06,8056.96,8056.36,8083.37,8104.73,8137.75,8152.15,8159.03,8169.88,8185.78,8211.66,8248.73,8273.76,8291.81,8312.16,8319.58,8333.56,8327.67,8317.07,8303.21,8293.47,8252.31,8187.16,8103.72,8020.55,7965.49,7911.32,7854.56,7788.49,7703.05,7650.15,7645.88,7672.12,7712.6,7738,7758.86,7791.29,7822.96,7862.66,7911.43,7936.81,7937.14,7911.08,7882.4,7861.83,7823.86,7786.03,7740.22,7671,7615.79,7577.36,7553.55,7535.88,7518.5,7504.85,7499.66,7511.56,7541.35,7571.79,7603.44,7627.84,7645.24,7660.35,7680.64,7685.76,7682.66,7671.97,7657.96,7635.1,7613.83,7594.96,7569.98,7551.1,7537.46,7516.88,7500.01,7489.56,7487.52,7482.29,7471.19,7465.95,7461.74,7458.75,7461.03,7463.75,7462.85,7464.67,7474.04,7484.34,7499.7,7506.28,7508.52,7507.21,7505.69,7508.81,7504.26,7499.01,7492.04,7479.62,7465.42,7453.87,7445.56,7435.32,7418.14,7400.64,7380.83,7359.07,7338.56,7315.79,7293.84,7270.37,7246.68,7215.77,7171.57,7108.82,6978,6868.89,6774.65,6664.25,6563.86,6479.8,6406.45,6343.74,6262.17,6243.64,6222.83,6250.01,6295.35,6358.99,6426.86,6497.82,6569.29,6629.46,6711.13,6796.93
10000,9894.25,9415.41,8915.71,8486.22,8124.54,7832.64,7603.98,7486.18,7392.94,7385.17,7495.73,7709.94,8016.64,8349.63,8701.45,9109.92,9492.47,9812.65,10000,10000,10000,10000,10000,10000,10000,10000,10000,10000,10000,10000,10000,10000,10000,10000,10000,10000,10000,10000,10000,10000,10000,10000,10000,10000,10000,10000,10000,10000,10000,10000,10000,10000,10000,10000,10000,10000,10000,10000,10000,10000,10000,10000,10000,10000,10000,10000,10000,10000,10000,10000,10000,10000,9778.12,9491.62,9273.49,9106.32,9101.4,9068.31,9032.12,9019.91,9031.03,9036.25,9016.26,8971.93,8937.07,8850.84,8774.64,8736.43,8691.91,8656.75,8623.57,8600.03,8585.3,8569.32,8581.28,8611.66,8643.17,8681.86,8713.32,8775.44,8854.35,8944.25,9018.82,9091,9149.67,9235.88,9320.5,9357.73,9363.36,9364.6,9355.22,9354.24,9339.63,9312.49,9270.41,9224.46,9193.43,9169.13,9156.13,9144.93,9141.52,9159.65,9179.35,9199.56,9206.17,9202.61,9203.79,9202.3,9183.26,9156.34,9120.38,9076.27,9044.6,9027.08,9018.36,9013.89,8999.67,8995.91,8996.67,8986.99,8994.1,9000.99,8998.09,9005.52,9018.45,9015.23,8997.25,8986.71,8973.82,8971.85,8960.88,8952.1,8952.36,8956.16,8964.28,8996.3,9007.65,9025.76,9036.46,9045.32,9044.55,9036.58,9028.89,9008.8,9029.04,9028.61,9016.71,8999.68,9000.45,8992.92,8986.67,8979.68,8963.42,8939.54,8900.57,8852.82,8803.43,8755.67,8708.55,8656.25,8595.38,8531.44,8457.64,8406.18,8360.58,8312.55,8259.5,8215.69,8188.72,8164.19,8127.52,8072.56,7929.71,7798.07,7669.98,7576.81,7452.1,7336.73,7225.23,7114.83,7033.67,7015.56,7054.02,7134.34,7235.39,7336.71,7438.83,7548.04,7686.49,7816.49,7955.84,8010.66,8019.5,8015.86,8016.27,7997.69,7994.27,7998.03,8010.2,8024.81,8049.62,8074.34,8095.4,8111.64,8137.05,8164.12,8183.08,8197.09,8199.1,8190.02,8154.24,8065.95,7966.41,7849.08,7715.32,7581.21,7412.08,7260.51,7121.11,6837.45,5257.41,2503.77,342.516,32.933,1187.6,3034.85,3120.06,3166.33,3149.14,3127.79,3111.71,3107.12,3102.59,3093.3,3080.62,3064.14,3043.14,3037.52,3037.35,3042.35,3042.61,3066.5,3162.9,3448.84,445.633,1145.45,4238.52,6797.16,7699.61,7962.77,7990.64,7989.68,8006.24,8038.92,8076.96,8110.15,8135.94,8149.8,8168.62,8188.76,8216.18,8255.24,8277.93,8296.2,8311.97,8315.22,8313.07,8310.83,8293.67,8270.15,8255.75,8210.87,8143.74,8055.82,7972.3,7920.41,7866.33,7810.79,7746.87,7667.73,7616.46,7616.27,7643.04,7689.3,7718.33,7738.82,7775.48,7810.42,7853.97,7912.58,7946.74,7953.17,7931.93,7908.64,7889.67,7855.66,7821.89,7782.18,7712.06,7657.78,7624.63,7602.53,7588.09,7569.78,7554,7548.53,7556.34,7582.21,7606.56,7628.74,7649.05,7660.85,7674.06,7689,7692.86,7688.06,7675.91,7661.63,7637.11,7614.62,7592.3,7566.91,7541.94,7528.2,7507.61,7488.37,7477.24,7472.3,7461.96,7451.39,7447.31,7438.78,7434.67,7432.83,7433.23,7429.49,7433.45,7444.43,7455.33,7468.04,7473.58,7473.87,7472.95,7473.01,7474.14,7463.93,7458.72,7452.24,7438.97,7424.94,7413.35,7408.74,7399.36,7388.46,7378.53,7368.22,7354.3,7340.15,7330.58,7315.52,7301.84,7282.79,7259.18,7221.93,7164.05,7041.81,6925.1,6822.7,6708.01,6602.97,6510.62,6433.25,6360.75,6276.96,6250.21,6227.62,6251.78,6295.52,6357.97,6423.45,6490.21,6560.39,6618.82,6702.3,6792.83
