4.665,17.753,13.369,4.367,7.144,19.286,24.232,42.997,208.014,346.777,757.353,1245.41,1816.15,2069.43,2117.65,3060.62,3226.77,3319.11,3369.29,3273.05,3090.01,2844.57,2369.19,1890.85,1445.37,1000.41,632.999,403.912,257.318,181.803,144.902,138.822,142.865,130.775,124.597,133.753,142.545,156.953,222.874,318.317,388.447,477.247,567.884,657.56,783.683,864.031,952.585,975.453,997.505,1010.57,991.231,918.261,861.354,782.782,671.056,588.419,475.257,433.03,383.842,330.568,299.47,266.133,242.237,205.351,156.418,117.028,97.842,58.752,54.453,49.474,29.802,35.217,15.187,0,0,0,0,0,0,0,0,0,0,0,0,0,0,5.263,5.219,20.158,44.33,53.793,149.496,288.872,518.028,738.943,930.398,1081.37,1047.7,881.583,613.875,511.336,393.677,330.088,285.96,256.404,257.523,267.941,294.687,317.796,392.252,447.18,543.367,494.443,309.899,180.054,149.062,53.713,15.929,0,0,0,0,0,0,0,0,0,0,0,0,0,0,0,0,0,0,0,0,4.926,24.445,39.258,129.326,233.374,338.616,487.84,555.113,605.695,587.864,536.873,499.273,510.52,536.796,743.353,888.276,1143.75,1481.31,1918.45,2427.85,2774.52,3046.56,3059.57,3156.43,3266.37,3449.56,3793.42,4375.91,4755.65,5155.37,5216.73,4881.8,4217.48,3224.74,2486.85,1915.28,1439.62,688.689,250.442,66.971,18.408,6.622,6.551,0,11.98,10.491,15.707,10.166,15.132,73.909,128.886,175.117,181.272,163.963,457.553,807.789,921.252,1198.26,1604.93,1810.72,1839.39,2307.16,2654.69,3147.37,3882.98,4704.75,5221.73,5477.97,5610.59,5626.13,5613.33,5613.64,5542.42,5480.97,5503.33,5594.46,5680.41,5762.77,5784.2,5804.28,5748.95,5674.34,5561.88,5316.92,4678.65,3927.68,2698.71,1351.21,509.534,152.559,56.184,10.974,0,0,0,0,0,0,0,0,0,0,0,0,0,0,0,0,0,0,0,0,0,0,0,0,0,0,0,0,0,0,0,12.255,19.072,19.135,19.071,12.912,25.351,19.258,6.753,6.688,6.22,0,0,0,0,0,0,0,0,0,0,0.94,0.977,1.898,1.43,1.429,1.78,1.78,0.803,0.802,0.802,0.801,1.604,1.153,0.801,1.059,1.059,1.409,2.112,2.112,1.758,2.456,2.101,1.749,2.104,1.398,1.05,1.398,0.351,0.351,0.351,0,0,44.462,120.086,406.329,833.172,1357.56,1732.18,1730.86,1350.83,935.404,604.684,301.124,143.488,86.845,55.6,18.256,18.673,40.486,22.055,26.683,48.868,76.113,85.168,100.538,147.325,283.448,399.135,487.21,675.117,845.959,1090.62,1389.11,1277.84,1010.24,1396.32,2103.13,1289.15,2523.68,2513.99,2506.6,2498.59,2485.11,2468.13,2454.16,2442.89,2438.12,2432.5,2428.59,2420.47,2412.98,2409.33,2399.74,2392.24,2385.2,2379.26,2367.63,2352.6,75.117,4.858,3638.25,5937.56,6295.34,6327.37,6335.29,6297.74,6283.4,6266.99,6245.23,6238.07,6216.43,6184.28,6162.59,6124.44,6082.01,6040.64,5996.66,5932.6,5907.67,5844.44,5731,5670.01,5685.15,5689.73,5700.28,5721.68,5723.09,5714.02,5710.23,5733.9,5782.98,5834.56,5859.25,5905.62,5936.68,5971.36,6017.04,6063.5,6112.17,6154.36,6198.14
0,0,0.892,3.563,5.388,7.131,10.897,8.209,20.068,75.611,193.348,400.107,659.641,938.017,1167.04,1460.4,1574.88,1515.56,1317.43,1135.06,943.377,733.983,544.959,348.64,178.655,123.543,58.2,26.825,16.066,10.27,4.966,0,0,4.887,4.811,4.774,9.956,9.92,9.884,14.541,29.13,38.752,43.861,67.57,76.801,95.716,100.247,96.852,107.068,69.162,34.118,19.751,4.849,0,0,0,0,0.914,0.912,1.851,1.847,0.908,0.907,0,0,0,0,0,0,0,0,0,0,0,0,0,0,0,0,0,0,0,0,0,5.498,0,0,5.865,42.603,77.524,82.313,257.866,288.984,241.158,239.922,248.958,163.702,142.687,88.165,78.998,50.353,34.656,10.096,0,0,0,0,0,0,5.089,5.089,15.486,10.441,21.157,5.355,0,0,0,0,0,0,0,0,0,0,0,0,0,0,0,0,0,0,0,0,0,0,0,0,0,0,0,0,0,4.811,4.926,9.511,14.514,14.396,19.441,14.705,19.56,24.413,40.16,56.865,105.742,159.355,260.236,498.742,684.752,759.622,802.311,837.89,909.701,985.429,1208.41,1411.06,1768.15,1885.55,1879.29,1280.53,778.708,359.773,186.348,96.336,72.69,17.951,0,0,0,0,0,0,0,0,0,0,0,0,0,0,0,0,0,16.054,42.815,140.837,214.387,314.56,614.219,953.827,1420.12,2030.51,2840.27,3836.46,4669.19,5165.63,5501.29,5683.31,5803.4,5872.71,5921.66,5964.86,5976.43,6002.58,6010.85,5999.92,5985.56,5957.63,5913.94,5772.13,5444.01,4855.89,4040.1,2813.65,1454.26,559.742,189.89,57.747,11.148,5.65,0,0,0,0,0,0,0,0,0,0,0,0,0,0,0,0,0,0,0,0,0,0,0,0,0,0,0,0,0,0,0,0,0.474,0.473,0.472,0.471,0.471,0.47,0.469,0.468,0,0,0,0,0,0,0,0,0,0,0.466,0.941,1.444,1.898,1.898,2.841,2.371,3.31,2.328,2.327,1.391,0.925,1.834,1.867,1.867,0.465,0.941,0.941,0.941,0.451,0,0,0,0,0,0,0,0,0,0,0,0,0,0,19.18,44.71,101.607,189.959,328.438,391.625,289.679,188.721,112.917,30.994,30.94,12.764,0,0,0,0,17.133,10.831,15.382,29.796,43.872,40.37,59.01,152.884,237.53,337.196,449.034,655.831,918.206,1270.77,1403.42,1468.81,1690.75,2226.74,2066.89,2519.55,2511.18,2504.66,2497.47,2485.4,2469.43,2455.78,2444.37,2439.4,2433.76,2429.74,2421.58,2413.44,2409.74,2400.66,2393.76,2386.62,2378.75,2370.04,2355.23,37.628,4.848,108.031,3725.58,5691.65,5961.6,5967.63,5897.78,5893.31,5914.79,5963.56,6039.49,6053.3,6048.54,6059.57,6080.22,6060.51,6031.45,5994.55,5939.58,5855.32,5832.56,5768.14,5756.21,5739.71,5754.33,5745.84,5698.29,5731.52,5731.67,5733.31,5757.14,5799.85,5838.09,5873.92,5896.27,5926.48,5954.12,5991.87,6035.02,6077.66,6119.41,6162.7
0,0,1.754,3.569,5.398,8.003,8.002,12.654,5.334,2.652,4.665,0,4.774,20.211,30.818,125.99,198.125,372.616,349.364,235.469,192.878,115.372,50.105,11.46,5.865,0,0,0,0,0,0,0,0,0,0,0,0,0,0,0,0,0,0,0,0,0,0,0,0,0,0.933,2.773,4.641,9.284,15.846,27.018,36.312,49.35,58.586,47.334,40.655,21.095,10.949,0.942,0,0,0,0,0,0,0,0,9.892,15.315,15.855,163.256,1659.1,4215.52,5263.45,4974.11,4759.64,4744.92,4587.47,4673.96,4862.33,5110.43,5244.81,5278.42,4880.97,4333.58,4029.41,3928.98,3957.05,4062.65,3968.96,3922.19,3947.02,4113.71,4377.53,4422.93,4264.29,4217.01,4483.39,4730.62,4819.22,4907.35,4890.76,4890.04,4927.68,4966.76,5021.7,5126.63,5245.9,5318.98,5379.71,5167.56,4817.43,4217.91,3756.39,3342.36,2231.66,1020.58,310.041,70.563,5.309,0,0,0,0,0,0,0,0,0,0,0,0,0,0,0,0,0,0,0,0,4.63,4.701,0,0,0,0,0,0,0,0,4.887,15.203,31.274,75.625,115.815,115.963,156.773,197.46,205.872,283.157,280.14,288.294,318.8,272.635,184.4,118.773,83.354,18.138,12.225,6.415,6.349,0,0,0,0,0,0,0,0,0,0,0,0,0,0,0,0,0,0,0,0,0,0,0,11.22,54.133,115.012,215.467,566.462,1129.55,1906.33,2919.63,3633.28,4086.5,4530.4,4846.82,5139.79,5222.09,5115.25,5252.26,5603.15,5618.08,5500.57,5070.23,4438.06,3521.74,2456.87,1761.14,1061.65,614.473,215.461,52.444,17.689,5.548,0,0,0,0,0,0,0,0,0,0,0,0,0,0,0,0,0,0,0,0,0,0,0,0,0,0,0,0,0,0,0,0,0,0,0.47,0.47,0.468,0.467,0.466,0.464,0.464,0,0,0,0,0,0,0,0,0,0,0,0.466,0.942,1.444,1.898,1.899,2.84,2.371,3.311,2.328,2.806,1.866,2.344,2.312,1.392,1.393,1.862,0.941,0.941,0.941,0.451,0.451,0.928,0,0,0,0,0,0,0,0,0,0,0,0,0,0,0,0,0,12.381,6.415,0,0,0,0,0,0,0,0,0,0,0,0,9.793,15.486,15.225,26.744,74.083,141.277,194.391,306.279,483.93,722.635,1016.13,1253.36,1646.04,2163.75,2510.46,2326.73,2498.07,2505.56,2497.44,2494.27,2483.58,2468.71,2455.1,2444.37,2439.78,2434.53,2430.54,2422.9,2414.16,2410.41,2402.17,2393.7,2386.72,2381.72,2370.66,2356.38,65.9,4.848,0,119.049,2161.36,4082.33,4161.32,4138.01,4281.98,4527.15,4851.89,5102.1,5370.04,5562.77,5653.04,5732.69,5825.9,5838.93,5867.2,5860.4,5855.44,5813.19,5762.5,5732.06,5710.24,5698.56,5706.86,5726.78,5726.1,5749.92,5744.28,5763.82,5805,5829.27,5853.54,5882,5906.89,5932.89,5963.02,5999.1,6039.76,6077.22,6115
0,0,1.754,3.569,5.398,8.921,8.916,8.022,5.334,2.65,0,0,0,0,0,0,0,0,0,0,0,0,0,0,0,0,0,0,0,0,0,0,0,0,0,0,0,0,0,0,0,0,0,0,0,0,0,0,0,0.932,5.542,16.73,26.996,54.864,84.479,99.28,103.811,103.61,100.668,72.817,45.929,21.912,10.908,0.936,0,0,0,0,0,0,0,0,0,0,10.526,10.618,126.17,2030.19,5153.84,5639.2,5674.91,5729.3,5763.77,5700.62,5647.92,5600.7,5152.13,5505.23,5452.13,5381.03,5290.14,5181.84,5149.62,5091.58,5087.5,5092.48,5084.95,5093.82,5098.86,5113.07,5110.48,5092.33,5093.71,5078.29,5080.42,5085.94,5135.48,5195.14,5246.38,5286.79,5351.86,5389.5,5411.03,5420.94,5437.6,5274.23,4865.52,4112.07,3010.96,1417.52,401.901,94.652,10.903,0,0,0,0,0,0,0,0,0,0,0,0,0,0,0,0,0,0,0,0,0,0,0,0,0,0,0,0,0,0,0,0,0,0,0,5.548,0,5.45,50.33,91.11,91.949,161.19,167.36,145.12,122.753,71.089,53.5,5.755,5.81,5.81,0,0,0,0,0,0,0,0,0,0,0,0,0,0,0,0,0,0,0,0,0,0,0,0,0,0,0,0,0,0,0,22.681,103.003,270.802,507.027,893.761,1177.05,1581.86,1781.35,1996.95,2338.79,2623.2,2774.97,2855.48,2647.76,2102.52,1462.44,943.496,392.082,157.682,63.901,12.104,0,0,0,0,0,0,0,0,0,0,0,0,0,0,0,0,0,0,0,0,0,0,0,0,0,0,0,0,0,0,0,0,0,0,0,0,0,0,0,0,0,0,0,0,0.464,0.463,0.463,0,0,0,0,0,0,0,0,0,0.466,0.942,1.444,1.898,2.376,2.84,2.844,4.254,3.748,3.747,2.822,3.291,3.26,2.782,2.784,2.336,1.419,2.818,1.888,1.876,1.876,1.877,1.405,1.408,0,0,0,0,0,0,0,0,0,0,0,0,0,0,0,0,0,0,0,0,0,0,1.485,1.989,1.99,0.504,0.505,0,0,0,2.825,2.799,5.679,33.141,52.501,108.449,176.589,277.8,392.136,520.296,606.112,960.296,1617.23,2423.01,2394.38,2423.96,2500.33,2492.91,2490.97,2480.99,2467.35,2454.63,2444.12,2439.5,2435.25,2431.04,2423.4,2414.15,2410.31,2402.86,2394.14,2387.57,2382.47,2371.41,2359.61,216.475,11.865,0,0,12.446,217.279,248.403,309.741,369.523,505.654,672.859,939.63,1373.88,1831.42,2389.32,3097.64,3698.68,4360.04,4856.8,5280.77,5472.18,5607.54,5580.76,5556.46,5560.14,5607.59,5594.82,5626.31,5649.62,5667.46,5691.75,5719.87,5748.42,5777.03,5838.16,5843.72,5862.29,5878.03,5918.33,5947.2,5981.7,6013.03,6045.81
0,0,1.754,3.569,5.398,8.921,8.916,8.022,5.334,2.65,0,0,0,0,0,0,0,0,0,0,0,0,0,0,0,0,0,0,0,0,0,0,0,0,0,0,0,0,0,0,0,0,0,0,0,0,0,0,0,0.932,5.542,16.73,26.996,55.787,83.589,101.14,104.722,106.353,101.572,72.815,45.021,21.909,10,0.936,0,0,0,0,0,0,0,0,0,0,0,21.768,1061.53,5005.35,5675.01,5691.71,5737.09,5786.54,5814.48,5755.54,5701.48,5645.05,5575.63,5534.58,5481.06,5404.46,5301.86,5198.03,5145.82,5059.95,5012.18,4993.91,4998.62,5025.38,5053.29,5063.72,5087.92,5058.38,5048.12,5010.39,4971.31,4964.89,4951.38,4966.46,4993.77,5052.62,5193.35,5211.33,5201.22,5091.08,4962.01,4659.66,3981.25,3128.54,1858.1,770.289,214.251,33.901,0,0,0,0,0,0,0,0,0,0,0,0,0,0,0,0,0,0,0,0,0,0,0,0,0,0,0,0,0,0,0,0,0,0,0,4.887,15.568,10.762,10.887,10.93,11.073,17.04,11.057,11.323,5.402,5.45,5.45,0,0,0,0,0,0,0,0,0,0,0,0,0,0,0,0,0,0,0,0,0,0,0,0,0,0,0,0,0,0,0,0,0,0,0,0,0,0,0,0,0,0,0,5.921,0,0,0,11.958,5.921,12.074,12.195,17.267,11.842,5.921,5.865,0,0,0,0,0,0,0,0,0,0,0,0,0,0,0,0,0,0,0,0,0,0,0,0,0,0,0,0,0,0,0,0,0,0,0,0,0,0.477,0.476,0.474,0.472,0.471,0.469,0.467,0.465,0.464,0.463,0.463,0,0,0,0,0,0,0.465,0.465,0.466,0.94,0.942,1.444,1.898,2.376,3.302,4.263,5.212,5.213,5.675,5.172,4.236,4.205,4.228,4.695,4.717,4.28,4.741,4.262,3.775,3.786,2.838,2.843,2.372,2.374,1.418,0.968,0.482,0,0.482,0.481,0.481,0,0,0,0,0,0,0,0,0,0,0,1.015,2.985,3.97,4.967,5.947,6.916,6.916,4.964,3.983,2.486,0,0,2.761,2.737,8.083,29.528,60.696,101.852,153.667,199.44,241.905,280.391,522.069,1006.72,2104.44,2392.95,2500.73,2485.79,2491.95,2487.87,2479.09,2467.24,2454.72,2445.06,2440.76,2436.79,2432.39,2425.08,2415.33,2411.88,2404.85,2396.09,2389.1,2384.17,2373.84,2362.94,1174.8,228.734,0,0,0,0,6.037,0,0,6.037,6.037,37.187,99.027,227.361,451.114,1047.32,1910.71,2944.05,3936.03,4783.22,5200.53,5484.17,5530.04,5558.58,5575.79,5583.4,5609.86,5672.2,5714.89,5703.03,5717.59,5743.3,5763.46,5801.27,5818.14,5829.2,5842.86,5859.44,5881.96,5911.6,5942.91,5966.79,5996.4
0,0,1.755,3.57,4.481,8.031,8.918,8.024,5.335,2.651,0,0,0,0,0,0,0,0,0,0,0,0,0,0,0,0,0,0,0,0,0,0,0,0,0,0,0,0,0,0,0,0,0,0,0,0,0,0,0,0.932,5.542,16.73,26.996,54.853,83.537,100.2,103.828,105.459,100.68,71.923,45.021,21.909,10.907,0.936,0,0,0,0,0,0,0,0,0,0,0,266.922,3895.36,5721.66,5734.65,5750.97,5775.62,5821.82,5853.67,5793.16,5738.25,5679.49,5613.27,5566.46,5513.97,5437.08,5326.65,5211.08,5186.9,5128.65,5056.69,4997.6,4998.23,5021.45,5049.43,5069.38,5091.89,5077.87,5066.25,5002.64,4988.41,4935.53,4875.18,4776.72,4672.33,4736.43,4920.99,4991.75,5043.4,5019.78,4902.08,4676.79,4354.76,3739.57,2899.42,1845.68,1061.55,252.706,89.572,16.961,0,0,0,0,0,0,0,0,0,0,0,0,0,0,0,0,0,0,0,0,0,0,0,0,0,0,0,0,0,0,0,0,0,0,0,0,0,0,0,0,0,0,0,0,0,0,0,0,0,0,0,0,0,0,0,0,0,0.78,0.781,0.781,0.779,0,0,0,0,0,0,0,0,0,0,0,0,0,0,0,0,0,0,0,0,0,0,0,0,0,0,0,0,0,0,0,0,0,0,0,0,0,0,0,0,0,0,0,0,0,0,0,0,0,0,0,0,0,0,0,0,0,0,0,0,0,0,0,0,0,0,0,0,0,0,0,0,0,0,0,0,0.477,0.476,0.474,0.473,0.471,0.469,0.467,0.465,0.463,0.463,0,0,0,0,0,0,0,0,0,0.465,0.94,0.942,1.444,1.898,2.377,3.306,4.268,5.218,4.738,5.204,4.236,3.296,3.283,3.75,4.701,5.187,4.269,3.796,4.279,2.84,3.782,2.353,2.373,2.375,2.378,2.39,1.912,0.966,0.483,0.482,0.481,0.481,0,0,0,0,0,0,0,0,0,0,0.51,2.489,3.48,5.452,6.455,8.899,8.394,8.392,7.395,4.423,2.958,2.469,1.485,0.491,0.492,2.666,5.286,10.507,33.561,56.464,84.407,119.604,139.088,324.952,578.255,1677.14,2327.02,2495.33,2491.9,2488.82,2485.94,2477.39,2467.44,2455.48,2446.82,2442.89,2439.06,2434.3,2427.02,2416.65,2413.32,2407.24,2400.78,2394.19,2386.62,2376.54,2366.45,1699.08,285.906,2.434,0,0,0,0,0,0,0,0,0,0,5.979,11.371,61.345,219.377,576.285,1219.14,2045.08,3098.4,3925.02,4377.95,4584.96,4772.54,4941.79,5139.23,5345.32,5478.9,5530.87,5638.69,5675.88,5715.02,5739.31,5767.29,5788.21,5803.16,5818.77,5839.03,5866.41,5892.9,5914.1,5939.85
0,0,1.755,3.574,5.403,8.063,6.273,8.026,4.474,1.795,0,0,0,0,0,0,0,0,0,0,0,0,0,0,0,0,0,0,0,0,0,0,0,0,0,0,0,0,0,0,0,0,0,0,0,0,0,0,0,0.932,5.542,16.73,26.996,54.865,82.622,100.221,104.725,106.357,101.577,72.818,45.932,21.913,10.91,0.936,0,0,0,0,0,0,0,0,0,0,0,1059.07,4509.13,5784.96,5796.87,5799.04,5820.2,5857.88,5890.17,5826.94,5771.36,5707.89,5641.93,5597,5547.54,5472.93,5358.36,5230.09,5212.75,5163.39,5093.44,5010.49,4971.24,4979.02,5011.37,5041.88,5058.71,5043.74,5032.62,4988.82,4932.59,4811.51,4691.43,4421.35,4231.46,4273.45,4452.68,4625.58,4792.45,4985.83,4832.07,4739.5,4247.18,3534.88,3289.9,2421.38,802.862,214.615,5.598,0,0,0,0,0,0,0,0,0,0,0,0,0,0,0,0,0,0,0,0,0,0,0,0,0,0,0,0,0,0,0,0,0,0,0,0,0,0,0,0,0,0,0,0,0,0,0,0,0,0,0,0,0,0,0,0,0,0,0,0,0,0,0.734,0,0,0,0,0,0,0,0,0,0,0,0,0,0,0,0,0,0,0,0,0,0,0,0,0,0,0,0,0,0,0,0,0,0,0,0,0,0,0,0,0,0,0,0,0,0,0,0,0,0,0,0,0,0,0,0,0,0,0,0,0,0,0,0,0,0,0,0,0,0,0,0,0,0,0,0,0,0.467,0.466,0.465,0.463,0.462,0.461,0.46,0.46,0,0,0,0,0,0,0,0,0,0.468,0.942,0.475,0.476,0.944,1.876,1.425,1.425,2.845,2.381,3.319,3.304,2.346,2.314,2.353,2.343,2.854,4.274,4.276,3.804,3.806,4.755,4.279,3.322,2.378,1.898,2.867,2.869,1.449,0.965,0.481,0.481,0.48,0,0,0,0,0,0,0,0,0,0,1,3.49,6.028,11.576,17.591,23.126,19.485,21.445,24.331,19.883,17.407,12.904,7.951,9.471,4.943,3.467,1.989,0.497,0,0,0,2.524,12.571,80.393,423.367,2069.35,2478.61,2492.19,2490.34,2488.65,2486.51,2479.06,2470.43,2459.06,2451.08,2447.35,2443.17,2437.96,2430.77,2419.27,2416.21,2411.03,2404.06,2396.71,2389.14,2382.24,2370.31,498.606,85.39,0,0,0,0,0,0,0,0,0,0,0,5.921,17.763,57.458,134.113,339.149,598.191,1089.19,1744.54,2383.91,3026.18,3509.99,3906.07,4258.05,4609.7,4871.12,5072.97,5166.8,5212.92,5291.47,5336.39,5382.25,5464.92,5515.22,5547.96,5618.17,5708.4,5779.34,5824.96,5867.92,5866
0,0,0,0,0,0,0,1.743,0.886,0,0,0,0,0,0,0,0,0,0,0,0,0,0,0,0,0,0,0,0,0,0,0,0,0,0,0,0,0,0,0,0,0,0,0,0,0,0,0,0,0.934,5.547,16.734,27.001,55.816,84.52,97.445,99.2,103.645,100.747,71.062,44.108,20.092,8.16,0.926,0,0,0,0,0,0,0,0,0,0,0,0,0,5894.45,5902.72,5900.86,5910.95,5941.25,5976.41,5912.68,5856.21,5792.54,5721.76,4898.16,3653.56,2916.25,2619.92,3171.16,3440.13,3712.59,3948.48,4074.26,4115.49,4063.13,4053.13,4258.99,4402.76,4576.13,4900.94,4887.66,4901.24,4856.57,4761.37,4793.56,4886.54,4923.96,4955.9,5148.44,5258,5317.56,5313.23,5226.88,5137.35,4865.84,4721.03,3122.56,1353.04,1153.77,533.045,88.143,0,0,0,0,0,0,0,0,0,0,0,0,0,0,0,0,0,0,0,0,0,0,0,0,0,0,0,0,0,0,0,0,0,0,0,0,0,0,0,0,0,0,0,0,0,0,0,0,0,0,0,0,0,0,0,0,0,0,0,0,0,0.732,0,0,0,0,0,0,0,0,0,0,0,0,0,0,0,0,0,0,0,0,0,0,0,0,0,0,0,0,0,0,0,0,0,0,0,0,0,0,0,0,0,0,0,0,0,0,0,0,0,0,0,0,0,0,0,0,0,0,0,0,0,0,0,0,0,0,0,0,0,0,0,0,0,0,0,0,0,0,0,0,0,0,0,0,0,0,0,0,0,0,0,0,0,0,0,0,0,0,0,0,0,0,0,1.439,1.423,0.476,0.479,1.439,1.923,1.439,1.428,2.389,0.967,1.445,1.929,1.917,2.399,2.406,2.406,1.927,2.896,2.897,1.449,0.965,0.481,0.481,0.48,0,0,0,0,0,0,0,0,0,0,1.505,4.502,7.553,15.682,29.792,41.891,45.843,58.398,59.291,55.2,45.547,41.945,34.908,28.337,16.369,4.915,1.48,0.984,0,0,0,0,0,0,0,0,822.695,2455.15,2489.51,2488.54,2486.93,2479.78,2471.74,2460.81,2453.63,2450.47,2446.12,2440.4,2433.34,2421.03,2417.45,2412.89,2405.7,2397.16,2388.99,2381.74,2358.29,997.443,168.175,11.907,0,0,0,0,0,0,0,0,0,0,0,0,0,0,0,0,5.65,22.747,57.711,73.592,136.62,134.257,162.86,139.584,129.978,124.127,123.784,135.187,128.984,179.8,199.274,377.375,485.624,571.074,746.141,955.177,1169.34,1491.79,1897.19,2451.81
0,0,0,0,0,0,0,0,0,0,0,0,0,0,0,0,0,0,0,0,0,0,0,0,0,0,0,0,0,0,0,0,0,0,0,0,0,0,0,0,0,0,0,0,0,0,0,0,0,0,0,0,0,0,0,0,0,0,0,0,0,0,0.882,0,0,0,0,0,0,0,0,0,0,0,0,0,0,1511.59,6023.36,6008.01,6008.92,6022.78,6056.17,6001.35,5953.17,5880.77,5810.59,824.845,0,0,0,0,0,0,0,0,0,0,0,0,0,0,0,0,0,0,0,0,0,0,0,0,0,0,0,0,0,0,0,0,0,0,0,0,0,0,0,0,0,0,0,0,0,0,0,0,0,0,0,0,0,0,0,0,0,0,0,0,0,0,0,0,0,0,0,0,0,0,0,0,0,0,0,0,0,0,0,0,0,0,0,0,0,0,0,0,0,0,0,0,0,0,0,0,0,0.732,0,0,0,0,0,0,0,0,0,0,0,0,0,0,0,0,0,0,0,0,0,0,0,0,0,0,0,0,0,0,0,0,0,0,0,0,0,0,0,0,0,0,0,0,0,0,0,0,0,0,0,0,0,0,0,0,0,0,0,0,0,0,0,0,0,0,0,0,0,0,0,0,0,0,0,0,0,0,0,0,0,0,0,0,0,0,0,0,0,0,0,0,0,0,0,0,0,0,0,0,0,0,0,0,0.491,0,0,0.49,0.49,0.974,1.467,0.979,0.974,1.456,1.94,1.923,1.925,1.933,1.933,1.933,1.935,0.96,0.966,0.482,0.482,0.481,0.48,0,0,0,0,0,0,0,0,0,0,1.017,2.531,7.081,15.75,28.898,38.498,45.465,57.542,58.848,56.228,48.054,41.916,38.331,37.242,29.743,25.708,19.243,13.764,3.924,0.484,0,0,0,0,0,0,17.361,1159.43,2486.99,2484.91,2486.42,2478.52,2471.05,2460.77,2454.61,2452.04,2448.06,2442.12,2435.32,2421.87,2418.67,2414.75,2407.3,2401.04,2391.29,2382.17,2369.03,1912.26,797.349,224.789,14.212,0,0,0,0,0,0,0,0,0,0,0,0,0,5.921,5.921,5.865,5.702,29.427,41.855,45.818,57.144,44.777,39.061,50.25,22.246,22.492,21.791,10.969,11.01,16.647,10.942,10.93,5.219,5.45,5.355,0,5.498,11.146,22.623
834.064,196.706,36.843,9.299,4.737,0,0,0,0,0,0,0,0,0,0,0,0,0,0,0,0,0,0,0,0,0,0,0,0,0,0,0,0,18.56,46.806,107.34,148.635,204.142,189.622,97.284,32.362,27.864,14.107,0,0,0,0,0,0,0,0,0,0,0,0,0,0,0,0,0,0,0,0,0,0,0,0,0,0,0,0,0,0,0,0,0,146.625,1878.88,6121.15,6093.62,6082.68,6081.66,6115.01,6061,6023.2,5968.21,5883.83,0,0,0,0,0,0,0,0,0,0,0,0,0,0,0,0,0,0,0,0,0,0,0,0,0,0,0,0,0,0,0,0,0,0,0,0,0,0,0,0,0,0,0,0,0,0,0,0,0,0,0,0,0,0,0,0,0,0,0,0,0,0,0,0,0,0,0,0,0,0,0,0,0,0,0,0,0,0,0,0,0,0,0,0,0,0,0,0,0,0,0,0,0,0,0,0,0,0,0.732,0,0,0,0,0,0,0,0,0,0,0,0,0,0,0,0,0,0,0,0,0,0,0,0,0,0,0,0,0,0,0,0,0,0,0,0,0,0,0,0,0,0,0,0,0,0,0,0,0,0,0,0,0,0,0,0,0,0,0,0,0,0,0,0,0,0,0,0,0,0,0,0,0,0,0,0,0,0,0,0,0,0,0,0,0,0,0,0,0,0,0,0,0,0,11.675,17.485,0,0,0,0,0,0,0,0,0,0,0.483,0.483,0.485,0.486,0.964,0.966,1.943,2.41,3.377,2.414,1.932,1.453,1.913,2.396,3.371,2.42,1.451,0.966,0.483,0.482,0.481,0,0,0,0,0,0,0,0,0,0,0.504,4.038,7.108,15.781,28.497,36.588,45.098,59.142,57.455,56.315,48.124,42.954,39.361,36.764,29.746,25.707,19.239,13.274,3.924,0.483,0,0,0,0,0,0,0,1479.75,2483.3,2484.83,2484.79,2476.13,2469,2459.75,2454.86,2452.4,2448.9,2443.35,2436.4,2422.54,2419.45,2416.35,2408.81,2402,2392.17,2383.43,2366.35,567.383,600.102,52.166,7.069,0,0,0,0,0,0,0,0,0,0,0,0,0,0,0,0,0,0,0,10.587,10.625,5.45,37.784,15.972,0,5.598,0,0,0,0,0,0,0,0,0,0,0,0,0
2337.88,1393.99,452.313,83.399,13.963,0,0,0,0,0,0,0,0,0,0,0,0,0,0,0,0,0,0,0,0,0,0,0,0,0,0,4.562,37.405,126.789,271.215,435.484,523.038,571.913,505.109,392.615,272.495,138.338,55.403,23.071,4.596,0,0,0,0,0,0,0,0,0,0,0,0,0,0,0,0,0,0,0,0,0,0,0,0,0,0,0,0,0,0,0,418.474,5293.85,6212.58,6165.58,6143.82,6130.91,6158.11,6104.67,6070.47,6012.61,5954.74,5854.88,5836.07,4918.66,3898.88,2368.28,764.696,421.705,407.517,224.371,240.059,315.881,304.217,787.146,44.192,32.342,436.684,355.318,95.537,124.86,171.44,208.655,501.996,803.526,1019.85,1301.23,1152.64,962.707,780.416,1134.74,1152.34,1198.86,1995.87,3137.69,3812.09,4505.41,4707.65,4724.23,4712.38,4583.24,4469.76,4466.03,4470.14,4466.42,4482.9,4599.2,4716.26,4762.43,4876.5,5110.7,5359.47,5634.37,5842.09,6088.73,6227.01,6386.41,6500.9,6609.7,6727.74,6815.5,6898.19,6863.99,6804.4,6817.64,6814.03,6805.01,6669.4,6493.75,6217.48,5993.89,5818.89,5687.05,5403.43,5053.84,4449.45,1844.41,51.437,0,0,0,0,0,0,0,0,0,0,0,0,0,0,0,0,0,0,0,0,0,0,0,0,0,0,0,0,0,0,0,0,0,0,0,0,0,0,0,0,0,0,0,0,0,0,0,0,0,0,0,0,0,0,0,0,0,0,0,0,0,0,0,0,0,0,0,0,0,0,0,0,0,0,0,0,0,0,0,0,0,0,0,0,0,0,0,0,0,0,0,0,0,0,0,0,0,0,0,0,0,0,0,0,0,0,0,0,0,0,0,0,0,0,0,0,0,0,29.611,11.62,0,0,0,0,0,0,0,0,0,0,0,0,0,0.973,0.495,0.495,0.496,0.961,0.96,0.96,0.964,1.433,0.964,0.964,1.448,0.971,0.97,0.485,0.485,0.485,0,0,0,0,0,0,0,0,0,0,0.517,1.525,7.136,13.808,27.03,40.183,44.14,56.717,59.944,56.844,46.078,41.939,36.881,36.293,29.242,26.196,19.736,13.266,3.924,0.483,0,0,0,0,0,0,0,787.574,2477.77,2480.66,2482,2473.07,2466.91,2458.47,2454.3,2452.7,2449.65,2443.85,2437.5,2422.77,2420.14,2417.69,2410.2,2403.15,2393.5,2385.57,2376.88,2336.34,1859.14,4.839,0,0,0,0,0,0,0,0,0,0,0,0,0,0,0,0,0,0,0,0,0,0,0,0,0,0,0,0,0,0,0,0,0,0,0,0,0,0,0,0
3731.91,2760.03,1684.71,455.019,84.399,14.104,4.737,4.737,0,0,0,0,0,0,0,0,0,0,0,0,0,0,0,0,0,0,0,0,0,0,4.562,46.881,241.193,433.909,682.27,841.743,924.49,957.203,874.96,664.151,517.791,354.87,170.332,82.557,23.176,9.029,4.63,0,0,0,0,0,0,0,0,0,0,0,0,0,0,0,0,0,0,0,0,0,0,0,0,0,0,0,12.386,194.737,527.533,6336.69,6294.39,6233.98,6203,6173.44,6198.99,6144.27,6099.95,6032.25,5986.79,5891,5881.9,5662.98,4373.62,2827.04,774.771,171.189,117.898,99.641,93.044,92.319,109.253,33.934,27.539,26.981,309.816,2161.94,1851.43,404.931,525.178,713.146,937.902,1327.12,1464.33,1537.1,1296.39,1392.77,1487.51,1641.1,1627.18,1862.37,2793.26,3354.76,3814.67,4475.7,4624.4,4686.43,4687.02,4654.32,4638.87,4617.83,4625.9,4614.24,4650.63,4746.59,4887.01,5062.38,5210.03,5440.1,5589.31,5755.68,5953.94,6179.9,6312.66,6433.38,6533.37,6636.56,6765.46,6837.6,6925.21,6953.57,6959.56,6980.93,6964.75,6934.43,6890.07,6843.2,6764.02,6692.15,6608.97,6552.3,6476.79,6422.18,6346.02,6287.34,6199.43,6186.1,6137.14,6101.69,5939.12,5762.76,5503.3,5293.08,5139.4,4957.52,4811.86,4536.54,4305.43,4081.75,3309.07,2547.82,1576.79,982.76,529.007,239.718,93.226,47.274,21.101,6.158,0,0,6.919,0,0,0,0,0,0,0,0,0,0,0,0,0,0,0,0,0,0,0,0,0,0,0,0,0,0,0,0,0,0,0,0,0,0,0,0,0,0,0,0,0,0,0,0,0,0,0,0,0,0,0,0,0,0,0,0,0,0,0,0,0,0,0,0,0,0,0,0,0,0,0,0,0,0,0,0,0,0,0,0,0,0,0,0,0,0,0,0,0,30.858,5039.47,5451.39,5177.08,5093.58,4649.08,2634.87,930.642,54.228,0,0,0,0,0,0,0,0,0,0,0,0,0,0,0,0,0.48,0.479,0.479,0.479,0,0,0,0,0,0,0,0,0,0,0,0,0,0,0,0,0,0.513,1.025,6.697,17.427,28.12,34.028,41.135,42.461,40.784,38.134,31.43,32.39,28.333,23.266,20.758,19.242,13.76,3.923,0.483,0,0,0,0,0,0,0,1070.62,2473.42,2477.34,2479.46,2471.01,2465.96,2458.01,2454.24,2452.7,2449.66,2444.23,2438.24,2422.94,2420.59,2418.25,2410.63,2403.79,2394.47,2387.47,2379.73,2341.33,1863.45,4.83,0,0,0,0,0,0,0,0,0,0,0,0,0,0,0,0,0,0,0,0,0,0,0,0,0,0,0,0,0,0,0,0,0,0,0,0,0,0,0,6.349
3845.36,3263.38,1510.73,936.625,287.029,61.87,23.759,9.439,4.737,0,0,0,0,0,0,0,0,0,0,0,0,0,0,0,0,0,0,0,0,4.596,33.025,241.249,554.828,743.547,951.498,1179.78,1303.18,1386.67,1143.42,948.874,816.451,578.876,345.859,221.643,105.854,55.766,9.331,4.63,0,0,0,0,0,0,0,0,0,0,0,0,0,0,0,0,0,0,0,0,0,0,0,0,0,0,87.988,2023.76,205.253,6424.83,6356.77,6286.61,6251.35,6212.52,6235.08,6171.79,6118.58,6052.58,6018.61,5422.35,5255.65,5156.6,4207.43,2325.94,634.017,126.141,31.144,30.811,30.626,30.028,17.771,28.149,27.739,38.317,346.387,846.107,1531.12,1673.79,1028.43,1029.54,1090.42,1105.35,1126.4,1256.74,1313.45,1435.71,1240.18,1084.68,1365.48,2206.23,2795.41,2946.92,3226.73,3980.75,4229.52,4339.93,4290.25,4309.69,4305.42,4325.23,4344.84,4392.63,4455.38,4582.4,4737.97,4908.59,5009.91,5212.5,5369.34,5487.05,5718.06,5981.1,6142.35,6315.65,6441.58,6513.87,6656.06,6731.75,6841.69,6879.36,6885.67,6955.9,6919.21,6900.33,6852.31,6799.93,6699.88,6622.34,6548.45,6514.47,6448.5,6360.2,6362.78,6353.14,6333.65,6341.1,6356.7,6290.27,6260.18,6141.76,6034.84,5887.65,5842.56,5737.63,5655.65,5589.76,5557.27,5486.13,5396.61,5283.83,4968.62,4721.4,4645.94,4521.89,4492.44,4502.73,4513.31,4433.85,4295.24,4262.26,4238.67,4266.85,4276.93,3987.46,3693.38,3455.44,3394.05,3177.4,3154.39,2965.61,3098.9,3431.75,3700.8,3934.02,3864,4122.42,4526.29,4873.34,5102.26,5383.47,5484.23,5202.15,5150.99,4972.22,5069.67,5067.74,5115.53,4822.02,4956.53,5138.07,5122.76,5089.65,5115.61,4878.37,4652.28,4565.42,4470.37,4365.32,4337.31,4294.85,4408.66,4659.37,4779.28,4898.32,5130.19,5458.07,5913.77,6446.76,6636.02,6731.73,6673.58,6561.81,6489.48,6476.57,6634.83,6571.9,6212.24,5738.5,4952.37,3043.44,971.906,181.899,70.592,52.217,9,9,35.436,35.673,26.436,17.925,26.211,9,17.103,0,0,0,0,9,0,23.19,49.115,121.761,303.021,809.111,2101.99,2015.31,2075.04,3914.75,5454.22,6297.14,6156.61,6060.65,5942.79,5827.38,5773.57,5700.27,5323.52,4665.62,5888.24,2061.55,0,0,0,0,0,0,0,0,0,0,0,0,0,0,0,0,0,0,0,0,0,0,0,0,0,0,0,0,0,0,0,0,0,0,0,0,0.513,0.514,4.129,8.256,17.96,26.521,39.619,42.476,43.389,36.628,34.984,30.352,25.818,22.788,19.244,15.29,12.777,3.42,0.483,0,0,0,0,0,0,0,12.277,2470.36,2475.09,2477.69,2469.25,2464.72,2457.08,2453.35,2451.68,2449.31,2444.29,2438.73,2423.48,2421.45,2419.33,2412.56,2406.51,2397.45,2391.12,2384.42,2373.7,2364.54,216.582,11.88,0,0,0,0,0,0,0,0,0,0,0,0,0,0,0,0,0,0,0,0,0,0,0,0,0,0,0,0,0,0,0,0,0,0,0,0,0,0,0
3807.2,2556.23,2130.99,1190.32,653.204,234.486,125.239,48.283,4.774,4.774,0,0,0,0,0,0,0,0,0,0,0,0,0,0,0,0,0,0,0,9.297,66.461,375.102,738.603,1165.18,1169.26,1318.71,1418.57,1505.24,1144.98,863.616,852.858,703.306,470.205,274.549,135.397,52.042,23.845,9.163,0,0,0,0,0,0,0,0,0,0,0,0,0,0,0,0,0,0,0,0,0,0,0,0,0,0,584.003,960.962,110.345,6464.97,6397.66,6327.65,6291.54,6240.72,6266.18,6191.95,6135.33,6069.62,6036.33,5772.93,5618.45,5619.52,5197.26,3944.73,3028.15,2352.68,2113.47,1885.31,1891.05,1320.39,1204.93,1717.51,2055.65,2140.93,2413.11,2589.9,2763.32,2976.95,3115.29,3184.36,3227.42,3191.7,3247.92,3321.13,3448.25,3531.36,3453.2,3621.48,3847.93,4050.79,4205.5,4243.13,4287.8,4383.74,4509.41,4637.72,4669.07,4663.05,4706.77,4719.75,4673.79,4686.22,4716.8,4811.08,4975.02,5202.39,5284.93,5456.63,5621.26,5819.07,5996.01,6196.44,6358.13,6473.85,6566.33,6662.87,6806.71,6887.9,7004.68,7012.94,7021.63,7080.73,7044.85,7024.56,6969.31,6915.23,6847.79,6780.07,6718.25,6665.82,6584.43,6527.95,6486.02,6479.11,6491.19,6546.03,6581.99,6598.61,6578.56,6549.18,6517.8,6525.34,6498.56,6444.06,6378.15,6290,6288.98,6245.4,6191.32,6140.18,6029.63,5842.51,5721.17,5712.27,5718.63,5745.95,5857.51,5829.66,5890.69,5919.5,6064.7,6133.86,6161.74,6143.54,6136.8,6191.28,6358.57,6343.02,6440,6016.16,5870.8,6066.53,6199.79,6283.12,6648.94,7205.56,7145.76,7228.08,7588.96,7634.47,7480.07,7424.24,7363.83,7239.12,7234.57,7245.23,7119.43,6964.31,6844.69,6848.8,6857.97,6894.04,6835.95,6861.91,6784.62,6709.27,6677.65,6757.66,6709.6,6679.69,6802.58,7075.2,7233.53,7370.31,7503.36,7610.44,7726.79,7784.91,7867.42,7925.12,7986.65,8019.01,8069.71,8134.18,8185.9,8230.14,8263.62,8298.55,8330,8365.56,8382.66,8396.42,8406.97,8426.46,8427.82,8436.16,8427.43,8404.51,8391.52,8318.08,8264.97,8225.75,8144.94,8099.92,8027.98,7948.33,7918.22,7894.6,7886.7,7882.83,7879.43,7829.31,7783.31,7715.56,7639.06,7376.52,7024.93,6773.85,6361.29,6416.63,6253.85,6107.79,5980.02,5874.29,5824.73,5829.13,5859.5,5964.64,6083.86,6203.74,6318.31,6465.02,6583.16,6699.92,6815.88,4838.66,1473.2,230.565,207.772,265.572,198.951,383.713,830.62,1242.14,1384.37,992.244,549.172,97.865,28.854,6.694,6.694,13.388,38.691,448.36,1596.44,2884.65,4800.47,4181.36,4416.13,5458.04,5689.48,5103.18,5475,3398.75,1404.4,295.857,63.023,6.097,6.037,6.097,0,2.035,3.535,5.039,5.041,5.049,5.017,4.503,2.496,0.506,0.998,0.499,1.486,1.47,0.483,0,0,0,0,0,0,0,2388.89,2468.72,2473.54,2476.76,2467.6,2462.95,2455.83,2452.04,2450.21,2447.73,2443.23,2438.2,2422.49,2420.76,2419.22,2412.82,2407.9,2399.02,2393.47,2387.5,2376.25,2379.29,7.226,4.839,4.858,2.424,0,0,0,0,0,0,0,0,0,0,0,0,0,0,0,0,0,0,0,0,0,0,0,0,0,0,0,0,0,0,0,0,0,0,0,0,0
2880.21,2751.68,2361.4,1571.37,728.262,658.696,249.285,83.12,24.337,4.811,4.811,0,0,0,0,0,0,0,0,0,0,0,0,0,0,0,0,0,0,9.297,56.977,209.43,678.801,1079.17,1354.45,1140.08,993.78,1013.88,780.241,602.509,636.004,547.617,404.463,212.656,95.152,18.678,4.495,0,0,0,0,0,0,0,0,0,0,0,0,0,0,0,0,0,0,0,0,0,0,0,0,0,0,159.98,352.387,76.452,123.242,6471.57,6412.41,6348.35,6312.85,6259.11,6281.52,6204.93,6144.97,6077.51,6045.22,4975.46,4477.13,4533.58,4417.71,3575.59,2674,2336.04,2037.33,1822.92,993.07,566.663,1297.59,1792.92,1950.95,1928.53,2170.13,2234.96,2436.24,2620.51,2790,2889.85,2903.1,2860.22,2873.8,2986.37,3086.34,3085.83,3084.57,3194.67,3496.59,3798.96,4000.78,4145.84,4111.38,4328.46,4414.57,4562.58,4572.44,4444.67,4370.12,4427.01,4395.89,4454.11,4471.14,4605.45,4755.54,4995.31,5145.17,5309.77,5567.75,5751.11,5956.8,6140.35,6308.38,6409.64,6450.58,6643.53,6837.93,6904.68,6969.43,6847.6,6915.08,7012.84,7019.87,7014.17,6947.23,6898.46,6841,6772.33,6622.15,6573.2,6419.12,6390.72,6412.85,6493.93,6511.29,6596.43,6614.66,6631.7,6607.71,6516.99,6535.83,6523.59,6496.63,6511.63,6463.8,6368.55,6327.35,6301.36,6263.07,6242.42,6085.16,5907.12,5683.49,5590.65,5566.11,5614.3,5720.82,5713.79,5764.51,5901.93,6014.75,6084.68,6139.78,6190.25,6258.51,6433.52,6548.47,6683.62,6841.02,6576.98,6525.08,6565.68,6466.55,7001.31,7159.17,7364.03,7361.9,7503.51,7506.66,7584.02,7581.31,7526.06,7424.94,7315.33,7260.91,7266.9,7148.46,7029.24,6954.35,6944.5,6908.92,6877.18,6812.39,6706.5,6817.46,6679.89,6606.28,6696.12,6708.21,6755.87,6847.31,7041.05,7221.11,7326.25,7438.86,7591.23,7763.69,7856.23,7892.57,7939.4,8002.18,8042.45,8085.27,8136.31,8196.15,8244.54,8283.95,8316.68,8342.95,8348.43,8349.76,8361.48,8374.05,8369.53,8381.98,8386.71,8389.93,8371.24,8347.96,8297.54,8245.72,8186.78,8104.77,8010.95,7932.21,7855.96,7781.96,7788.22,7792.08,7803.02,7776.35,7786.37,7777.52,7757.65,7685.16,7505.1,7194.27,6941.54,6167.13,6376.6,6308.4,6145.78,6003.85,5892.51,5832.19,5834.07,5872.98,5981.04,6099.42,6241.69,6347.48,6498.81,6652.15,6851.8,7087.13,7303.59,7380.46,7447.04,7505.83,7564.78,7554.82,7596.55,7654.85,7685.57,7672.65,7666.57,7668.15,7670.34,7639.41,7574.97,7583.95,7614.65,7607.12,7579.7,7561.35,7534.35,7497.1,7471.22,7454.55,7407.34,7372.1,7326.02,7281.2,7229.05,7178.3,7135.7,7060.47,6976.49,6928.06,6883.43,6756.56,5929.06,3640.69,2695.38,1393.99,1477,2265.36,3585.12,4896,4195.32,2042.64,208.929,12.971,0,0,0,0,0,0,2.577,1532.08,2411.86,2464.27,2467.14,2472.13,2475.78,2466.15,2461.09,2454.21,2450.13,2448,2445.73,2442.06,2437.62,2421.67,2420.35,2419.1,2413.06,2408.77,2400.79,2396.01,2389.89,2377.28,2383.48,503.622,2.378,2.434,0,27.546,68.027,156.28,287.678,486.893,668.188,947.054,1732.87,1525.98,2239.43,3016.51,3691.1,3759.44,3386.49,3418.3,3470.71,3650.37,4001.73,4232.72,4647.78,5079.67,5519.69,5771.7,5462.42,4739.1,4064.53,3803.73,3552.02,3010.57,2550.31,2630,3371.12,4527.95,4434.57,4504.13,4790.67,4735.39
3433.57,2963.15,2479.3,1913.27,1266.47,800.255,440.028,150.801,70.438,45.002,0,0,0,0,0,0,0,0,0,0,0,0,0,0,0,0,0,0,0,4.596,19.031,110.607,605.736,1021.44,1159.29,1452.89,767.545,487.778,335.72,508.267,540.447,434.386,267.326,124.504,67.496,4.528,4.562,0,0,0,0,0,0,0,0,0,0,0,0,0,0,0,0,0,0,0,0,0,0,0,0,4.562,10.88,126.472,42.4,19.115,193.685,6485.09,6424.15,6362.12,6324.99,6271.35,6291.61,6217.02,6159.97,6096.54,6071.65,3678.13,3186.52,3310.45,3405.76,3324.92,2867.96,2321.55,2316.61,1596.27,1009.02,1025.08,1529.08,1999.49,1995.9,1909.08,2344.79,2557.97,2651.27,2840.53,2943.97,3033.18,3005.48,2934.63,3123.49,3122.78,2947.48,2952.66,2922.91,2987.19,3068.25,3367.83,3870.45,4046.72,4170.44,4256.31,4402.38,4546.87,4291.53,3924.49,3723.09,3477.24,3500.02,3460.32,3852.4,3878.57,4211.74,4406.29,4718.7,5225.96,5423.01,5809.82,5880.73,6102.13,6067.41,6072.99,6320.83,6738.07,6812.23,6736.37,6758.09,6503.16,6675.24,6598.84,6599.75,6784.5,6917.56,6952.08,6807.27,6387.39,6107.99,6289.21,6259,6240.1,6366.12,6400.56,6456.13,6566.22,6601.5,6628.57,6539.24,6391.05,6229.36,6277.38,6257.7,6262.81,6174.6,6152.51,6161.74,6219.28,6269.06,6244.66,6059.62,5765.62,5630.77,5473.7,5296.83,5341.17,5516.22,5614.05,5740.26,5872.55,5987.53,6161.69,6185.5,6260.66,6326.15,6506.46,6670.7,6826.91,7017.19,6846.09,6819.34,6853.92,7172.12,7348.05,7311.05,7482.89,7562.9,7542.09,7498.28,7637.19,7607.79,7591.33,7531.73,7406.8,7350.01,7308.78,7209.21,7079.76,6924.71,6947.94,6928.81,6903.07,6880.5,6808,6727.49,6809.23,6662.02,6531.42,6813.89,6843.65,6878.03,7049.22,7243.94,7346.21,7521.44,7644.24,7804.43,7865.34,7908.31,7979.07,8013.77,8052.07,8092.12,8150.86,8195.13,8235.16,8261.47,8299.76,8321.75,8324.25,8329.89,8328.63,8337.77,8343.84,8349.13,8362.6,8366.33,8344.77,8321.5,8287.54,8236.19,8192.91,8116.1,8058.89,7963.73,7880.95,7829.3,7844.57,7847.29,7820.97,7809.71,7799.59,7760.22,7758.9,7704.3,7518.5,7274.91,6991.67,6644.6,6507.62,6334.7,6172.66,6034.75,5911.41,5846.17,5841.08,5868.04,5984.65,6112.34,6257.22,6377.44,6531.63,6685.84,6889.27,7129.75,7348.87,7429.8,7489.24,7553.56,7605.22,7645.18,7674.28,7696.82,7701.14,7692.64,7682.3,7674.86,7664.8,7652.13,7629.13,7604.84,7593.4,7582.82,7563.61,7537.79,7516.43,7481.27,7454.9,7436.11,7401.88,7361.25,7318.69,7275.72,7226.03,7176.98,7134.21,7072.21,7016.03,6980.58,6943.43,6912.5,6882.75,6849.72,6740.5,6067.1,6559.7,6660.05,6696.94,6646.98,6600.77,6523.16,6215.58,5416.06,3166.65,76.654,0,0,0,0,5.07,1454.27,2410.21,2461.66,2463.94,2468.26,2472.23,2462.67,2457.73,2451.12,2446.69,2444.3,2443.03,2439.89,2436.07,2420.32,2418.88,2418.19,2412.64,2409.55,2401.83,2397.86,2391.59,2379.1,2385.91,217.503,12.046,4.849,257.922,4924.01,6289.41,6561.46,6680.67,6677.78,6703.79,6759.33,6767.62,6793.25,6806.73,6815.39,6841.07,6878.63,6915.48,6977.07,7033.53,7065.3,7084.4,7093.56,7086.39,7060.62,7041.76,7025.04,7000.8,6973.47,6943.65,6916.29,6895.67,6893.9,6912.61,6926,6927.19,6912,6862.26,6807.58,6745.39,6687.47
4435.02,4376.29,4201.04,3906.72,3258.55,2402,1660.48,1381.55,669.236,305.672,87.052,10.178,0,0,0,0,0,0,0,0,0,0,0,0,0,0,0,0,0,0,81.999,410.906,852.53,1261.32,1461.07,1684.79,1859.79,1383.77,1010.85,971.151,984.204,635.154,412.401,264.114,124.872,33.63,9.522,4.926,0,0,0,0,0,0,0,0,0,0,0,0,0,0,0,0,0,0,0,0,0,0,14.722,230.186,666.846,299.659,48.724,340.662,806.057,6470.56,6413.39,6353.74,6325.6,6267.58,6288.95,6225.14,6172.96,6122.36,6111.23,3230.43,2380.46,2511.03,2729.93,2894.41,2992.18,2947.51,2702.04,2373.85,2013.94,1865.95,2051.97,2332.23,2367.86,2364.94,3037.4,3130.56,3066.24,2992.69,2926.7,3002.68,3311.98,3458.21,3359.51,3179.63,3122.42,3161.71,3107.78,3155.87,3291.56,3656.46,3935.83,4025.42,4006.76,4318.05,4259.23,4215.29,3916.51,3517.01,3122.57,2898.97,2861.89,3068.65,3215.52,3324.88,3346.19,3628.4,4133.29,4432.93,5052.37,5308.34,5290.15,5250.86,5223.59,5678.38,6089.89,6391.75,6430.14,6300.03,6286.84,5687.58,5648.85,5621.78,5777.2,5874.63,6262.33,6327.4,6034.86,5479.66,4995.53,5268.27,5538.19,5773.05,5691.69,5750.06,5810.37,5902.58,6159.18,6204.96,6113.72,6006.71,5749.37,5504.47,5475.68,5522.67,5655.75,5796.88,5913.29,6089.96,6180.83,6231.83,6206.67,5986.42,5871.37,5660.9,5440.4,5505.63,5673.93,5942.38,6234.49,6482.87,6629.87,6830.48,6844.17,6848.39,6937.38,7135.69,7231.46,7354.77,7461.17,7470.67,7464.01,7673.31,7741.39,7770.21,7728.8,7762.82,7761.44,7726.42,7756.05,7742.74,7637.57,7615.69,7548.78,7458.23,7387.64,7307.85,7223.38,7095.93,7013.48,7043.67,7035.84,7058.06,7060.88,7051.8,7076.03,7036.92,7140.46,7146.13,7190.4,7227.54,7251.47,7381.07,7511.5,7620.34,7679.83,7773.91,7836.81,7877.57,7933.88,7983.3,8040.51,8077.41,8114.53,8142.07,8164.35,8215.36,8239.78,8267.74,8297.71,8294.04,8294.86,8298.28,8304.01,8321.28,8312.55,8327.7,8321.44,8301.34,8288.22,8262.01,8202.78,8159.27,8101.32,8039.85,7985.99,7882.86,7861.69,7829.99,7810.42,7808.45,7806.83,7787.98,7766.32,7754,7701.71,7554.67,7298.8,7024.06,6772.29,6566.31,6398.46,6224.75,6071.57,5936.72,5858.47,5847.66,5880.52,6009.19,6138.52,6286.25,6405.92,6560.36,6718.44,6920.03,7164.31,7387.43,7465.77,7520.11,7574.47,7620.38,7656.27,7682.45,7700.26,7700.99,7698.17,7675.42,7669.98,7653.41,7639.12,7614.69,7593.48,7570,7554.95,7536.35,7516.48,7488.45,7454.28,7426.34,7417.53,7383.05,7348.9,7310.4,7271.9,7227.57,7183.28,7144.39,7085.83,7032.52,6994.71,6956.89,6925.43,6895.22,6866.86,6834.46,6803.7,6784.38,6749.05,6711.38,6664.09,6613.46,6575.44,6520.81,6302.19,5301.64,3328.04,69.815,0,0,0,2.577,39.276,2140.93,2447.8,2461.79,2465.77,2469.94,2461.03,2455.57,2449.16,2444.53,2441.65,2440.6,2438.28,2435.12,2419.53,2418.27,2418.27,2413.17,2411.89,2405.13,2402.31,2396.44,2382.54,2390.88,366.49,7.218,538.707,5812.99,6590.48,6715.87,6725.19,6722.1,6743.97,6747.46,6730.53,6745.55,6772.53,6788.81,6802.83,6833.79,6872.17,6912.16,6962.84,7022.13,7056.75,7078.6,7088.86,7083.35,7060.71,7046.33,7034.32,7018,6994.36,6967.29,6939.96,6920.82,6918.24,6936.68,6950.46,6955.63,6940.01,6896.82,6849.23,6796.01,6740.59
5001.19,5030.28,5042.25,5064.23,5023.06,4935.56,4640.73,3973.01,3065.03,1510.51,530.682,176.854,25.923,47.073,15.443,0,0,0,0,0,0,0,0,0,0,0,0,0,0,0,14.324,179.463,482.655,832.813,1153.11,1353.21,1453.42,1469.56,1351.01,1140.78,830.667,584.274,356.071,192.322,101.357,33.856,24.919,4.966,0,0,0,0,0,0,0,0,0,0,0,0,0,0,0,0,0,0,0,22.299,85.154,717.798,2201.78,3242.94,1403.69,1236.08,1422.06,3321.72,4335.02,6441.84,6393.18,6339.99,6316.89,6249.87,6273.65,6224.12,6180.39,6145.32,6131.04,3282.51,2473.34,2665.56,2904.18,3131.1,3098.44,3012.4,2908.4,2939.64,2778.08,2559.36,2415.29,2384.1,2513.86,2633.33,3037.91,2988.71,2932.14,2800.75,2704.49,2748.9,2993.27,3196,3045.41,3087.18,3140.76,3190.8,3037.62,3083.03,3274.38,3568.91,3761.77,3677.48,3745.82,3982.53,4026.36,3929.98,3525.15,3131.82,2827.56,2724.15,2769.28,2729.92,2816.25,2759.03,2841.13,3110.69,3477.9,3918.81,4242.61,4353.18,4183.71,4174.63,4572.37,5400.13,5247.98,5351.5,5395.06,5319.34,5378.37,4410.56,4335.62,4516.61,4588.16,4789.24,4825.42,5040.48,4721.8,4214.07,4046.58,4330.92,4475.12,4686.24,5142.34,5312.62,5280.58,5220.23,5428.09,5786.77,5749.57,5753.01,5722.01,5443.73,5269.99,5446.21,5657.85,5935.45,6079.99,6210.97,6469.66,6500.27,6543.88,6593.95,6585.99,6553.87,6523.03,6561.75,6711.74,6914.97,7103.3,7215.38,7280.69,7339.88,7375.2,7396.67,7468.15,7511.2,7568.67,7626.85,7690.5,7702.7,7739.5,7812.05,7842.73,7846.96,7810.39,7798.3,7762.21,7799.24,7784.57,7755.42,7697.37,7601.18,7524.76,7450.75,7347.36,7281.55,7139.8,7027.79,6905.52,6924.62,6957.25,7041.4,7046.3,7067.7,7099.07,7096.85,7089.99,7209.02,7146.31,7099.85,7237.77,7408.74,7554.2,7637.42,7689.83,7791.31,7862.89,7897.43,7950.49,8011.37,8043.85,8067.92,8083.37,8135.48,8167.57,8203.99,8237.05,8262.62,8278.26,8282.19,8279.44,8283.46,8278.39,8282.69,8269.08,8283.12,8275.36,8259.83,8237.54,8209.41,8126.14,8084.45,8026.46,7979.15,7920.12,7843.11,7814.36,7801.34,7793.91,7793.95,7773.48,7743.71,7756.51,7757.23,7738.17,7639.18,7386.34,7118.97,6854.9,6650.82,6469.9,6290.3,6125.24,5976.94,5885.05,5861.46,5895.55,6027.34,6168.35,6321.61,6449.43,6604.51,6769.67,6957.24,7201.38,7418.78,7489.13,7536.35,7584.66,7627.14,7653.99,7674.5,7681.64,7686.16,7678.69,7654.36,7644.72,7624.2,7608.03,7580.82,7550.55,7530.23,7513.69,7500.35,7469.05,7443.3,7417.69,7399.37,7389.34,7359.46,7329.57,7297.83,7265.83,7225.27,7185.4,7150.23,7098.39,7044.58,7009.44,6973.69,6941.28,6911.42,6884.92,6857.85,6830.2,6810.65,6779.02,6743.14,6699.65,6648.21,6610.6,6576.5,6482.23,6202.12,5358.45,2324.07,0,4.337,4.871,7.437,7.395,400.572,2428.68,2461.89,2464.86,2469.33,2460.25,2454.67,2448.08,2442.94,2439.57,2438.71,2436.78,2434.33,2419.19,2417.72,2418,2413.1,2412.73,2407.6,2405.62,2399.55,2385.65,2394.28,43.276,120.234,5686.86,6645.61,6687.49,6702.63,6715.85,6709.65,6721.13,6718.78,6702.91,6724.13,6740.85,6758,6776.69,6809.13,6850.46,6890.66,6942.93,7003.72,7040.42,7063.74,7075.88,7074.89,7055.49,7044.02,7035.02,7023.78,7003.15,6975.85,6951.29,6934.68,6934.35,6952.12,6965.64,6972.55,6962.85,6925.63,6886.17,6837.98,6784.11
5152.66,5176.96,5207.16,5235.69,5258.49,5273.81,5286.11,5286.39,5106.73,4598.47,2121.94,973.468,1018.02,669.816,1224.55,998.532,403.078,127.689,15.745,0,0,0,0,0,0,0,0,0,0,0,0,38.539,165.715,392.559,679.145,883.21,966.858,959.415,893.869,699.666,495.761,319.77,198.409,82.334,34.111,14.644,5.007,0,0,0,0,0,0,0,0,0,0,0,0,0,0,0,0,45.781,365.474,956.036,3018.03,4163.7,5088.33,5718.42,5740.28,5393.69,5246.92,5276.73,5225.2,6178.5,6407.31,6396.49,6362.38,6315.59,6293.61,6223.58,6251.26,6212.05,6179.33,6155.01,6173.75,2901.85,2507.76,2484.37,2632.55,2663.31,2644.44,2526.91,2665.33,2783.63,2738.12,2510.82,2366.98,2203.52,2184.75,2166.72,2524.94,2445.67,2281.91,2154.5,2166.68,2231.23,2307.02,2203.34,2392.59,2561.79,2573.29,2581.26,2517.04,2566.24,2696.7,2911.37,3055.78,3047.31,3038.59,3193.49,3195.61,3202.92,2871.73,2447.58,2220.67,2158.03,2131.07,2156.27,2062.16,2217.32,2387.23,2576.3,2855.86,3107.07,3137.35,2992.78,2911.43,3295.41,4043.05,4180.85,3652.97,3861.1,4085.14,3918.85,3771.12,3000.36,3076.1,3254.22,3441.71,3352.83,3199.3,3130.46,3128.73,3083.1,2864.31,3197.67,3189.95,3539.23,4032.8,4434.08,4554.32,4510.77,4614.35,4950.79,5356.75,5584.23,5638.38,5722.24,5569.33,5629,5836.17,6079.92,6298.36,6610.06,6765.13,6685.75,6705.03,6855.45,6963.17,7052.36,7104.87,7168.89,7265.25,7379.05,7424.35,7471.96,7501,7536.93,7492.5,7508.3,7534.54,7533.46,7573.35,7637.49,7635.89,7685.53,7707.61,7742.71,7763.57,7794.99,7738.39,7706.81,7678.07,7690.63,7674.25,7658.23,7562.62,7511.97,7389.25,7344.67,7291.04,7206.23,7073.19,6920.19,6813.79,6849,6950.98,7006.32,7059.64,7075.12,7053.88,7089.88,7134.28,7117.41,7224.73,7251.68,7324.22,7447.45,7578.13,7618.1,7684.32,7741.73,7807.65,7852.22,7889.89,7932.99,7971.65,8027.44,8063.28,8100.87,8130.41,8159.79,8182.33,8194.05,8231.38,8236.21,8232.65,8229.98,8209.06,8196.82,8173.29,8149.13,8166.2,8158.99,8117.9,8081.06,8026.78,7998.94,7928.45,7900.92,7837.42,7770.98,7746.61,7745.54,7758.87,7764.55,7744.47,7751.44,7733.42,7768.5,7763,7657.11,7412.29,7160.48,6904.69,6691.67,6520,6334.9,6169.46,6016.15,5911.94,5879.63,5901.22,6040.38,6188.77,6352.47,6498.73,6660.2,6832.1,7031.03,7275.31,7475.98,7529.21,7564.12,7599.35,7623.35,7641.43,7656.26,7656.52,7652.41,7639.27,7624.95,7606.71,7583.22,7563.52,7535.18,7512.5,7492.43,7477.45,7457.1,7436.04,7417.43,7394.04,7371.41,7360.48,7337.52,7314.59,7288.06,7258.35,7223.51,7186.16,7153.35,7108.2,7059.02,7024.12,6990.35,6959.02,6931.6,6905.04,6878.71,6858.58,6838.69,6800.35,6765.15,6728.02,6677.34,6634.53,6605.96,6560.8,6387.08,6012.52,4845.73,1045.52,2.378,2.378,2.378,9.829,182.115,2440.98,2463.64,2465.75,2470.15,2461.6,2455.25,2447.75,2441.55,2437.9,2437,2435.7,2433.72,2419.03,2417.22,2417.63,2413.3,2413.67,2409.71,2407.9,2402.03,2388.25,2394.03,21.67,3910.3,6163.71,6614.77,6686.18,6697.57,6697.1,6688.42,6701.55,6700.4,6686.1,6704.05,6717.97,6732.16,6752.02,6783.92,6825.11,6868.73,6916.19,6975.3,7013.75,7040.8,7057.53,7059.64,7045.04,7032.71,7028.46,7018.35,7003.31,6978.64,6955.75,6941.11,6940.67,6958.07,6972.33,6981.86,6976.46,6948.29,6916.03,6869.49,6815.37
5249.11,5271.01,5285.63,5295.74,5306.96,5308.93,5314.83,5312.02,5234.88,3851.52,2515.79,1362.32,748.339,746.986,505.53,901.832,913.409,1490.46,790.731,269.877,86.341,0,0,0,0,0,0,0,0,0,0,4.849,68.973,152.878,327.073,496.017,564.889,578.477,503.254,339.093,108.542,19.418,4.701,5.132,5.089,0,0,0,0,0,0,0,0,0,0,0,0,0,0,0,0,22.758,238.495,634.479,1391.94,4004.3,5104.25,5735.4,5883.35,5920.67,5946.47,6040.35,6087.2,6152.92,6302.34,6352.3,6378.79,6357.17,6320.07,6280.35,6248.42,6186.46,6221.48,6195.82,6172.48,6161.67,6197.32,2821.78,2516.19,2644.07,2593,2616.64,2524.84,2664.01,2754.62,2857.06,2831.61,2630.01,2538.36,2417.39,2174.11,1989.82,2252.05,2143.04,2032.82,1980.19,2089.84,2118.9,1997.13,1969.98,2156.79,2330.23,2352.74,2365.18,2391.34,2418.27,2542.43,2708.35,2853.68,2846.36,2757.78,2854.27,2881.91,2791.33,2402.77,2125.98,1931.18,1790.94,1856.34,1846.17,1980.78,2089.97,2198.7,2468.11,2588.21,2477.72,2309.7,2256.43,2473.48,3133.8,3261.48,3220.76,2912.81,3258.3,3249.54,2928.9,2759.21,2137.4,2351.44,2572.71,2529.5,2357.69,2206.62,2232.71,2167.39,2256.43,2292.2,2409.86,2455.49,2737.67,3110.37,3579.36,3847.57,4035.45,4235.58,4513.34,4948.95,5460.06,5620.29,5737.91,5901.1,6105.62,6444.98,6665.46,6735.31,6870.45,6957.03,7010.05,7096.49,7160.87,7245.73,7349.69,7356.87,7425.33,7500.3,7531.73,7534.66,7567.68,7593.52,7601.05,7576.85,7561.27,7565.2,7582.79,7592.83,7623.69,7650.87,7636,7656.08,7696.52,7729.42,7703.41,7672.03,7637.63,7587.34,7616.26,7578.36,7526.83,7427.33,7369.3,7215.03,6957.6,7029.57,6966,6877.35,6726.57,6665.04,6694.96,6759.1,6862.84,6920.82,6878.51,6923.82,6908.21,6981.81,7008.88,7050.15,7199.33,7269.41,7413.61,7514.37,7538.03,7521.42,7607.51,7739.55,7762.64,7821.18,7849.9,7870.85,7916,7959.43,8010.31,8086.13,8119.46,8139.09,8156.48,8168.12,8205.62,8198.89,8184.81,8166.14,8159.22,8152.22,8111.73,8078.77,8057.92,8049.66,8021.81,7973.19,7943.35,7893.67,7882.66,7826.02,7758.79,7737.16,7735.85,7753.39,7744.21,7738.87,7707.92,7740.93,7773.63,7755.63,7654.62,7431.32,7212.82,6966.23,6758.75,6575.27,6389.17,6221.31,6061.05,5947.16,5909.48,5924.32,6067.62,6219.41,6388.64,6533.7,6713.83,6899.36,7098.92,7343.21,7531.52,7579.29,7605.43,7628.23,7640.79,7638.73,7638.71,7636.87,7622.6,7603.51,7581.59,7558.9,7528.94,7508.16,7477.84,7450.8,7428.84,7412.71,7395.4,7376.53,7360.5,7336.69,7317.66,7315.32,7299.04,7283.06,7269.11,7248.41,7211.44,7181.53,7162.87,7114.67,7072.75,7046.84,7013.77,6975.93,6947.53,6929.81,6901.81,6881.7,6862.64,6831.06,6789.85,6751.79,6702.51,6656.57,6627.42,6595.62,6378.43,6082.6,5214.8,3002.26,2.396,2.387,2.387,4.861,355.59,2108.21,2468.03,2469.78,2471.8,2464.05,2456.35,2448.17,2441.04,2436.63,2435.78,2434.71,2432.97,2419.25,2416.9,2417.09,2413.3,2414.59,2411.1,2409.37,2403.48,2389.88,2394.94,19.349,5910.09,6582.03,6641.32,6659.17,6662.57,6661.98,6653.63,6671.59,6685.92,6671.13,6674.43,6688.33,6703.29,6727.85,6763.13,6807.4,6849.91,6897.81,6959.52,6998.09,7028.05,7049.3,7059.76,7054.47,7049.6,7049.89,7050.14,7038.98,7015.88,6996.29,6981.31,6976.78,6989.39,7000.42,7004.65,6998.91,6974.37,6951.84,6908.33,6854.62
5328.73,5337.89,5346.08,5346.82,5342.8,5341.29,5333.44,5331.51,5325.19,5251.9,4231.58,2925.27,1212.38,519.152,471.782,250.824,471.179,369.585,92.434,27.05,16.066,5.402,0,0,0,0,0,0,0,0,0,0,0,0,10.582,36.809,36.722,20.887,0,0,0,0,0,0,0,0,0,0,0,0,0,0,0,0,0,0,0,0,0,0,0,0,4.849,9.548,301.92,1813.88,5146.19,5411.03,5152.02,3881.32,3362.47,4197.33,5137.9,5941.97,6176.91,6240.97,6285,6286.32,6265.49,6233.23,6197.37,6142.96,6192.73,6183.14,6166.85,6170.6,6218.83,4422.36,3822.1,4302.23,4433.32,4159.38,4303.72,4370.79,4476.26,4458.74,4313.08,4085.54,3996.52,3761.15,3387.14,2945.22,3070.46,2997.66,3005.59,3043.41,3020.61,2861.49,2753.43,2783.82,2951.55,3349.76,3649.76,3857.38,3839.16,3870.76,3972.68,4201.79,4328.95,4185.46,4014.42,4042.29,3801,3589.46,3186.22,2808.98,2615.92,2534.29,2389.82,2452.31,2670.66,2793.57,3193.7,3370.52,3143.68,2901.86,2738.1,2942.6,3530.74,3804.47,3672.55,3822.48,3739.74,3920.12,3627.46,3165.42,2950.2,2292.86,2441.28,2597.49,2511.84,2280.93,2166.73,2050.76,2029.92,1882.97,2234.41,2557.11,2603.09,2861.23,3146.43,3553.28,3985.51,4395,4635.48,4881.84,5078.87,5411.64,5772.32,5933.94,6139.73,6434.46,6557.17,6797.51,7039.1,7193.95,7321.62,7439.46,7443.79,7432.9,7533.41,7567.57,7624.31,7652.59,7666.02,7674.05,7674.13,7670.55,7678.85,7674.92,7620.39,7611.31,7620.28,7615.94,7605.43,7631.9,7640.35,7632.95,7645.52,7679.94,7660.19,7647.39,7640.8,7592.02,7539.12,7521.64,7476.38,7478.51,7397.67,7330.72,7254.36,7037.93,7058.58,7046.61,6878.07,6792.8,6795.31,6797.31,6833.33,6874.4,6903.51,6856.84,6878.15,6796.67,6834.31,6984.78,7125.66,7173.94,7311.51,7361.96,7439.62,7449.78,7477.67,7567.48,7680.73,7730.04,7775.68,7807.07,7823.24,7878.75,7908.38,7969.46,8056.48,8097.71,8110.98,8132.01,8149.22,8171.25,8173.27,8147.92,8146.39,8133.99,8114.02,8095.88,8082.75,8047.88,8010.84,7982.65,7957.23,7922.52,7873.79,7843.2,7805.76,7760.28,7741.79,7733.24,7723.04,7720.91,7718.14,7718.45,7752.79,7777.46,7753.46,7660.13,7445.96,7252.72,7018.86,6818.55,6626.84,6438.15,6266.73,6102,5982.11,5945.93,5954.65,6096.76,6250.19,6421.91,6570.98,6754.35,6945.77,7151.06,7384.33,7551.28,7586.19,7604.35,7618.05,7621.03,7618.37,7600.09,7588.31,7567.1,7537.97,7510.84,7484.79,7444.88,7419.56,7391.27,7363.72,7342.86,7328.4,7311.92,7299.18,7293.85,7277.91,7265.92,7272.36,7265.82,7259.31,7252.96,7239.57,7214.97,7192.33,7165.32,7133.62,7093.9,7064.88,7035.27,7004.26,6975.69,6951.95,6922.4,6902.87,6891.44,6861.43,6821.77,6785.46,6743.57,6698.76,6660.64,6627.49,6428.02,5950.02,4445.42,1159.99,2.396,2.396,4.953,9.816,542.334,1534.27,2473.37,2473.81,2475.05,2466.61,2458.35,2448.9,2441.27,2436.17,2434.96,2434.01,2432.78,2419.41,2416.48,2416.71,2413.33,2414.84,2411.96,2410.06,2404.51,2391.2,2395.35,12.084,6377.78,6562.21,6591.08,6607.9,6612.06,6611.65,6600.34,6626.92,6645.96,6639.32,6649.95,6667.57,6692.32,6725.24,6761.16,6807.2,6851.72,6893.28,6951.95,6988.41,7020.15,7043.86,7057.02,7061.35,7059.3,7062.02,7064.46,7056.11,7039.21,7023.65,7012.97,7009.82,7019.05,7029.61,7036.45,7034.77,7016.71,6999.47,6962.8,6909.4
5410.98,5411.1,5409.44,5408.12,5402.5,5393.54,5377.84,5325.13,5326.17,5331.77,5342.9,5280.65,5324.91,5320.54,5301.75,5172.97,4812.27,4512.98,2846.08,1232.71,479.457,147.972,49.526,0,0,0,0,0,0,0,0,0,0,5.007,20.676,72.609,63.184,31.703,0,0,0,0,0,0,0,0,0,0,0,0,0,0,0,0,0,0,0,5.263,0,17.602,63.363,104.251,245.364,2194.88,4430.93,5806.43,5901.53,5902.5,5671.9,5336.35,5032.75,5194.52,5710.41,6002.94,6150.11,6199.56,6235.93,6246.25,6234.6,6209.08,6170.26,6122.55,6175.32,6171.07,6167.3,6190.69,6242.88,6224.39,6346.74,6474.22,6591.29,6584.62,6599.3,6548.52,6493.17,6407.28,6310.36,6218.94,6073.85,5948.58,5763.52,5515.39,5392.03,5318.07,5332.65,5317.06,5240.54,5250.49,5284.36,5250.53,5263.12,5311.06,5371.82,5398.38,5410.57,5420.93,5438.57,5443.21,5445.12,5457.97,5456.46,5478.72,5483.58,5487.69,5365.74,5318.76,5302.4,5287.68,5322.78,5369.68,5517.53,5738.31,5784.4,5740.95,5617.58,5427.06,5611.28,5921.72,5922.9,5913.12,5955.21,6045.54,5960.03,5876.48,5546.21,5095.62,4829.43,3816.41,3819.26,3720.25,3460.06,3214.54,3127.39,3137.59,2890.8,2846.96,2887.93,3782.23,4129.7,4459.24,4930,5280.15,5711.33,6213.52,6623.12,6815.2,6947.69,7006.08,7257.57,7418.47,7508.49,7558.67,7610.32,7615,7636.16,7644.52,7649.82,7654.61,7661.71,7682.03,7709.2,7742.16,7763.53,7778.16,7778.46,7779.93,7764.1,7769.95,7756.56,7745.71,7690.32,7676.02,7660.96,7660.35,7657.7,7644.22,7632.17,7616.82,7630.65,7640.07,7623.56,7612.14,7599.35,7561.26,7516.15,7434.14,7411.48,7448.18,7390.67,7354.61,7268.76,7140.91,7162.95,7141.03,7031.8,6999.68,6977.3,7033.74,7059.79,7106.52,7096.02,7047.2,7036.09,6975.64,7062.77,7146.38,7269.7,7347.85,7384.23,7494.87,7544.57,7548.03,7582.84,7663.27,7794.54,7837.44,7879.39,7904.44,7930.3,7980.74,7985.17,8029.08,8075.91,8110.37,8134.31,8146.55,8155.16,8151.23,8142.86,8140.63,8131.43,8114.62,8108.66,8094.44,8084.85,8060.81,8033.03,8005.46,7959.71,7918.39,7891.25,7841,7799.42,7776.07,7753.46,7734.04,7749.45,7746.47,7750.56,7746.59,7771.26,7773.42,7751.15,7663.88,7469.91,7308.5,7084.74,6886.44,6691.32,6495.43,6316.3,6148.1,6024.37,5992.77,5996.91,6136.83,6287.69,6459.58,6614.97,6795.88,6995.3,7193.11,7400.79,7540.07,7565.86,7576.91,7583.1,7579.35,7561.32,7542.37,7525.4,7502.85,7475.37,7439.36,7407.84,7370.03,7336.36,7309.11,7284.11,7262.5,7248.76,7241.22,7236.17,7239.48,7234.24,7221.96,7235.79,7243.65,7243.7,7239.87,7233.08,7220.58,7195.76,7191.44,7157.7,7125.37,7099.52,7071.42,7040.09,7011.05,6984.39,6954.93,6931.09,6921,6890.07,6859.31,6825.28,6773.55,6731.56,6691.95,6657.84,6565.71,6022.44,3792.29,1176.06,4.869,4.869,7.445,12.329,126.468,1187.12,2476.67,2476.49,2477.71,2468.88,2460.3,2449.58,2441.3,2435.58,2434.19,2433.37,2432.29,2419.62,2415.78,2415.97,2413.12,2414.41,2412.52,2409.45,2404.52,2393.04,2395.01,12.084,6343.46,6486.18,6504.95,6519.03,6528.47,6530.59,6526.71,6554.4,6592.85,6601.5,6626.5,6653.3,6697.05,6733.36,6767.38,6815.54,6853.23,6889.98,6942.24,6974.29,7002.96,7026.04,7041.44,7045.55,7045.18,7048.39,7057.43,7050.06,7041.11,7028.17,7016.49,7013.73,7021.65,7031.5,7034.58,7030.81,7018.99,7005.14,6975.75,6925.16
5459.49,5444.66,5449.69,5454.08,5443.52,5422.14,5408.94,5357.83,5249.07,5368.2,5002.07,5278.33,5319.7,5197.89,5347.33,5360.56,5373.85,5379.27,5303.94,4832.53,3413.33,1408.04,181.772,11.146,0,0,0,0,0,0,0,0,0,0,5.498,0,0,0,0,0,0,0,0,0,0,0,0,0,0,0,0,0,0,0,0,0,0,0,11.958,18.182,42.17,112.912,1116.62,3095.47,5685.26,5924.44,5909.79,5747.15,5455.8,4941.18,4368.47,4203.76,4754.72,5474.18,5972.4,6174.58,6211.69,6237.77,6234.7,6214.33,6172.7,6130.9,6174.21,6175.73,6182.96,6216.54,6266.81,6349.08,6443.52,6578.71,6678.62,6653.92,6616.61,6534.17,6436.46,6389.89,6332.25,6325.08,6138.7,6040.6,5924.27,5771.31,5622.35,5578.32,5532.16,5492.65,5457.6,5430.83,5406,5394.56,5393.89,5394.99,5401.98,5411.12,5423.11,5433.29,5440.97,5447.47,5456.34,5465.54,5485.91,5506.27,5541.13,5578.61,5629.79,5694.4,5737.05,5822.3,5900.17,5973.05,6035.86,6076.46,6101.27,6124.9,6121.08,6154.88,6202.2,6184.51,6186.83,6203.12,6211.18,6218.51,6226.7,6156.7,6113.74,5877.71,5641.67,4576.66,4322.1,4079.82,3841.28,3831.83,3890.36,3860.98,3709.54,3576.92,3776.17,4482.06,5111.35,5671.42,6081.6,6517.74,6799.95,7248.73,7494.54,7586.76,7630.59,7654.5,7668.63,7696.25,7697.81,7710.8,7722.53,7725.28,7723.94,7741.57,7762.13,7771.11,7783.94,7806.18,7837.14,7870.19,7891.19,7905.22,7895.4,7891.38,7872.27,7870.59,7856,7821.67,7765.32,7738.1,7700.79,7684.32,7667.51,7645.35,7613.57,7603.55,7601.29,7614.48,7604.38,7606.04,7566.17,7549.96,7491.15,7412.21,7406.83,7456.48,7415.29,7373.49,7315.97,7227.8,7238.5,7225.82,7140.07,7106.15,7165.34,7219.74,7253.56,7263.56,7284.09,7214.93,7170.02,7167.99,7279.09,7367.07,7436.47,7448.16,7529.11,7588.93,7637.24,7698.01,7758.01,7876.27,7958.72,8020.17,8064.1,8060.93,8063.06,8056.8,8057.31,8063.94,8106.39,8123.34,8136.2,8143.69,8149.93,8150.58,8145.44,8135.37,8129.53,8110.77,8102.36,8088.05,8067.81,8044.25,8023.7,7984.97,7950.34,7919.79,7877.68,7841.27,7807.73,7771.34,7759.1,7749.03,7753.58,7755.85,7751.32,7782.17,7790.44,7795.06,7782.79,7701.98,7500.36,7373.1,7153.64,6937.82,6744.53,6540.87,6359.49,6184.81,6058.23,6040.43,6040.39,6173.73,6324.08,6491.47,6650.45,6817.48,7011.57,7223.53,7406.99,7520.52,7538.62,7542.51,7540.95,7532.6,7516.75,7494.8,7473.73,7439.36,7410.76,7380.5,7344.74,7304.45,7278.08,7258.11,7233.28,7212.94,7201.13,7189.82,7187.71,7186.28,7189.63,7189.57,7209.83,7218.67,7224.93,7225.63,7228.23,7221.11,7210.11,7205.36,7182.64,7154.95,7130.03,7104.91,7077.6,7046.7,7019.09,6990.01,6957.83,6939.51,6918.5,6889.19,6853.67,6806.1,6767.01,6735.09,6697.75,6651.2,6169.34,4485.67,1497.65,4.859,4.869,7.403,12.328,181.204,1916.93,2477.23,2476.72,2478.48,2469.76,2461.38,2450.69,2441.37,2435.02,2433.23,2432.47,2431.45,2419.47,2415.08,2415.14,2412.71,2414.25,2412.98,2409.83,2405.76,2395.3,2395.49,12.084,6259.54,6421.55,6442.13,6452.91,6465.74,6469.7,6464.84,6518.19,6570.01,6595.13,6632.68,6667.96,6708.92,6748.37,6788.55,6837.02,6868.26,6891,6930.34,6953.94,6982.52,6999.06,7012.04,7016.49,7016.25,7024.9,7033.74,7032.25,7024.71,7014.25,7004.21,7001.94,7002.69,7007.16,7006.13,7001.86,6991.95,6983.34,6956.65,6912.25
5557.28,5460.71,5485.08,5494.88,5480.42,5470.95,5454.12,5428.84,5415.07,5242.52,5290.77,5370.42,5378.79,5386.15,5395.46,5409.71,5423.34,5429.08,5392.98,5344.38,5251.69,4623.61,2669.1,399.298,39.094,0,0,0,0,0,0,0,0,0,0,0,0,0,0,0,0,0,0,0,0,0,0,0,0,0,5.355,15.973,26.638,42.8,91,113.425,119.866,94.619,133.771,179.026,468.635,2941.6,4910.95,5964.65,6005.67,6026.05,6018.14,5979.43,5938.68,5828.43,5582.51,5502.77,5516.68,5829.82,6093.4,6204.63,6253.08,6276.22,6272.58,6257.41,6213.72,6166,6186.66,6188.38,6203.92,6247.83,6283.54,6388.32,6480.69,6622.4,6698.19,6643.67,6568.32,6551.23,6447.09,6390.9,6373.11,6356.64,6177.33,6090.85,5994.41,5833.72,5647.45,5617.27,5570.07,5528.3,5491.1,5459.5,5435.37,5418.98,5409.4,5407.81,5413.18,5421.69,5433.37,5443,5451.9,5460.69,5471.04,5482.99,5507.26,5534.74,5576.76,5626.37,5678.13,5754.17,5829.75,5895.79,5979.98,6054.88,6107.1,6144.95,6168.47,6188.76,6209.57,6248.83,6255.64,6265,6260.32,6259.47,6260.85,6277.98,6303.47,6325.31,6322.72,6161.06,5849.53,4735.6,4362.59,4545.92,4515.94,4249.89,4314.29,4558.14,4630.57,4472.88,4440.39,5229.68,5655.35,6214.22,6790.57,7155.58,7480.06,7640.79,7783.68,7807.09,7803,7815.83,7811.5,7816.9,7827.69,7829.6,7841.35,7847.38,7853.18,7867.43,7888.71,7900.49,7916.06,7936.25,7960.75,7993.18,8009.77,8020.18,8015.12,8008.75,7997.87,7986.02,7970.03,7928.18,7866.89,7835.66,7801.24,7778.84,7736.71,7694.23,7660.44,7632.11,7624.15,7628.35,7614.07,7595.45,7570.5,7560.2,7530.08,7521.55,7494.73,7485.81,7449.01,7427.54,7418.48,7384.87,7395.47,7399.51,7387.31,7341.55,7347.16,7390.26,7413.41,7412.34,7419.39,7390.92,7393.01,7424.1,7503.52,7553.68,7504.94,7492.4,7598.86,7695.62,7744.06,7804.56,7881.43,7944.88,8030.12,8093.45,8124.52,8136.26,8144.46,8138.35,8114.15,8127.04,8140.92,8145.69,8153.66,8158.4,8161.94,8167.64,8158.27,8155.15,8146.67,8138.54,8122.81,8107.02,8085.28,8058.35,8035.2,8005.55,7962.49,7925.15,7894.59,7848.69,7821.17,7802.26,7789.77,7787.43,7798.13,7798.73,7821,7828.55,7836.54,7852.85,7836.96,7743.87,7559.45,7427.51,7208.33,7004.24,6783.44,6575.99,6386.61,6209.81,6081.19,6076.48,6073.18,6204.91,6355.48,6519.96,6666.01,6845.77,7038.39,7248.36,7406.75,7493.39,7507.73,7506.59,7498.73,7483.55,7461.16,7434.3,7410.47,7374.17,7349.36,7322.56,7285.56,7249.48,7224.64,7206.24,7185.01,7165.6,7155.34,7146.34,7145.49,7147.29,7159.62,7165.46,7184.27,7199.34,7209.29,7216.12,7222.08,7220.63,7215.03,7213.6,7198.63,7171.42,7148.21,7123.24,7097.05,7063.08,7029.18,7007.06,6974.07,6957.79,6930.68,6904.21,6870.75,6835.13,6797.69,6761.16,6734.46,6682.22,6133.32,4416.14,1742.74,2.415,4.869,4.899,17.314,131.476,1998.02,2476.95,2475.46,2478.03,2470.25,2462.18,2451.59,2441.64,2434.3,2432.42,2431.6,2430.69,2420,2414.42,2414.16,2412.25,2414.01,2413.5,2410.54,2406.43,2396.48,2395.22,21.717,6216.87,6369.26,6392.04,6405.35,6417.84,6439.1,6448.13,6495.26,6558.26,6594.18,6642.5,6684.4,6731.21,6772.97,6812.21,6859.31,6886.82,6897.5,6926.1,6940.77,6958.73,6970.93,6981.37,6987.54,6990.57,6997.6,7011.14,7014.26,7013.18,7007.14,7002.3,6998.65,6992.43,6990.21,6983.68,6976.18,6967.14,6957.65,6931.97,6890.98
5732.55,5617.95,5548.66,5564.78,5551.34,5506.64,5472.29,5448.29,5432.33,5419.53,5421.84,5404.45,5391.72,5402.53,5414.13,5430.12,5446.58,5453.66,5438.31,5368.62,5308.77,5136.44,4900.75,4589.97,3330.77,1198.38,161.846,11.152,0,0,0,0,0,0,0,0,0,0,0,0,0,0,0,0,0,0,0,0,0,0,10.711,37.12,85.559,166.961,284.932,394.331,505.432,479.125,394.115,797.174,5313.01,5491.6,6024.64,6043.27,6053.41,6055.76,6031.53,5984.15,5946.57,5926.17,5787.51,5689.64,5676.67,5925.38,6138.82,6212.13,6273.58,6326.71,6326.34,6317.04,6276.82,6214.26,6213.34,6207.29,6233.52,6281.71,6292.82,6421.49,6479.42,6553.22,6652.86,6482.4,6440.57,6413.19,6381.85,6339.47,6316.43,6372.83,6213.12,6119.4,5999.63,5848.68,5691.31,5639.23,5592.29,5549.27,5511.74,5479.66,5454.25,5434.76,5422.01,5420.06,5424.1,5431.93,5441.93,5452.7,5461.96,5470.72,5483.92,5498.77,5525.1,5553.22,5592.06,5651.23,5721.39,5790.09,5854.01,5923.6,6006.9,6081.29,6130.04,6168.03,6188.93,6208.31,6226.64,6258.27,6267.73,6279.98,6279.07,6273.44,6271.21,6288.2,6328.99,6377.88,6408.7,6262.04,5861.26,4509.42,4474.53,5003.62,5028.21,4778.14,4714.12,5172.56,5439.58,5209.89,5301.96,5888.3,6435.06,6847.81,7362.67,7697.19,7878.76,7909.52,7941.29,7955.86,7942.09,7936.52,7935.13,7929.37,7919.48,7937.27,7948.44,7955.56,7964.96,7985.6,7998.52,8012.02,8030.58,8049.95,8075.99,8099.09,8110.18,8116.25,8104.82,8100.16,8090.32,8078.87,8061.99,8027.12,7963.74,7930.8,7905.21,7885.77,7831.99,7771.49,7715.68,7678.01,7668.86,7646.14,7623.33,7597.32,7552.57,7539.85,7537.75,7531.9,7525.55,7516.82,7492.56,7465.73,7455.02,7461.54,7449.56,7464.83,7441.34,7390.56,7414.33,7476.04,7483.36,7485.13,7485.32,7461.43,7453.03,7491.97,7550.17,7553.21,7441.71,7387.27,7544.1,7684.93,7713.91,7751.87,7872.14,7952.05,8094.85,8117.79,8161.38,8171.24,8178.29,8156.01,8158.25,8153.02,8169.52,8172.26,8182.79,8176.56,8187.12,8190.79,8191.48,8184.42,8180.52,8166.5,8150.41,8132.41,8113.49,8080.96,8054.06,8019.7,7990.03,7948.03,7924.81,7893.37,7868.23,7850.94,7855.43,7847.6,7847.46,7864.83,7873.97,7883.31,7902.07,7913.71,7887.94,7797.94,7602.7,7495.78,7255.11,7031.78,6820.44,6604.92,6400.4,6228.18,6097.24,6100.99,6100.24,6227.39,6373.32,6535.46,6679.24,6846.06,7042.23,7253.1,7388.69,7456.33,7466.58,7463.59,7452.12,7435.89,7405.92,7378.13,7354.15,7324.9,7300.65,7275.01,7239.08,7206.99,7184.77,7167.1,7145.17,7129.63,7122.2,7116.79,7115.94,7127.32,7138.43,7147.79,7167.11,7184.48,7195.96,7204.52,7213.48,7215.89,7215.3,7216.23,7204.29,7183.72,7163.34,7143.73,7117.18,7086.53,7055.57,7023.56,6992.17,6975.53,6952.66,6926.37,6897.36,6864.6,6829.67,6796.48,6772.83,6725.92,6417.36,4573.73,1802.29,4.868,4.869,9.854,34.574,431.262,2060.53,2475.81,2474.33,2477.03,2470.15,2462.52,2451.8,2441.38,2433.62,2431.57,2430.62,2429.31,2419.7,2413.52,2413.11,2411.69,2413.4,2413.73,2412.05,2407.34,2398.12,2398.04,341.737,1200.98,6339.68,6374.33,6392.87,6417.5,6435.41,6458.56,6514.18,6583.27,6625.75,6678.94,6720.55,6768.55,6807.42,6842.79,6886.63,6910.53,6915.63,6934.1,6942.18,6957.92,6965.25,6971.42,6978.95,6980.91,6985.92,6999.6,7003.32,7007.07,7002.55,6998.64,6993.61,6983.46,6975.11,6962.87,6950.05,6936.69,6924.44,6896.46,6854.39
5712.36,5836.01,5345.11,5142.17,5001.04,5093.11,5084.05,5064.59,5121.25,5160.7,5323.93,5583.37,5570.19,5498.1,5442.2,5444.37,5435.21,5475.47,5482.98,5435.49,5349.86,5227.99,4948.77,4651.42,4187.84,4132.61,3945.59,2516.93,1392.41,595.397,185.635,41.912,11.256,0,0,0,0,0,0,0,6.037,0,0,0,0,0,0,0,0,0,5.309,5.355,37.349,130.774,242.083,246.761,176.199,181.356,431.635,4344.14,5970.09,6066.2,6078.81,6079.18,6073.54,6063.28,6039.18,6002.55,5940.21,5878.14,5826.26,5689.37,5735.26,5947.89,5923.24,6255.38,6259.81,6399.79,6397.65,6391.1,6358.6,6271.57,6249.97,6235.77,6264.35,6310.64,6257.19,6033.07,6386.39,6403.03,6490.67,6334.83,6266.56,6327.29,6258.96,6276.54,6302.18,6402.96,6241.03,6158.07,6027.59,5880.46,5712.4,5662.27,5614.17,5571.58,5532.62,5499.93,5473.36,5451.27,5438.66,5432.33,5435.72,5442.22,5452.84,5464.56,5475.73,5485.85,5499.09,5521.86,5538.55,5576.08,5622.77,5679.41,5743.37,5807.89,5875.66,5943.4,6030.4,6097.12,6152.29,6187.39,6209.96,6228.9,6247.32,6275.23,6286.81,6300.99,6307.89,6316.17,6281.94,6314.61,6325.4,6393.07,6432.67,6177.15,5731.71,4685.35,4799.25,5555.79,5494.94,5289.74,5375.62,5832.03,6179.22,6192.22,6216.65,6898.06,7054.66,7408.58,7654.46,7855.4,7944.96,8032.38,8044.23,8036.44,8067.58,8060.29,8052.04,8026.26,8040.17,8041.51,8056.62,8069.96,8076.23,8098.85,8103.81,8114.17,8131.04,8145.21,8164.29,8180.54,8181.85,8186.77,8167.52,8166.59,8164.84,8159.67,8146.22,8111.49,8051.01,8016.72,7989.55,7969.22,7903.79,7823.21,7750.08,7710.48,7680.36,7660.07,7646.03,7615.19,7578.71,7572.38,7575.25,7586.66,7576.61,7567.92,7550.98,7532.33,7531.3,7541.44,7548.09,7559.81,7563.42,7568.88,7561.4,7585.52,7607.94,7612.96,7602.15,7543.99,7530.7,7594.55,7665.68,7639.43,7492.71,7544.41,7646.25,7797.67,7876.85,7958.67,8026.3,8132.64,8233.09,8289.43,8309.29,8303.37,8280.89,8259.32,8250.08,8242.34,8235.75,8230.53,8227.08,8224.54,8224.98,8226.25,8224.44,8216.52,8209.13,8192.27,8171.04,8145.54,8123.43,8101.38,8071.17,8040.05,7989.71,7949.47,7921.54,7898.6,7891.23,7870.77,7870.33,7860.74,7874.68,7885.08,7904.96,7930.19,7948,7962.65,7952.87,7852.05,7655.94,7554.48,7311.72,7079.28,6856.3,6629.24,6410.53,6241.77,6112.39,6123.96,6121.02,6242.68,6386.03,6544.56,6686.36,6851.84,7046.9,7252.71,7368.2,7419.61,7427.04,7422.33,7412.94,7394.59,7363.35,7330.5,7307.93,7280.38,7261.23,7237.26,7211.46,7174.97,7155.17,7139.35,7128.77,7118.85,7116.34,7110.54,7112.38,7121.09,7135.72,7148.99,7169.01,7187.3,7197.77,7205.43,7214.99,7215.93,7216.96,7221.84,7210.42,7193.78,7175.12,7155.62,7128.1,7098.75,7067.99,7037,7013.09,6996.33,6967.68,6946.83,6919.58,6892.57,6864.16,6827.93,6796.01,6493.09,5588.65,3022.56,97.838,4.868,4.868,39.401,160.528,886.268,2251.64,2474.1,2473.48,2475.89,2470.29,2462.79,2452.05,2441.29,2433.02,2430.69,2429.44,2427.88,2419.44,2412.5,2412.19,2411.29,2412.82,2413.89,2412.74,2407.8,2399.71,2398.28,1537.43,559.584,5825.84,6065.84,5586.62,6389.5,6416.52,6461.22,6526.95,6607.28,6660.25,6718.57,6764.67,6815.11,6852.41,6883.8,6921.36,6939.15,6936.33,6948.21,6947.52,6958.12,6962.24,6967.05,6974.24,6973.3,6979.13,6990.46,6995.06,7002.45,7000.86,6998.53,6989.9,6974.56,6960.8,6943.56,6927.12,6905.81,6885.63,6854.47,6814.34
0,1071.35,858.816,5533.81,5259.58,5384.32,5298.99,5276.69,5354.27,5512.21,5537.43,5509.11,5364.37,5285,5145.52,5368.12,5507.46,5587.13,5561.35,5552.03,5518.18,5425.64,5228.17,4392.17,4489.46,4573.14,3744.44,4309.96,3841.7,3007.37,3322.64,2643.01,1069.43,282.473,95.623,27.466,19.012,0,0,0,0,6.037,0,0,0,0,0,0,0,0,10.71,37.976,103.112,175.137,315.881,367.158,514.321,695.865,4611.02,5989.75,6076.62,6102.84,6108.77,6097.54,6080.8,6056.43,6020.53,5971.41,5915.01,5842.08,5775.79,5718.98,5863.82,6043.02,6033.16,6215.15,6386.2,6474.02,6483.5,6480.88,6441.28,6342,6297.67,6271.63,6297.37,6341.6,5144.65,4595.27,6029.18,6063.35,6252.32,6137.81,6190.83,6262.88,6222.05,6345.27,6357.26,6416.94,6275.31,6208.31,6079.71,5916.74,5749.37,5701.75,5655.85,5613.18,5573.85,5537.98,5509.47,5486.71,5471.58,5463.72,5464.67,5470.72,5480.1,5492.01,5502.88,5516.34,5532.74,5551.98,5585.04,5627.02,5677.79,5736.05,5810.09,5875.89,5958.98,6031.88,6102.33,6162.5,6205.6,6241.51,6260.49,6284.98,6293.9,6317.48,6324.41,6333.04,6335.31,6338.51,6319.73,6338.56,6374.04,6418.76,6454.44,6380.47,6321.65,5909.67,6186.13,6565.35,6586.52,6670.02,6782.75,7012.49,7085.05,7277.71,7494.83,7704.06,7789.24,7868.61,7988.54,8057.67,8118.88,8174.35,8214.53,8217.96,8215.31,8210.41,8186.84,8172.12,8152.91,8176.88,8175.23,8179.81,8183.33,8196.42,8198.8,8200.91,8202.57,8216.62,8224.72,8225.35,8220.56,8215.48,8206.51,8208.95,8215.11,8218.46,8209.05,8180.98,8123.98,8094.04,8066.26,8045.39,7976.7,7885.96,7800.68,7753.61,7709.3,7698.81,7676.97,7654.83,7628.92,7618.1,7622.13,7643.29,7637,7632.37,7619.68,7600.55,7597.37,7606.36,7622.59,7636.73,7636.4,7641.21,7650.3,7676.78,7707.4,7730.52,7732.25,7744.45,7762.12,7802.26,7841.88,7890.37,7908.86,7963.62,7994.44,8070.65,8152.07,8224.07,8257.05,8295.61,8340.96,8360.68,8374.39,8373.26,8352.35,8331.42,8323.72,8309.38,8299.13,8291.08,8281.38,8273.17,8263.76,8260.16,8252.98,8248.26,8232.06,8212.91,8188.94,8161.4,8136.1,8110.82,8080.47,8042.36,8009.08,7963.16,7935.26,7915.68,7901.26,7891.98,7887,7891.52,7896.75,7906.62,7933.01,7953.39,7981.97,7995.98,7986.97,7885.03,7689.02,7591.05,7339.02,7102.4,6869.59,6644.24,6425.66,6247.27,6121.5,6141.59,6133.61,6251.37,6390.08,6547.27,6679.91,6848.43,7044.96,7246.31,7347.37,7389.12,7396.13,7392.74,7381.5,7365.65,7338,7308.85,7286.76,7261.71,7247.26,7231.4,7206.71,7179.54,7160.09,7148.71,7136.58,7128.01,7128.63,7124.38,7128.56,7138.14,7152.77,7167.91,7186.9,7201.07,7205.78,7207.47,7213.53,7212.21,7212.83,7214.1,7201.24,7183.59,7170.81,7151.85,7128.11,7099.56,7069.25,7039.13,7016.36,7003.99,6978.03,6954.6,6930.96,6904.12,6860.44,6825.47,6775.48,6688.46,6071.38,1482.44,971.959,4.868,9.757,29.374,120.608,993.278,2449.16,2471.59,2471.75,2474.19,2469.98,2462.35,2451.9,2440.89,2432.32,2429.57,2428.28,2426.28,2418.67,2411.51,2411.16,2410.54,2412.1,2413.84,2413.1,2408.42,2401.83,2398.66,2112.98,1741.9,6256.89,6292.98,6295.58,6340.51,6404.66,6459.78,6539.6,6626.71,6699.75,6772.62,6823.09,6876.76,6912.93,6943.41,6968.24,6993.1,6980.08,6979.9,6970.11,6973.71,6973.55,6976.53,6980.49,6981.79,6982.16,6990.18,6993.28,7002.93,7001.47,6998.79,6989.87,6969.22,6948.94,6926.55,6901.4,6877.26,6846.79,6809.1,6768.9
48.798,367.751,2291.73,500.179,414.745,200.04,318.138,1194.93,3390.37,5780.54,5814.85,5667.56,5523.12,5377.18,5272.79,5493.15,5823.52,6018.17,5960.7,5872.69,5713.6,5499.73,5288.02,3876.11,3841.46,3925.5,4319.21,3797.59,4721.75,4580.26,4347.57,4299.47,4830.05,4475.57,4218.44,3824.7,2987.39,1432.77,487.386,173.948,51.132,24.296,18.494,11.62,0,0,0,5.755,0,0,0,115.518,159.775,139.255,293.464,522.825,1134.93,4938.48,5932,6067.08,6101.15,6118.55,6120.08,6106.02,6078.44,6046.8,6001.31,5944.12,5884.06,5827.51,5776.42,5765.47,5916.5,6162.51,6202.46,6281.94,6494.87,6550.14,6570.33,6574.78,6520.35,6421.72,6349.03,6317.71,6340.32,6382.55,2425.74,1787.96,5437.75,5849.51,6188.26,6125.4,6437.19,6561.7,6586.83,6567.26,6539.02,6455.12,6354.29,6238.35,6112.04,5954.2,5790.67,5744,5700.84,5658.94,5619.35,5577.54,5546.64,5529.09,5511.83,5503.29,5501.43,5505.52,5514.94,5525.66,5537.37,5552.63,5572.09,5596.75,5634.07,5680.9,5738.82,5805.09,5879.73,5961.84,6044.25,6122.5,6194.79,6259.18,6306.52,6339.85,6355.84,6370.92,6378.99,6393.95,6388.02,6368.49,6391.26,6378.66,6337.74,6373.76,6368.37,6220.69,5950.93,6381.05,6712.71,6806.66,6883.05,6982.53,7148.17,7332.22,7461.46,7547.85,7644.57,7782.79,7930.03,8033.77,8140.86,8212.73,8255.54,8288.03,8314.9,8355.97,8369.61,8368.01,8358.5,8346.88,8333.97,8327.12,8315.2,8311.07,8307.25,8309.81,8310.36,8322.36,8316.13,8300.41,8293.27,8284.81,8276.76,8269.6,8252.75,8243.2,8231.26,8237.53,8250.28,8258.35,8258.43,8231.72,8181.23,8151.39,8124.79,8107.73,8039.37,7946.92,7854.28,7788.07,7763.73,7751.93,7739.93,7721.02,7685.81,7674.35,7679.04,7706.02,7701.65,7699.16,7689.77,7671.07,7667.39,7678.81,7692.58,7704.55,7705.33,7709.72,7711.27,7733.75,7759.44,7781.41,7789.38,7815.25,7839.56,7869.28,7896.88,7964.1,8032.21,8039.87,8088.73,8161.87,8246.53,8297.38,8330.3,8361.26,8381.07,8398.11,8403.89,8398.5,8375.13,8357.9,8355.92,8347.27,8338.18,8330.04,8317.64,8311.58,8300.45,8306.24,8291.8,8274.69,8257.75,8237.86,8212.86,8183.5,8156.94,8135.65,8105.1,8067.48,8027.84,7987.32,7951.77,7940.98,7925.15,7904.41,7909.84,7899.4,7909.09,7918.05,7942.84,7963.32,7994.65,7992.86,7974.39,7862.84,7659.12,7573.08,7322.48,7087.77,6860.63,6634.36,6417.89,6238.46,6121.25,6150.41,6136.61,6249.3,6384.64,6539.23,6672.27,6842.39,7035.19,7230.74,7315.74,7358.42,7370.34,7368.46,7358.89,7343.35,7318.32,7292.69,7272.53,7251.73,7243.42,7231.57,7212.12,7187.37,7170.62,7161.9,7152.18,7151.04,7152,7150.29,7154.79,7168.36,7184.01,7203.96,7217.62,7225.29,7222.54,7216.79,7215.35,7206.08,7197.87,7192.64,7175.82,7158.92,7147.36,7130.19,7112.05,7087.25,7058.84,7033.51,7017.29,7005.65,6978.37,6955.63,6929.29,6902.54,6859.82,6822.04,6786.7,5677.19,5232.04,3037.83,432.832,4.868,4.868,95.298,366.456,1464.8,2445.4,2468.65,2469.71,2471.94,2468.84,2460.96,2451.15,2440.16,2431.52,2428.25,2426.53,2424.1,2417.73,2410.64,2409.86,2409.49,2411.32,2413.76,2413.16,2409.8,2403.64,2399.58,2394.81,1181.91,6221.39,6261.45,6281.57,6323.47,6383.27,6461.55,6545.15,6657.88,6734.87,6814.93,6869.31,6929.41,6969.53,6997.62,7030.14,7039.45,7024.49,7017.89,7002.29,6999.65,6989.52,6988.33,6992.48,6991.12,6991.53,6994.81,6996.07,7005.68,7005.31,7004.95,6994.48,6967.96,6943.6,6912.72,6887.87,6858.45,6824.38,6781.75,6739.8
2186.29,954.892,250.269,89.925,54,54,363.252,2939.1,280.949,40.992,256.679,3821.2,5639.7,5300.61,5673.72,5959.29,6207.7,6624.74,6562.05,6413.55,6040.25,5588.02,5446.58,3949.43,3272.85,3805.62,3355.28,4629.37,4332.81,3723.11,3867.87,4082.34,4972.45,5800.2,5714.21,5424.42,5259.92,5204.19,5114.74,3741.72,2220.91,1392.49,511.225,351.944,167.998,80.963,80.418,114.331,244.951,104.963,88.158,99.004,83.044,167.8,215.114,477.991,3510.57,5713.03,6056.02,6104.21,6134.27,6144.73,6136.87,6112.9,6078.63,6041.64,5987.11,5920.52,5854.34,5796.91,5753.1,5737.52,5966.66,6254.35,6281.63,6366.04,6579.25,6617.56,6651.73,6658.71,6595.46,6494.6,6407.06,6369.78,6391.04,6427.49,2873.44,1617.61,5037.27,5518.39,5574.55,5367.15,5579.13,5732.5,5882.69,6195.9,6328.73,6434.96,6368.32,6257.79,6129.34,5964.47,5825.67,5781.63,5739.83,5700.76,5662.95,5628.63,5593.06,5567.96,5556.85,5545.6,5543,5546.51,5554.24,5564.19,5573.38,5589.08,5612.64,5643.37,5682.73,5734.9,5796.68,5870.84,5951.32,6042.07,6135.44,6222.86,6299.62,6365.46,6415.61,6445.81,6458.37,6457.09,6453.82,6453.18,6434.51,6410.56,6413.48,6417.1,6400.65,6407.73,6429.56,6434.18,6601.12,6713.92,6818.4,6919.38,7032.93,7182.93,7309.38,7440.79,7569.07,7681.55,7778.73,7908.69,8030.75,8132.54,8226.47,8292.99,8335.26,8373.07,8407.72,8442.69,8458.53,8461.57,8459.17,8453.88,8447.19,8446.27,8438.58,8437.06,8439.93,8442.36,8446.7,8454.64,8438.88,8416.02,8393.43,8379.29,8368.06,8334.61,8307.08,8292.69,8272.11,8272.63,8283.81,8294.03,8289.63,8263.95,8218.7,8191.77,8166.03,8148.6,8085.43,7999.14,7896.92,7854.43,7825.59,7807.23,7798.87,7782.45,7746.98,7737.06,7740.72,7763.92,7766.89,7762.85,7753.16,7734.26,7726.09,7741.62,7752.28,7763.95,7764.27,7766.29,7768.98,7786.23,7813.47,7829.49,7831.77,7851.93,7883.85,7920.6,7963.2,8021.79,8075.61,8138.39,8178.42,8242.47,8311.53,8354.03,8380.57,8411.47,8428.84,8440.18,8439.49,8427.73,8391.99,8374,8371.15,8365.46,8348.98,8339.98,8331.04,8325.85,8324.37,8337.25,8337.86,8314.92,8304.43,8292.38,8266.67,8222.53,8197.7,8172.04,8137.2,8092.73,8062.23,8018.65,7989.91,7961.9,7945.56,7941.23,7933.24,7922.25,7923.21,7934.1,7955.81,7976.09,7995.28,7995.95,7955.72,7826.46,7630.27,7530.84,7292.44,7056.79,6830.9,6605.41,6385.99,6218.29,6113.99,6150.99,6135.79,6239.73,6369.95,6520.46,6652.34,6822.61,7010.68,7198.69,7275.45,7324.22,7345.82,7359.46,7353.33,7333.89,7313.52,7291.94,7275.63,7258.16,7248.96,7240.48,7225.55,7203.81,7188.41,7182.04,7172.02,7171.5,7177.06,7175.56,7183.67,7196.43,7216.22,7232.34,7246.59,7248.37,7240.24,7224.77,7216.19,7199.12,7183.89,7172.08,7151.87,7134.63,7126.87,7117.77,7110.93,7092,7070.74,7052.72,7039.9,7026.87,7000.11,6971.94,6940.92,6908.46,6869.2,6817.77,6596.29,6258.91,4098.02,1181.3,531.276,4.878,7.371,83.128,783.449,1676.34,2419.8,2466.19,2467.98,2470.09,2467.45,2459.34,2449.91,2438.97,2430.08,2426.79,2424.48,2421.92,2416.61,2409.59,2408.8,2408.75,2410.1,2413.19,2413.32,2410.05,2404.29,2399.09,2403.97,105.524,6192.81,6284.16,6317.97,6365.95,6421.7,6509.26,6604.02,6700.43,6780.16,6856.46,6909.34,6965.03,6996.25,7015.69,7041.83,7047.21,7031.95,7022.17,7009.78,7007.38,6992.9,6991.18,6992.84,6990.65,6987.98,6985.85,6986.74,6994.72,6994.17,6993.22,6984.08,6955.33,6929.12,6900.95,6876.6,6844.05,6807.42,6766.52,6728.62
4766.66,2491.89,2363.16,1326.08,1090.75,1048.66,1661.24,5688.07,7416.45,5818.74,2536.07,1825.11,23.834,18,735.179,5951.5,6392.15,6971.61,6843.5,6389.57,5842.45,5766.09,5520.44,4474.29,3880.64,3632.02,4085.72,3377.27,4698.99,4942.5,4779.62,4479.06,4871.69,5894.6,6327.6,6377.63,6400.33,6236.1,5810.77,5752.86,5848.29,5833.64,5788.59,5767.5,5692.59,5506.07,5057.15,4396.52,4072.22,3988.24,1975.48,626.054,218.874,237.628,241.692,1670.73,4575.76,6048.55,6117.3,6163.13,6188.03,6193.33,6178.87,6147.52,6104.12,6055.47,5989.21,5907.84,5817.96,5777.23,5739.84,5738.03,6006.09,6304.66,6389.1,6459.02,6656.29,6683.36,6722.67,6739.57,6669.17,6569.56,6463.16,6423.33,6443,6482.66,4103.16,4468.57,4589.86,5282.58,5565.81,5302.73,5632.63,5916.74,6186.31,6383.8,6474.69,6491.31,6400.14,6287.15,6151.39,5978.15,5860.91,5817.69,5778.84,5743.07,5709.83,5678.29,5650.39,5627.65,5608.76,5598.81,5589.97,5595.61,5601.08,5606.78,5614.06,5628.18,5651.42,5681.49,5719.63,5772.62,5841.86,5921.38,6014.97,6118.55,6223.54,6318.06,6411.63,6489.49,6544.77,6579.78,6593.1,6586.6,6560.42,6556.25,6519.31,6501.41,6483.25,6470.18,6444.41,6473.3,6549.89,6632.09,6739.42,6851.96,6958.8,7064.55,7178.12,7318.35,7434.07,7564.19,7685.15,7790.27,7879.16,7997.55,8104.14,8196.07,8277.78,8336.62,8381.32,8423.96,8462.82,8508.43,8535.64,8553.68,8567.2,8565.21,8562.04,8570.53,8576.44,8582.29,8586.41,8586.42,8586.46,8592.19,8572.12,8544.04,8507.3,8469.38,8434.14,8386.87,8353.17,8331.67,8307.46,8305.88,8312.91,8317.58,8313.93,8286.93,8243.87,8217.8,8194.79,8180.04,8119.27,8031.93,7956.92,7900.73,7880.79,7871.88,7858.64,7846.85,7813.82,7802.97,7808.25,7828.69,7826.57,7824.65,7811.1,7787.07,7773.67,7787.8,7790.31,7804.16,7804.3,7807.33,7811.44,7826.99,7854.84,7867.16,7869.88,7893.1,7924.7,7966.73,8018.96,8076.58,8140.06,8187.38,8236.64,8300.96,8364.11,8402.13,8429.47,8458.81,8469.03,8481.23,8473.98,8455.9,8411.71,8391.71,8387.38,8378.05,8362.32,8346.3,8334.45,8332.65,8332.85,8356.18,8355.83,8338.17,8337.73,8322.96,8300.28,8267.43,8244.69,8206.43,8168.92,8134.04,8092.59,8048.35,8015.61,7995.61,7988.78,7969.12,7959.2,7952.06,7949.79,7960.01,7981.91,7994.58,8016.39,8015.59,7950.1,7804.76,7604.52,7500.57,7254.21,7026.37,6803.43,6578.37,6361.55,6205.18,6111.28,6151.5,6135.53,6233.77,6355.7,6498.74,6626.17,6798.6,6985.73,7168.27,7237.4,7288.79,7318.02,7333.45,7333.57,7326.98,7311.51,7300.9,7282.71,7270.27,7264.1,7262.69,7248.05,7223.39,7208.74,7196.97,7189.05,7187.89,7192.36,7193.29,7200.31,7212.58,7230.61,7239.92,7251.58,7247.38,7232.18,7215.88,7198.03,7169.06,7148.14,7137.79,7112.88,7095.53,7089.43,7085.49,7079.51,7065.53,7049.52,7040.5,7031.26,7020.34,7000.86,6964.05,6929.17,6892.68,6848.65,6783.72,6759.55,5848.21,3635.47,393.15,57.995,4.858,7.371,168.551,551.785,1936.36,2381.91,2463.59,2466.01,2468.27,2465.24,2457.03,2448.25,2437.54,2428.89,2425.24,2422.58,2419.51,2414.98,2408.29,2407.54,2407.72,2408.86,2412.37,2413.24,2410.51,2405.22,2399.05,2403.92,56.007,6282.42,6323.84,6357.8,6396.32,6446.62,6535.52,6643.54,6721.3,6794.58,6862.54,6903.3,6954.48,6974.27,6998.31,7017.42,7019.37,7003.35,6991.5,6983.56,6979.65,6967.1,6965.43,6964.45,6965,6963,6961.62,6963.39,6972.42,6971.24,6972.86,6967.51,6941.02,6915.46,6888.73,6867.85,6836.52,6802.93,6761.74,6728.89
7789.45,5843.57,5320.48,4087.48,4029.09,4320.76,3856.86,3773.09,4924.57,5034.26,2429.33,664.989,4817.26,4023.44,3679.72,4940.68,4363.02,5264.63,6010.46,6542.42,6293.02,6060.41,6008.14,5491.89,5140.97,5036.5,4639.98,5123.75,5021.16,5224.23,5820.42,5389.82,6117.11,6333.83,6833.3,6643.71,6603.3,6614.96,6511.86,6326.38,6159.77,6096.63,6019.1,5945.36,5876.13,5805.57,5696.52,5627.27,5602.57,5601.77,5600.07,5414.91,4341.38,3596.95,4704,5244.9,5997.84,6124.96,6178.85,6239.69,6242.65,6238.83,6215.68,6174.5,6123.67,6064.27,5991.4,5890.35,5792.98,5735.12,5716.1,5752.98,6020.02,6335.74,6457.09,6492.28,6680.98,6708.57,6753.97,6779.25,6710.09,6615.37,6507.85,6471.7,6494.41,6536.49,4704.59,5325.4,6247.96,5221.75,5732.41,5536.87,5828.23,6235.67,6399.9,6556.31,6550.67,6538.42,6423.64,6309.91,6172,6006.43,5889.09,5846.92,5811.85,5780.77,5752.6,5727.71,5703.05,5684.76,5668.31,5658.42,5654.65,5652.9,5653.59,5654.51,5656.68,5682.06,5705.11,5733.25,5805.69,5942.8,6050.05,6185.5,6314.61,6441.02,6527.39,6619.26,6706.88,6740.78,6755.98,6751.94,6736.29,6707.13,6655.12,6617.83,6589.69,6551.02,6531.03,6514.02,6479.52,6512.93,6630.46,6750.58,6872.82,7006.45,7116.2,7218.25,7320.26,7455.81,7568.68,7692.97,7810.4,7901.42,7983.42,8085.44,8181.1,8262.61,8335.12,8394.14,8438.62,8484.13,8535.75,8600.52,8636.57,8667.85,8677.9,8679.68,8688.97,8702.36,8713.45,8719.75,8728.58,8718.68,8698.66,8690.53,8662.91,8631.44,8582.58,8528.86,8484.97,8430.88,8386.5,8361.44,8340.72,8335.64,8337,8339.83,8336.33,8313.26,8275.83,8255.57,8232.34,8217.39,8165.39,8093.16,8016.54,7976.48,7945.56,7935.61,7933.43,7922.87,7887.7,7877.68,7871.77,7891.99,7883.2,7874.02,7856.13,7826,7808,7815.49,7817.15,7826.31,7829.89,7831.52,7837.66,7850,7874.66,7892.36,7895.93,7918.18,7950.84,7997.11,8046,8108.97,8173.09,8224.72,8274.78,8340.12,8397.54,8435.73,8458.63,8487.21,8495.23,8503.06,8492.99,8468.73,8425.01,8401.04,8393.3,8382.68,8367.82,8351.07,8339.53,8338.66,8346.12,8371.29,8370.8,8354.88,8354.03,8341.44,8320.62,8297.67,8266.68,8226.99,8193.68,8159.62,8129.41,8087.1,8047.23,8041.06,8026.43,8002.28,7985.9,7977.63,7985.12,7996.85,8012.33,8019.8,8031.69,8022.95,7942.87,7775.39,7559.86,7438.96,7204.35,6966.55,6767.22,6545.89,6332.17,6187.02,6104.36,6148.52,6131.79,6225.15,6341.24,6476.59,6607.27,6778.25,6951.75,7130.26,7204.69,7263.37,7299.92,7321.22,7328.79,7324.21,7320.68,7307.84,7299.11,7287.66,7286.92,7289.35,7271,7259.83,7243.09,7238.71,7228.96,7230.79,7228.42,7227.29,7230.54,7240.91,7250.35,7267.43,7259.66,7256.35,7229.18,7208.93,7181.29,7152.1,7124.44,7106.15,7074.15,7053.41,7047.93,7045.17,7041.58,7031.08,7018.65,7014.48,7006.54,6992.68,6971.88,6932.72,6881.91,6839.69,6758.26,6699.39,6637.2,6399.43,2289.15,1109.31,4.868,4.848,9.778,71.312,1361.46,2031.58,2066.89,2461.44,2464.49,2466.64,2463.52,2455.13,2447.08,2436.25,2427.96,2423.8,2420.89,2417.69,2413.85,2407.21,2406.31,2407.01,2407.83,2411.44,2413.05,2410.92,2406.25,2399.2,2406.37,18.397,6349.5,6407.23,6434.86,6474.02,6523.98,6610.37,6695.6,6772.03,6829.72,6867.12,6899.5,6930.71,6945.41,6956.58,6968.92,6965.65,6957.68,6946.33,6940.85,6939.12,6927.95,6928.33,6928.24,6928.68,6927.24,6926.13,6926.91,6932.37,6935.3,6938.74,6934.89,6917.87,6898.41,6872.94,6857.27,6836.93,6810,6777.97,6750.68
9000,8036.03,8665.67,7765.27,8089.15,7764.44,7527.77,5653.24,4254.38,5051.71,5034.89,3632.08,3806.24,3618.19,6842.57,7623.77,7959.75,5366.44,5320.71,7521.21,7090.99,4932.41,2832.93,6012.3,6129.69,6194.33,6006.08,5996.37,6232.52,6014.58,6274.29,6446.14,6660.88,6845.97,6884.58,7152.42,7104.16,7043.57,6840.09,6673.01,6562.29,6386.57,6175.91,6086.2,5988.2,5900.33,5782.81,5706.31,5683.19,5691.29,5703.53,5739.23,5805,5884.42,5969.48,6058.44,6130.42,6201.33,6261.71,6310.31,6299.1,6290.69,6257.58,6206.45,6140.97,6068.68,5993.29,5877.94,5790.56,5738.16,5718.07,5772.6,6054.39,6335.37,6485.94,6529.96,6660.78,6695,6742.81,6776.52,6715.12,6629.55,6535.77,6512.23,6543.24,6593.16,5929.41,6412.44,6518.85,6690.23,6304.23,6285.55,6530.25,6694.04,6737.39,6698.59,6641.73,6557.78,6443.88,6325.49,6171,5992.8,5901.2,5860.71,5828.15,5802.96,5781.76,5763.97,5749.72,5737.14,5724.25,5717.13,5712.03,5706.88,5693.38,5622.04,5617.6,5827.1,6030.91,6129.92,6354.44,6652.2,6934.95,7256.32,7564.96,7670.83,7599.76,7596.59,7621.75,7524.75,7356.8,7170.77,6993.66,6871.97,6755.29,6670.18,6628.97,6603.56,6560.63,6394.27,6198.33,6585.56,6698.2,6840.73,6989.21,7135.38,7251.84,7361.48,7452.7,7583.2,7695.83,7810.64,7919.91,8006.19,8073.46,8171.15,8249.29,8316.86,8377.05,8422.28,8463.35,8516.02,8561.19,8633.6,8680.54,8714.71,8730.34,8741.77,8755.83,8780.8,8795.87,8813.94,8815.96,8799.94,8777.64,8763.08,8736.38,8690.94,8636.83,8577.98,8522.66,8459.13,8409.84,8386.22,8365.16,8358.98,8354.7,8353.2,8348.2,8325.11,8296.65,8281.62,8262.04,8247.38,8211.16,8149.78,8083.83,8044.88,8015.78,8001.7,7995.2,7979.23,7941.92,7924.88,7915.28,7924.92,7915.74,7906.04,7883.76,7851.75,7831.85,7832.01,7826.09,7836.49,7842.04,7844.03,7847.22,7860.89,7886.86,7902.75,7908.64,7931.44,7967.71,8007.14,8053.8,8121.51,8189.39,8240.94,8292.7,8356.69,8411.72,8450.83,8474.47,8502.54,8508.28,8512.63,8500.41,8474.21,8427.83,8409.57,8404.94,8391.32,8372.28,8356.88,8342.91,8343.52,8355.2,8377.76,8377.71,8352.78,8345.52,8341.82,8326.15,8295.21,8263.89,8227.84,8193.41,8163.38,8138.54,8108.96,8084.9,8059.95,8049.26,8040.05,8029.05,8020.33,8017.41,8022.25,8034.47,8035.86,8038.91,8011.24,7918.28,7743.14,7519,7404.58,7164.68,6941.68,6736.63,6522.69,6319.67,6183.04,6108.85,6146.41,6128.14,6214.77,6327.8,6463.34,6605.31,6767.27,6937.04,7110.45,7192.48,7259.68,7307.39,7340.45,7351.42,7352.03,7352.02,7342.81,7333.54,7321.71,7324.53,7316.31,7303.8,7293.71,7274.77,7261.52,7254.85,7255.17,7258.31,7250.93,7251.58,7265.54,7266.19,7278.15,7281.2,7267.55,7232.86,7208.64,7182.07,7135.86,7098.81,7066.44,7037.92,7008.27,7008.51,7005.13,7000.8,6989.17,6981.55,6976.35,6974.61,6961.88,6940.78,6864.19,6784.06,6722.24,6745.72,6633.85,6395.17,5743.42,3610.47,1178.39,4.858,4.848,7.263,78.065,729.368,1844.26,1481.13,2460.79,2464.19,2466.08,2463.43,2454.2,2446.39,2435.6,2427.24,2422.98,2419.84,2416.56,2413.14,2406.41,2405.43,2406.15,2406.78,2410.29,2412.51,2411.1,2406.74,2399.09,2406,14.472,6415.62,6459.47,6510.01,6544.88,6583.31,6671.39,6742.12,6792.79,6832.52,6856.42,6867.94,6892.15,6897.08,6903.14,6910.6,6905.44,6903.25,6894.96,6890.15,6890.38,6880.47,6885.27,6888.92,6889.34,6892.35,6892.44,6893.45,6901.61,6901.23,6905.41,6907.29,6892.26,6879.54,6863.36,6854.88,6840.41,6820.05,6800.46,6780.52
