6000,5832,5382,5754,6000,6000,6000,6000,6000,6000,5939.74,5833.96,5715.11,5619.31,5552.1,5501.07,5490.04,5471.12,5472.39,5457.59,5436.04,5410.47,5388.32,5363.91,5339.18,5292.85,5246.27,5198.5,5148.83,5096.73,5045.01,4990.69,4932.56,4876.25,4831.35,4796.47,4766.89,4744.96,4729.05,4714.52,4708.69,4717.25,4731.54,4753.04,4785.63,4821.65,4864.02,4912.71,4964.92,5016.26,5064.71,5105.14,5135.54,5151.8,5161.39,5162.09,5154.33,5134.47,5102.27,5063.25,5025.86,4988.6,4952.63,4917.13,4885.63,4855.73,4835.83,4824.89,4821.74,4820.62,4820.93,4820.5,4822.42,4820.82,4818.27,4806.15,4789.8,4770.86,4746.03,4716.74,4686.19,4653.32,4623.87,4594.08,4573.88,4557.76,4547.09,4548.01,4558.19,4575.51,4605.64,4640.68,4684.24,4729.65,4774.12,4819.66,4856.63,4890.42,4924.35,4953.21,4980.53,5001.49,5017.11,5029.72,5037.07,5039.69,5038.39,5029.82,5015.4,5003.18,4985.49,4969.53,4954.17,4938.81,4924.15,4910.63,4901.57,4893.52,4883.16,4873.86,4871.13,4875.75,4885.65,4901.58,4920.47,4940.92,4968.51,4997.26,5027.72,5055.08,5075.64,5090.81,5101.59,5112.05,5117.9,5118.44,5114.24,5110.47,5103.71,5089.32,5073.01,5050.97,5030.12,5003.51,4977.1,4952.71,4924.87,4893.39,4866.97,4848.68,4832.62,4818.23,4804.74,4794.1,4784.4,4778.66,4775.57,4773.49,4773.18,4775.72,4782.89,4795.56,4816.23,4837.58,4856.35,4880.21,4896.19,4911.75,4929.05,4939.22,4954.17,4968.52,4983.73,4996.7,5006.96,5017.22,5026.3,5031.28,5032.19,5027.31,5023.7,5012.73,5004.63,4994.88,4984.3,4971.3,4956.74,4942.76,4931.65,4918.57,4911.43,4906.73,4903.58,4901.94,4903.48,4908.17,4914.56,4914.33,4914.81,4908.16,4901.64,4896.44,4886.16,4875.28,4858.93,4834.9,4790.64,4727.98,4637.62,4509.32,4376.37,4267.93,4149.81,4034.95,3929.21,3840.54,3764.06,3711.74,3685.33,3665.5,3645.53,3638.73,3644.74,3675.47,3735.03,3815.49,3906.59,4012.17,4126.56,4247.49,4372.12,4497.69,4577.53,4612.45,4627.41,4634.26,4628.31,4621.83,4611.85,4603.67,4592.49,4585.15,4574.09,4569.75,4570.48,4579.15,4592.31,4606,4619.92,4636.91,4649.95,4665.66,4675.14,4680.52,4681.71,4679.51,4674.72,4667.71,4654.25,4640.12,4623.84,4606.63,4592.76,4584.35,4577.28,4575.38,4577.39,4586.98,4599.84,4616.57,4642.53,4669.69,4697.31,4732.85,4770.91,4803.86,4832.37,4857.22,4872.83,4879.67,4885.65,4886.42,4879.76,4870.91,4865.95,4858.68,4852.95,4853.54,4851.68,4845.46,4840.2,4833.66,4824,4814.67,4808.6,4802.96,4797.74,4794.73,4793.43,4791.06,4788.52,4787.04,4780.52,4773.84,4771.59,4767.18,4764.25,4768.67,4774.6,4778.73,4783.33,4790.88,4800.58,4803.22,4808.06,4810.67,4809.08,4805.4,4805.29,4798.45,4791.51,4780.58,4772.03,4754.29,4745.56,4732.52,4719.63,4707.61,4703.31,4697.73,4701.64,4707.29,4717.98,4732.2,4749.64,4771.73,4796.15,4820.26,4838.52,4859.94,4881.67,4894.61,4910.94,4929.63,4940.21,4943.27,4947.11,4946.6,4944.37,4938.22,4932.3,4924.74,4918.08,4909.82,4898.61,4882.58,4867.88,4851.97,4838.68,4824.53,4813.38,4798.82,4792.14,4789.42,4794.69,4799.63,4812.99,4821.37,4834,4850.04,4872.31,4888.57,4906.53,4925.44,4940.95,4955.72,4966.34,4971.86,4970.61,4965.29,4956.85,4941.63,4921.43,4900.17,4876.74,4855.35,4836.11,4817.15,4798.35,4781.05,4766.32,4752.26,4741.67,4733.14,4725.32,4718.41,4713.41,4712.46,4715.11,4718.69,4720.74
4986,5904,6000,6000,6000,6000,6000,6000,6000,6000,5925.64,5821.21,5711.07,5617.04,5550.98,5504.58,5501.19,5486.79,5490.45,5479.02,5460.79,5440.9,5422.23,5399.46,5372.09,5325.47,5277.86,5227.13,5175.48,5121.17,5065.66,5008.62,4947.17,4887.41,4839.32,4800.29,4767.02,4743.4,4725.61,4709.14,4702.27,4709.1,4720.85,4742.36,4771.97,4805.29,4843.23,4886.18,4933.33,4979.46,5023.36,5060.75,5084.97,5098.7,5105.29,5103.87,5095.57,5076,5044.81,5006.6,4972.02,4936.8,4907.24,4876.9,4850.19,4825.28,4809.35,4802.16,4803.12,4804.03,4807.52,4809.2,4811.15,4810.29,4808.49,4797.73,4783.35,4763.92,4738.9,4709.72,4680.48,4647.82,4618.56,4590.77,4568.88,4553.72,4541.78,4542.11,4552.32,4570.91,4600.74,4635.39,4677.75,4719.39,4760.01,4801.83,4836.38,4865.31,4896.25,4922.02,4945.85,4966.64,4983.28,4996.4,5006.2,5011.24,5015.06,5010.6,5002.51,4995.66,4983.45,4972.3,4960.5,4949.9,4940.62,4929.52,4922.2,4914.51,4905.06,4896.79,4895.3,4900.35,4909.55,4924.65,4944.01,4965.81,4993.63,5023.64,5054.39,5081.02,5102.23,5117.86,5129.52,5135.29,5139.38,5137.57,5131.25,5124.3,5116.73,5102.31,5082.32,5060.5,5040.21,5016.77,4992.4,4968.24,4945.17,4914.19,4890.32,4872.94,4858.11,4843.87,4828.62,4815.22,4802.11,4791.07,4783.89,4774.34,4765.19,4760.44,4758.46,4762.69,4775.37,4789.42,4802.47,4823.04,4842.2,4855.47,4874.97,4894.58,4914.24,4933.12,4954.35,4973.4,4990.58,5004.67,5021.38,5028.08,5029.16,5031.37,5025.28,5013.78,5005.14,4996.01,4985.05,4972.38,4957.54,4943.96,4932.75,4918.19,4909.9,4902.84,4898.64,4896.65,4898.09,4901.69,4908.32,4907.11,4905.98,4899.18,4891.89,4885.12,4875.42,4861.69,4843.96,4817.3,4775.71,4718.75,4636.87,4510.07,4376.07,4267.12,4151.49,4037.8,3933.29,3845.37,3767.44,3710.58,3685.91,3667.66,3648.38,3640.2,3642.58,3669.24,3724.77,3799.4,3887.03,3990.64,4104.5,4227.29,4355.21,4485.79,4575.02,4612.48,4630.09,4638.58,4633.03,4626.4,4618.53,4609.63,4597.27,4589.55,4577.85,4572.54,4570.41,4577.14,4590.29,4602.22,4615.94,4634.35,4648.87,4666.95,4677.09,4685.49,4688.39,4687.94,4683.81,4678.11,4666.01,4652.08,4637.72,4621.81,4608.39,4600.33,4594.13,4590.44,4591.11,4599.68,4610.61,4625.66,4650.79,4677,4703.29,4736.64,4777.15,4808.81,4837.77,4860.22,4875.24,4881.76,4886.23,4885.81,4878.24,4867.76,4861.5,4853.02,4847.78,4847.27,4845.1,4838.22,4832.66,4826.38,4817.46,4808.63,4803.43,4801.6,4797.64,4796.4,4797.39,4795.67,4794.16,4791.21,4786.08,4775.85,4771.35,4763.65,4758.01,4756.99,4758.61,4758.29,4759.88,4763.04,4768.98,4769.12,4770.83,4770.8,4767.06,4762.03,4761.24,4755.62,4748.5,4738.48,4726.71,4716.93,4710.31,4700.18,4691.16,4683.1,4678.84,4682.25,4685.99,4695.55,4713.78,4729.72,4747.31,4769.72,4794.77,4817.79,4838.62,4856.76,4876.09,4891.75,4905.44,4916.02,4921.45,4922.96,4927.25,4926.49,4925.39,4920.66,4914.67,4911.3,4905.74,4899.57,4893.24,4881.82,4872.18,4859.84,4849.65,4840.21,4830.41,4823.73,4821.04,4815.3,4819.82,4826.56,4839.51,4851.22,4862.37,4875.67,4889.6,4901.8,4916.66,4930.28,4942.66,4952.65,4959.63,4960.42,4958.69,4953.6,4945.09,4931.2,4912.4,4893.64,4873.89,4855.52,4837.68,4821.12,4801.91,4784.56,4768.44,4755.35,4743.04,4732.19,4722.78,4715.14,4710.22,4708.69,4710.25,4714.19,4716.58
5928,6000,6000,6000,6000,6000,6000,6000,6000,6000,5900.38,5794.61,5686.16,5592.46,5526.08,5480.43,5482.87,5473.1,5480.18,5475.24,5461.94,5453.33,5432.64,5411.14,5384.81,5338.37,5289.91,5241.78,5187.9,5132.35,5077.03,5019.08,4956.29,4894.96,4844.58,4804.08,4770.44,4746.24,4727.75,4710.48,4703.34,4708.5,4719.41,4741.22,4768.88,4796.81,4829.71,4865.36,4906.11,4945.72,4984.25,5013.77,5034.59,5043.63,5047.39,5043.35,5034.84,5014.06,4984.17,4948.06,4916.1,4886.01,4861.98,4837.26,4816.97,4798.74,4788.07,4787.22,4792.18,4797.96,4802.69,4806.24,4809.46,4809.21,4807.24,4797.27,4781.93,4762.41,4734.85,4705.14,4675.98,4643.59,4614.62,4586.93,4567.91,4552.73,4541.75,4542.06,4551.25,4572.12,4602.5,4637.9,4677.37,4716.62,4753.35,4790.59,4821.87,4848.51,4872.5,4895.77,4916.25,4933.79,4949.28,4964.38,4976.8,4984.31,4993.32,4994.73,4993.84,4993.52,4988.13,4982.4,4975.75,4970.83,4965.71,4958.08,4952.12,4945.02,4934.51,4925.89,4923.32,4926.83,4936.32,4948.73,4965.88,4989.78,5018.81,5050.06,5081.67,5108.7,5130.25,5144.45,5153.8,5159.78,5160.72,5155.45,5143.58,5133.43,5121.96,5104.83,5082.21,5059.62,5039.14,5017.31,4996.21,4979.12,4961.25,4934.49,4916.52,4904.41,4892.24,4880.12,4867.37,4852.47,4838.57,4825.45,4814.08,4797.7,4780.15,4765.52,4753.08,4747.02,4748.55,4755.46,4758.84,4769.62,4787.7,4807.7,4829.87,4855.22,4882.06,4905.61,4934.51,4961.12,4983.14,5001.53,5016.97,5030.17,5033.41,5036.6,5031.4,5019.3,5009.24,4997.78,4986.07,4973.14,4958.72,4943.52,4929.92,4913.31,4903.62,4895.53,4888.25,4884.72,4885.06,4888,4891.71,4890.05,4890.24,4883.06,4874.76,4865.76,4856.6,4841.99,4822.65,4797.32,4757.85,4705.51,4634.08,4507.03,4373.5,4263.61,4151.12,4040.68,3938.13,3849.07,3770.69,3709.47,3687.96,3671.93,3653.32,3644.48,3643.37,3666.8,3716.22,3786.9,3868.55,3969.22,4081.61,4205.38,4334.89,4470.36,4567.07,4607.45,4628.96,4639.44,4635.27,4628.99,4621.48,4613.41,4602.57,4593.76,4581.16,4576.04,4573.31,4578.65,4590.55,4603.93,4617.9,4637.9,4654.2,4673.65,4686.45,4696.64,4701.38,4702.52,4700.12,4696.24,4685.5,4672.15,4658.8,4644.03,4631.21,4624.61,4618.74,4613.95,4614.15,4619.6,4628.27,4641.43,4664.87,4687.8,4712.73,4744.61,4783.91,4815.34,4843.53,4866.82,4880.83,4885.88,4890.05,4887.87,4881.17,4868.97,4861.38,4852.88,4846.62,4845.23,4843.15,4836.06,4831.12,4824.8,4818.13,4810.46,4806.68,4806.41,4804.29,4803.94,4806.91,4805.2,4802.98,4799.81,4793.47,4780,4771.35,4761.03,4752.48,4747.79,4744.31,4740.24,4736.77,4735.52,4737.54,4732.92,4732.31,4730.01,4724.82,4719.36,4718.02,4711.54,4705.47,4694.85,4682.48,4674.32,4671.02,4664.48,4664.44,4657.14,4660.29,4659.93,4672.01,4689.5,4710.35,4728.58,4747.87,4769.21,4792.86,4813.75,4833.29,4849.75,4866,4877.4,4888.51,4896.85,4900.86,4901.66,4904.02,4902.73,4900.81,4896.89,4892.02,4889.34,4887.57,4884.04,4879.94,4872.66,4866.3,4859.56,4852.39,4847.06,4841.7,4838.62,4838.58,4839.63,4842.61,4853.2,4863.6,4873.62,4882.77,4894.98,4905.66,4914.24,4923.26,4932.57,4940.37,4946.53,4948.73,4947.86,4941.51,4936.2,4927.53,4915.39,4900.15,4882.58,4865.14,4850.01,4834.81,4820.73,4803.06,4786.69,4771.95,4758.16,4745.57,4734.53,4723.91,4715.53,4710.42,4708.57,4710.71,4712.35,4715.24
6000,6000,6000,6000,6000,6000,6000,6000,6000,6000,5862.29,5752.16,5641.33,5545.66,5484.18,5441.06,5447.64,5442.36,5454.5,5455.87,5450.94,5443.76,5429.15,5410.05,5385.39,5345.79,5298.22,5249.9,5196.65,5138.75,5084.25,5026.58,4962.71,4901.69,4849.46,4808.54,4773.65,4748.66,4729.37,4712.84,4705.05,4709.37,4719.04,4741.45,4767,4790.89,4818.04,4847.47,4879.17,4912.19,4943.31,4967.39,4982.05,4986.62,4987.43,4981.9,4971.61,4952.9,4925.04,4892.71,4867.52,4842.89,4825.29,4808.02,4795.7,4783.32,4779.7,4783.94,4791.4,4801.57,4808.19,4811.83,4816.45,4817.52,4814.78,4805.56,4789.58,4768.97,4740.62,4711,4680.57,4650.66,4623.75,4598.75,4580.56,4567.67,4558.01,4558.24,4566.91,4586.43,4617.36,4649.52,4687.24,4722.55,4754.62,4786.49,4815.27,4837.04,4856.58,4872.29,4887.89,4903.32,4916.2,4931.32,4944.54,4955.14,4967.42,4974.08,4980.38,4988.15,4989.41,4990.45,4988.88,4991.27,4991.42,4985.29,4981.36,4972.31,4961.1,4951.21,4945.93,4948.48,4953.5,4964.68,4981.2,5003.7,5034.47,5066.97,5098.42,5127.23,5148.46,5162.08,5168.52,5171.38,5170.03,5161.75,5142.76,5127.12,5111.33,5089.55,5064.62,5038.75,5019.19,4999.46,4980.51,4969.1,4956.33,4939.27,4927.06,4921.68,4916.11,4909.89,4900.28,4888.33,4874.74,4860.76,4847.38,4825.9,4801.71,4779.88,4758.14,4742.35,4728.71,4729.4,4727.55,4724.84,4747.4,4757.89,4787.74,4821.99,4853.15,4883.69,4919.76,4951.77,4979.56,5001.25,5019.24,5035.37,5038.5,5037.57,5035.71,5023.36,5010.87,4996.94,4984.73,4970.53,4954.53,4938.36,4922.42,4902.72,4891.82,4881.67,4873.43,4867.95,4866.41,4870.05,4874.02,4871.9,4870.21,4863.51,4855.59,4846.57,4835.72,4819.23,4799.7,4774.44,4739.68,4691.42,4627.84,4502.47,4372.61,4258.45,4148.76,4042.19,3941.28,3851.61,3773.37,3709.19,3690.62,3677.62,3660.5,3650.25,3647.17,3666.27,3711.28,3775.64,3852.56,3949.18,4058.45,4180.68,4310.89,4447.43,4549.27,4593.73,4618.15,4628.97,4626.26,4622.22,4615.85,4609.08,4599.89,4592.06,4582.07,4577.06,4575.59,4581.08,4592.21,4605.58,4620.16,4640.14,4658.54,4679.47,4694.97,4706.46,4712.63,4714.66,4714.08,4711.11,4702.23,4690.19,4679.98,4666.25,4656.73,4652.71,4648.93,4644.89,4645.15,4650.19,4658.78,4672.38,4693.67,4714.13,4737,4764.86,4801.88,4829.9,4856.4,4877.03,4888.45,4891.32,4895.36,4891.62,4883.86,4870.32,4862.12,4853.19,4844.68,4841.9,4840.88,4833.16,4829.26,4824.41,4816.87,4812.22,4810.1,4809.52,4808.86,4809.33,4813.1,4810.96,4808.36,4805.13,4797.35,4782.3,4771.92,4759.93,4747.96,4738.12,4732.01,4722.66,4715.58,4709.88,4707.71,4699.55,4695.43,4690.98,4684.08,4678.32,4677.1,4671.5,4664.52,4656.83,4646.04,4637.38,4632.94,4638.83,4639.06,4640.67,4649.07,4652.73,4669.58,4689.97,4713.2,4732.59,4752.35,4773.98,4795.04,4813.58,4831.13,4843.98,4856.93,4864.92,4871.82,4876.2,4878.63,4877.18,4877.57,4874.06,4873.24,4869.38,4865.75,4864.44,4863.88,4863.86,4863.34,4859.1,4856.06,4854.27,4852.12,4849.95,4849.71,4849.95,4853.44,4858.42,4861.17,4875.08,4878.48,4892.3,4900.06,4909.67,4916.02,4920.03,4924.11,4927.58,4931.17,4933.51,4931.51,4926.1,4917.67,4910.92,4902.23,4891.1,4878.02,4863.52,4848.58,4835.56,4823.91,4811.79,4796.49,4781.46,4768.93,4755.75,4743.66,4732.63,4722.43,4713.74,4709.14,4708.17,4708.55,4711.55,4713.77
6000,6000,6000,6000,6000,6000,6000,6000,6000,5924.31,5822,5706.49,5597.65,5506.47,5445.3,5403.37,5403.21,5396.88,5411.84,5421,5423.99,5425.03,5418.18,5401.87,5379.59,5340.85,5294.05,5246.1,5192.87,5135.46,5081.31,5022.18,4961.29,4900.98,4848.86,4808.4,4772.77,4747.03,4729.27,4713.06,4705.39,4707.34,4717.32,4737.23,4760.77,4780.86,4803.57,4825.91,4849.76,4875.11,4899.26,4915.05,4923.36,4923.52,4920.97,4914.47,4905.39,4889.28,4864.83,4839.09,4819.38,4802.67,4793.08,4782.83,4778.25,4772.95,4776.28,4784.4,4796.71,4810.22,4821.38,4826.54,4833.36,4835.57,4834.81,4825.4,4809.62,4788.92,4761.6,4731.94,4705.36,4679.51,4655.98,4634.68,4619.6,4609.27,4602.23,4602.77,4611.38,4630.05,4658.27,4686.5,4720.23,4750.06,4776.39,4802.15,4822.28,4838.52,4849.79,4858.43,4868.19,4878.93,4888.15,4902.93,4915.25,4926.04,4941.03,4951.15,4962.86,4975.1,4982.73,4988.26,4993.11,4999.09,5003.86,5000.53,4995.87,4986.38,4973.76,4959.78,4952.04,4952.11,4953.93,4962.63,4979.2,5001.96,5033.25,5067.04,5100.53,5127.36,5148.43,5161.88,5168.31,5168.17,5163.83,5152.46,5129.04,5107.85,5087.07,5061.56,5033.01,5005.14,4986.6,4969.22,4952.7,4947.75,4943.53,4934.24,4931.31,4934.26,4938.44,4938.69,4936.15,4928.93,4919.53,4908.11,4893.5,4867.93,4840.7,4812.31,4785.13,4761.05,4740.4,4728.62,4718.9,4715.3,4730.86,4746.77,4777.28,4808.77,4843.97,4886.74,4924.89,4957.83,4986.79,5010.14,5031.81,5044.12,5050.53,5049.22,5042.9,5028.21,5012.87,4998.06,4983.63,4968.33,4950.63,4932.91,4914.73,4892.55,4880.21,4867.64,4856.18,4849.48,4847.92,4848.35,4851.1,4848.62,4847.79,4841.23,4832.83,4822.58,4811.12,4794.69,4773.51,4750.72,4718.1,4675.03,4618.36,4492.64,4363.26,4249.48,4143.77,4040.92,3941.77,3851.85,3775.01,3709.91,3693.63,3683.71,3668.58,3657.25,3652.05,3669,3709.38,3768.49,3839.94,3932.3,4038.17,4158.54,4287.35,4424.1,4530.31,4579.29,4605.08,4618.7,4618.46,4616.79,4612.42,4608.73,4600.76,4595.9,4587.13,4583.29,4583.44,4588.76,4598.65,4611.78,4627.01,4645.65,4664.6,4685.22,4701.4,4713.59,4720.19,4722.06,4722.79,4721.15,4713.43,4703.52,4695.82,4686.16,4678,4676.25,4676.12,4673.95,4675.67,4682.23,4690.79,4703.45,4723.79,4742.3,4763.46,4787.81,4820.76,4845.75,4867.64,4885.49,4894.17,4894.35,4896.81,4892.1,4881.58,4868.29,4859.02,4849.69,4842.06,4838.93,4837.74,4830.67,4825.57,4821.93,4816.77,4813.4,4814.22,4814.99,4813.88,4814.49,4817.74,4816.02,4813.32,4809.43,4800.27,4785.18,4771.87,4757.76,4744.2,4731.53,4721.66,4709.66,4698.47,4688.95,4682.55,4672.36,4666.05,4659.14,4650.92,4643.59,4641.9,4635.75,4630.2,4622.5,4613.95,4606.64,4606.12,4608.02,4612.25,4623.73,4632.35,4647.61,4667.61,4691.34,4716.2,4737.39,4757.56,4776.87,4796.38,4814.53,4828.04,4839.29,4848.46,4853.43,4856.63,4857.91,4857.29,4853.51,4852.68,4848.66,4846.7,4843.83,4842,4839.33,4841.13,4843.02,4846.15,4845.76,4846.98,4848.75,4851.36,4854.13,4858.36,4862.63,4870.43,4876.52,4883.56,4893.73,4901.09,4906.87,4912.76,4916.89,4918.67,4917.99,4917.21,4915.84,4915.01,4913.34,4908.18,4899.56,4890.92,4883.24,4875.33,4865.13,4854.19,4841.64,4829.64,4820.34,4811.81,4800.87,4788.31,4774.4,4762.71,4749.97,4738.89,4727.72,4717.14,4710.65,4706.02,4704.22,4705.73,4708.67,4710.93
6000,6000,6000,6000,6000,6000,6000,6000,6000,5890.71,5772.29,5658.09,5553.61,5467.21,5405,5362.33,5352.48,5341.16,5355.67,5373.47,5384.41,5394.74,5395.32,5384.62,5366.78,5329.15,5286.11,5240.27,5191.41,5130.67,5075.85,5020.32,4962.23,4903.75,4853.35,4812,4774.91,4750.07,4732.91,4716.59,4708.9,4709.51,4717.4,4736.22,4758.44,4778.22,4795.1,4812.38,4830.41,4845.77,4863.85,4872.9,4876.08,4870.54,4864.43,4856.22,4847.42,4834.35,4816.05,4794.74,4782.09,4772.8,4769.96,4767.56,4767.74,4768.16,4776.39,4788.67,4804.41,4820.88,4835.56,4846.25,4854.59,4859.42,4859.54,4854.59,4842.87,4824.56,4802.41,4778.46,4756.51,4738.7,4721.25,4706.61,4696.52,4691.59,4688.53,4691.24,4700.49,4715.9,4737.59,4761.09,4787.63,4807.94,4823.96,4838.43,4847.93,4854.1,4856.38,4855.78,4858.79,4863.6,4870.29,4881.3,4893.37,4904.63,4920.57,4931.83,4948.32,4963.38,4975.52,4986.84,4995.09,5004.69,5012.75,5011.73,5008.36,4997.02,4981.41,4963.51,4951.95,4946.38,4944.92,4951,4964.87,4986.29,5018.09,5053.26,5088.79,5116.45,5136.28,5150.19,5158.58,5155.93,5151.07,5137.52,5112.52,5086.73,5062.6,5032.76,5002,4972.59,4952.25,4936.04,4921.61,4920.11,4922.91,4920.49,4927.75,4940.43,4951.51,4961.67,4965.97,4964.43,4960.48,4953.47,4939.21,4910.27,4879.12,4847.84,4812.01,4785.62,4759.84,4744.3,4730.6,4721.59,4737.98,4759.82,4788.96,4819.14,4861.95,4901.69,4942.7,4977.96,5010.32,5029.61,5046.79,5057.47,5063.17,5059.6,5051.64,5034.57,5016.21,4998.97,4983.71,4966.67,4946.52,4927.32,4906.89,4882.95,4867.95,4853.37,4839.61,4831.55,4827.9,4827.73,4828.54,4826.06,4825.59,4818.28,4808.86,4798.62,4786.83,4770.44,4751.43,4729.18,4700.67,4661.26,4608.17,4482.25,4352.49,4238.42,4135.16,4038.47,3941.34,3851.17,3775.66,3711.36,3698.4,3691.72,3678.58,3666.98,3659.21,3675.43,3711.5,3767.2,3833.71,3921.92,4022.14,4138.42,4263.18,4397.17,4504.6,4559.05,4586.37,4601.62,4602.37,4605.25,4602.44,4601.23,4597.34,4595.66,4590.63,4589.45,4592.06,4596.71,4607.3,4621.45,4636.24,4654.03,4672.51,4692.42,4706.77,4718.25,4724.98,4726.13,4727.23,4725.34,4719.49,4711.64,4706.98,4701.03,4695.72,4698.35,4702.38,4703.7,4708.25,4716.45,4727.74,4742.37,4762.87,4781.29,4800.11,4821.81,4851.52,4872.11,4888.84,4903.25,4907.24,4905.12,4902.09,4895.59,4882.82,4866.3,4856.56,4846.85,4838.62,4832.93,4832.14,4825.15,4821.36,4817.98,4815.06,4814.23,4815.83,4816.92,4817.94,4817.42,4821.01,4818.45,4816.05,4809.25,4799.42,4782.69,4768.82,4754.42,4738.81,4725.16,4712.38,4696.8,4682.33,4670.01,4660.87,4649.69,4641.92,4633.97,4624.52,4617.19,4614.67,4609.36,4603.74,4598,4591.81,4587.53,4588.19,4592.8,4601.34,4613.22,4630.06,4649.15,4671.51,4696.4,4722.8,4746.07,4765.6,4782.67,4800.98,4816.21,4827.3,4836.55,4842.3,4844.31,4844.48,4843.17,4840.03,4835.13,4831.82,4826.73,4823.31,4819.29,4817.94,4817.73,4821.14,4825.04,4828.66,4832.77,4837.32,4844.71,4850.41,4856.99,4865.34,4872.97,4881.53,4889.99,4897.11,4905.54,4909.37,4912.65,4913.81,4914.32,4909.87,4905.24,4900.06,4893.35,4888.74,4883.77,4874.68,4865.4,4856.68,4848.38,4840.62,4832.95,4824.12,4814.18,4804.58,4798.92,4793.03,4784.89,4772.35,4760.52,4749.39,4738.31,4728.08,4717.86,4709.23,4701.82,4699.43,4697.88,4699.09,4701.97,4704.01
6000,6000,6000,6000,6000,6000,6000,6000,6000,5856.18,5733.62,5623.47,5520.97,5434.14,5368.92,5318.8,5293.9,5273.08,5283.29,5306.54,5325.3,5344.56,5355.72,5352.11,5340.43,5308.08,5268.78,5233.31,5183.19,5129.44,5073.42,5018.28,4964.25,4909.37,4860.52,4819.17,4782.45,4757.7,4741.31,4724.79,4716.87,4716.49,4722.95,4741.82,4763.24,4781.64,4797.31,4811.65,4824.29,4834.86,4845.39,4848.13,4845.78,4838.8,4831.55,4820.79,4813.07,4799.95,4785.85,4770.34,4761.96,4758.74,4760.07,4761.8,4766.09,4771.92,4782.6,4797.9,4816.65,4836.94,4854.19,4868.41,4880.81,4889.04,4893.84,4892.71,4885.89,4874.5,4857.5,4841.31,4828.91,4818.66,4809.75,4803.76,4801.69,4804.14,4806.43,4813.2,4822.92,4834.94,4850.19,4864.68,4879.54,4887.66,4889.52,4890.33,4884.7,4878.8,4872.83,4863.83,4859.68,4858.03,4860.01,4870.37,4882.26,4893.79,4909.97,4923.61,4942.89,4962.12,4977.87,4994.23,5006.88,5018.24,5026.23,5025.68,5023.33,5007.23,4985.81,4960.25,4941.19,4929.15,4922.08,4924.02,4934.55,4953.68,4984.06,5019.31,5058.21,5086.99,5108.78,5124.68,5135.98,5135.46,5130.6,5119.73,5092.32,5063.2,5035.47,5003.44,4970.04,4936.45,4916.89,4899.17,4886.3,4887.39,4892.56,4898.03,4912.79,4932.89,4951.77,4969.89,4979.71,4983.83,4986.1,4981.6,4967.3,4938.12,4904.28,4870.27,4835.79,4805.06,4780.51,4763.97,4744.49,4737.19,4757.25,4782.81,4820.47,4849.9,4893.45,4933.81,4971.29,5011.61,5039.45,5052.83,5070.14,5078.81,5078.28,5075.17,5062.8,5042.9,5018.33,5003.97,4986.5,4967.21,4947.96,4925.9,4905.49,4876.03,4864.3,4848.04,4833.23,4823.52,4819.37,4818.33,4818.04,4815.34,4814.74,4806.91,4799.15,4787.21,4775.61,4759.23,4739.54,4718.61,4693.97,4656.26,4605.65,4474.78,4343.09,4226.61,4124.77,4032.67,3938.98,3849.5,3775.02,3711.93,3701.76,3698.14,3688.05,3676.28,3666.51,3681.12,3715.11,3768.72,3831.19,3914.19,4008.67,4119.44,4236.65,4364.6,4471.92,4529.06,4558.94,4576,4580.65,4586.49,4587.3,4590.98,4591.14,4593.28,4592.43,4595.33,4600.35,4606.67,4616.36,4631.02,4645.33,4662.24,4680.09,4697.14,4709.25,4720.75,4725.5,4726.76,4726.66,4725.54,4721,4714.33,4713.16,4709.55,4708.16,4713.42,4720.92,4726.01,4733.02,4745.38,4758.33,4774.7,4795.19,4812.47,4830.4,4848.55,4873.25,4889.23,4903.17,4913.02,4912.41,4907.2,4900.82,4891.59,4877.62,4860.35,4848.99,4839.79,4830.9,4826.46,4824.52,4819.82,4817.29,4814.67,4814.57,4816.27,4819.87,4821.6,4822.17,4820.62,4824.23,4820.61,4815.98,4808.47,4798.69,4781.67,4767.22,4751.6,4736.22,4720.7,4706,4689.27,4673.45,4659.02,4648.75,4635.83,4626.88,4618.65,4609.57,4602.46,4598.75,4594.12,4589.29,4584.88,4579.71,4577.98,4580.92,4588.47,4600.13,4616.22,4635.94,4657.02,4680.07,4707.21,4733.69,4756.49,4776.21,4792.32,4807.2,4820.54,4830.41,4836.61,4841.61,4840.66,4837.14,4834.23,4828.93,4822.31,4817.93,4812.7,4807.14,4804.4,4801.98,4802.96,4806.01,4811.61,4817.31,4823.55,4829.8,4839.56,4849.44,4860.02,4870.42,4879,4889.16,4897.38,4904.17,4910.12,4911.97,4909.61,4906.37,4902.88,4895.19,4887.45,4876.49,4865.75,4857.68,4849.18,4839.59,4829.25,4819.8,4812.25,4805.42,4799.03,4793.23,4787.57,4780.58,4776.11,4771.9,4764.54,4754.51,4744.82,4734.42,4723.41,4714,4704.58,4695.63,4690.93,4687.3,4686.83,4687.86,4690.96,4693.03
6000,6000,6000,6000,6000,6000,6000,6000,6000,5830.64,5707.82,5605.63,5502.6,5413.96,5342.3,5283,5242.91,5210.34,5214.47,5241.08,5264.24,5288.68,5306.16,5310.62,5303.94,5278.46,5245.86,5207.21,5155.66,5109.8,5061.77,5010.86,4959.97,4909.76,4861.87,4822.32,4785.42,4759.67,4741.86,4725.77,4717.33,4714.7,4719.52,4739.34,4759.85,4778.9,4794.73,4808.32,4818.6,4827.62,4833.78,4834.69,4830.27,4819.94,4810.9,4799.98,4792.34,4780.84,4769,4759.07,4754.94,4755.13,4760.91,4764.93,4772.95,4780.08,4793.38,4810.08,4829.67,4851.55,4870.56,4887.85,4904.1,4913.99,4921.7,4925.18,4923.2,4916.21,4907.24,4897.95,4893.02,4892.72,4893.85,4899.29,4906.95,4917.81,4925.94,4935.8,4946.35,4955.81,4963.93,4968.33,4971.71,4966.83,4955.54,4943.8,4926.41,4910.14,4893.17,4877.03,4866.19,4858.72,4858.08,4865.74,4877.16,4887.44,4902.87,4917.09,4936.48,4957.68,4975.74,4995.28,5009.34,5021.24,5029.08,5027.04,5020.85,5000.14,4973.19,4940.41,4914.68,4894.79,4883.45,4882.11,4891.63,4909.53,4940.02,4977.04,5016.12,5047.96,5071.76,5090.04,5102.8,5104.32,5101.33,5090.3,5063.56,5032.1,5001.54,4967.22,4929.44,4895.64,4872.38,4853.73,4840.91,4843.86,4853.77,4864.92,4883.93,4910.85,4935.29,4959.2,4976.75,4986.82,4993.78,4992.68,4980.88,4952.98,4918.45,4882.52,4849.62,4818.73,4793.21,4771.71,4761.57,4761.17,4780.2,4809.18,4844.51,4880.21,4920.98,4963.27,5001.98,5037.29,5069.03,5083.58,5095.03,5101.27,5098.49,5086.95,5075.46,5053.04,5029.27,5005.22,4990.7,4969.9,4949.13,4927.45,4906.18,4874.55,4856.32,4840.13,4828.56,4817.35,4813.44,4810.81,4810.24,4805.87,4807.05,4800.96,4794.17,4782.8,4770.91,4754.43,4735.48,4716.74,4693.16,4655.75,4604.18,4465.78,4330,4210.29,4110.07,4022.31,3931.53,3844.23,3771.23,3709.65,3703.64,3702.4,3694.47,3683.53,3671.33,3685.2,3718.16,3771.09,3831.57,3910.17,4001.38,4105.2,4217.25,4338.14,4444.3,4504.67,4535.55,4555.3,4563.7,4573.05,4577.67,4585.92,4590.35,4595.77,4599.31,4607.04,4613.86,4621.91,4631.74,4648.14,4661.5,4677.64,4693.23,4707.06,4718.51,4726.46,4730.4,4730.14,4730.37,4728.83,4723.75,4717.91,4719.45,4717.75,4718.88,4727.17,4735.88,4743.24,4753.62,4766.87,4781.76,4798.23,4818.55,4833.15,4847.55,4864.25,4884.16,4895.48,4905.18,4910.33,4908.35,4899.6,4890.91,4879.46,4866.07,4849.03,4836.96,4828.1,4820.64,4816.54,4815.54,4812.41,4810.27,4809.81,4810.91,4814.52,4818.54,4820.15,4820.21,4817.64,4818.69,4814.68,4808.98,4801.24,4790.18,4774.21,4759.31,4744.23,4729.35,4713.69,4697.98,4681.68,4665.15,4651.63,4640.87,4629.26,4621.56,4614.67,4606.61,4600.16,4598.28,4593.69,4590.63,4587.21,4584.37,4583.28,4587,4596.89,4611.02,4629.53,4650.75,4672.55,4695.78,4722.84,4749.06,4771.97,4790.16,4803.98,4816.52,4827.44,4835.37,4840.62,4844.41,4840.17,4834.33,4830.03,4823.93,4816.67,4811.12,4804.11,4797.98,4795.38,4794.52,4794.1,4798.87,4804.69,4811.33,4818.16,4825.41,4837.31,4848.23,4858.89,4869.96,4878.28,4888.35,4896.07,4900.63,4903.7,4901.87,4896.05,4890.14,4882.75,4872.85,4860.89,4849.06,4836.22,4825.81,4815.87,4806.5,4797.12,4787.8,4782.05,4775.73,4773.06,4770,4764.47,4760.65,4757.91,4754.62,4747.82,4738.11,4728.7,4719.35,4709.41,4700.08,4691.78,4684.17,4680.35,4678.6,4677.66,4678.19,4681.13,4683.42
6000,6000,6000,6000,6000,6000,6000,6000,5927.47,5810.91,5692.16,5593.06,5494.19,5404.19,5326.8,5254.65,5199.34,5157,5156.74,5178.88,5202.85,5225.65,5241.71,5247.63,5241.24,5226.05,5198.13,5168.51,5112.2,5072.28,5029.34,4976.74,4932.12,4891.35,4854.34,4810.34,4774.25,4748.92,4730.64,4714.09,4704.54,4698.88,4702.46,4720.65,4740.36,4762.56,4780.76,4796.62,4808.74,4819.27,4826.33,4827.82,4825.33,4816.03,4812.46,4797.71,4793.69,4783.3,4769.09,4762.01,4762.84,4765.32,4770.32,4776,4784.66,4792.95,4807.69,4825.16,4844.47,4865.7,4886.25,4907.14,4926.24,4941.66,4952.05,4959.75,4963.36,4962.92,4959.92,4960.02,4962.08,4969.06,4978.52,4991.29,5003.28,5017.15,5028.04,5038.22,5046.77,5052.83,5054.48,5050.59,5044.57,5030,5008.45,4987.4,4961.8,4935.7,4910.94,4888.81,4873.55,4862.23,4857.9,4864.45,4874.65,4884.06,4898.06,4911.5,4931.38,4951.27,4971.56,4994.56,5008.56,5018.47,5024.42,5019.09,5007.16,4981.37,4947.58,4909.19,4875.91,4849.49,4835.25,4832.17,4841.99,4863.19,4892.75,4931.12,4972.24,5007.15,5033.31,5054.19,5070.13,5075.12,5075.31,5066.58,5040.87,5007.7,4974.06,4937.62,4898.06,4860.52,4835.45,4815.58,4803.18,4804.94,4816.34,4829.62,4853.57,4883.6,4910.66,4937.61,4958.06,4972.42,4984.88,4987.84,4978.98,4955.16,4922.92,4889.51,4858.37,4829.37,4805.62,4789.52,4773.61,4775.29,4800.49,4832.61,4869.56,4906.35,4948.29,4991.44,5028.81,5064.18,5094.65,5108.03,5116.84,5121.02,5114.43,5100.84,5082.02,5060.93,5036.54,5014.6,4990.99,4974.12,4954.54,4931.19,4910.41,4876.46,4855.97,4843.68,4827.64,4821.61,4817.14,4813.56,4811.98,4808.22,4809.34,4806.13,4796.62,4789.67,4778.36,4762.35,4744.16,4724.71,4701.05,4664.5,4609.54,4461.7,4318.96,4195.74,4094.65,4009.8,3922.4,3837.17,3765.44,3705.77,3703.29,3703.66,3697.56,3686.28,3673.98,3685.78,3719.98,3772.56,3832.29,3908.94,3996.03,4095.21,4201.54,4317,4421.48,4482.49,4513.02,4534.91,4546.23,4558,4566.41,4578.24,4586.92,4596.66,4605.63,4615.65,4626.22,4635.63,4647.15,4663.05,4675.83,4690.33,4703.38,4714.82,4723.48,4730.29,4731.89,4730.03,4727.89,4724.6,4720.9,4715.94,4717.66,4717.96,4720.7,4729.74,4740.11,4750.53,4763.13,4776.29,4793.02,4810.55,4829.97,4845.44,4857.65,4873.4,4888.95,4898.07,4905.22,4908.27,4902.75,4892.77,4882.55,4870.84,4855.75,4839.44,4826.18,4817.16,4810.61,4807.58,4806.78,4805.14,4805.9,4804.91,4807.17,4811.75,4816.74,4817.23,4816.29,4811.92,4810.91,4805.64,4799.17,4789.95,4779.36,4763.85,4749.98,4735.7,4722.07,4706.43,4692.95,4676.93,4662.82,4650.64,4640.95,4631.45,4626.56,4621.9,4615.36,4611.8,4609.12,4606.58,4604.72,4602.41,4600.39,4600.42,4605.27,4616.85,4632.4,4652.51,4675.02,4697.33,4720.38,4746.43,4771.68,4793.48,4809.47,4821.61,4832.13,4840.96,4847.55,4852.58,4852.21,4847.32,4839.59,4832.9,4825.69,4817.6,4810.8,4802.9,4795.9,4793.25,4790.85,4791,4795.28,4800.14,4806.39,4812.8,4820.33,4831.99,4840.77,4851.08,4861.32,4867.9,4875.34,4880.47,4881.79,4882.61,4877.67,4868.42,4860.36,4850.15,4838.83,4828.08,4815.55,4802.63,4792.12,4783.32,4775.49,4767.95,4760.69,4756.77,4752.88,4752.03,4752.57,4750.4,4747.72,4746.93,4744.17,4738.25,4728.87,4719.64,4709.62,4698.77,4689.87,4682.35,4674.4,4670.9,4668.88,4668.18,4668.39,4670.49,4671.73
6000,6000,6000,6000,6000,6000,6000,6000,5908.79,5791.46,5679.47,5582.15,5486.97,5397.28,5313.9,5232.17,5164.82,5113.22,5107.33,5127.91,5149.6,5168.85,5181.59,5189.2,5192.12,5190.47,5163.01,5132.13,5094.84,5043.14,5007.18,4965.39,4926.36,4878.43,4841.2,4802.6,4759.04,4733.15,4713.45,4695.37,4682.01,4680.13,4680.92,4692.53,4713.54,4738.21,4760.59,4780.39,4798.88,4813.72,4826.71,4833.3,4833.87,4829.64,4822.53,4813.41,4803.87,4796.59,4786.74,4780.17,4779.73,4776.16,4778.58,4784.55,4790.93,4800.67,4815.41,4833,4852.17,4873.23,4895.96,4919.87,4942.97,4960.94,4975.33,4985.95,4993.05,4998.2,5000.68,5003.66,5008.51,5018.87,5030.01,5045.04,5059.38,5075.35,5088.07,5099.12,5107.79,5112.84,5112.73,5106.4,5094.71,5072.07,5045.19,5017.76,4984.26,4951.03,4922.31,4894.53,4874.25,4860.86,4855.73,4859.47,4868.51,4877.69,4890.52,4902.09,4919.88,4939.16,4960.12,4981.83,4997.59,5004.2,5007.58,4998.95,4983.27,4953.04,4914.15,4871.49,4832.95,4802.33,4785.62,4782.33,4791.96,4812.85,4843.13,4880.9,4922.71,4958.73,4988.89,5011.94,5032.19,5041.42,5045.62,5041.26,5018.63,4987.94,4954.79,4918.15,4877.01,4838.71,4810.54,4790.38,4776.12,4776.95,4786.56,4801.1,4825.31,4854.03,4882.89,4909.41,4931.81,4946.72,4963.53,4971.09,4965.76,4945.61,4918.07,4889.93,4862.83,4836.55,4817.13,4805.78,4792.87,4796.51,4824.52,4856.38,4893.49,4930.4,4971.34,5012.58,5047,5080.58,5109.88,5118.81,5126.58,5127.46,5119.19,5104.23,5082.8,5057.36,5035.99,5013.95,4994.66,4975.13,4956.75,4935.74,4915.93,4882.25,4862.89,4849.75,4833.27,4823.4,4823.5,4819.14,4816.87,4812.84,4814.38,4813.21,4809.35,4800.18,4788.17,4773.38,4751,4736.77,4713,4673.36,4613.74,4456.77,4308.93,4180.49,4079.67,3992.82,3911.38,3828.29,3758.29,3699.91,3700.21,3701.4,3696.61,3685.39,3672.42,3683.58,3721.28,3772.77,3833.78,3909.55,3994.85,4089.8,4191.41,4300.72,4401.67,4462.4,4493.97,4516.71,4529.72,4544.61,4555.49,4572.51,4584.23,4597.8,4610.98,4623.86,4637.83,4648.46,4660.35,4676.88,4687.9,4699.19,4709.87,4718.01,4723.19,4727.21,4727.27,4723.9,4720.42,4716.87,4711.87,4707.6,4711.48,4712.38,4715.43,4727.8,4739.74,4752.1,4766.88,4782.43,4799.21,4816.83,4834.71,4849.92,4861.39,4874.9,4887.6,4892.94,4898.18,4899.83,4892.74,4882,4870.59,4858.45,4842.69,4826.72,4813.73,4805.17,4799.04,4798.34,4797.2,4797.1,4797.99,4797.99,4800.18,4805.67,4809.31,4808.87,4807.34,4802.37,4798.65,4792.61,4785.22,4776.07,4765.56,4751.02,4738.28,4725.41,4714.46,4701.55,4689.09,4676.28,4664.92,4655.39,4648.29,4641.03,4639.45,4637.47,4634.03,4631.57,4630.24,4629.53,4628.42,4626.97,4625.65,4626.52,4632.39,4643.53,4658.83,4679.79,4701.7,4722.82,4743.58,4768.08,4791.98,4812.29,4825.31,4835.53,4843.15,4850.09,4855.2,4859.31,4858.87,4852.36,4844.08,4836.34,4829.19,4821.98,4813.3,4803.58,4796.72,4793.44,4791.8,4791.24,4794.81,4799.41,4803.36,4809.68,4817.17,4828.14,4836.22,4844.28,4851.43,4856.5,4860.16,4863.82,4861.68,4860.02,4850.19,4839.68,4827.4,4817.05,4804.88,4793.11,4780.32,4768.7,4759.03,4751.1,4744.7,4739.69,4735.92,4733.84,4732.76,4734.94,4737.88,4739.2,4738.89,4738.44,4735.59,4728.89,4719.75,4710.19,4698.91,4687.55,4677.94,4670.78,4663.55,4660.28,4657.45,4656.68,4656.67,4659.98,4660.86
6000,6000,6000,6000,6000,6000,6000,5933.42,5861.9,5753.45,5653.22,5560.78,5474.56,5389.82,5305.41,5221.34,5146.58,5089.83,5079.17,5098.17,5117.28,5135.56,5150.09,5158.71,5177.25,5170.25,5160.31,5124.03,5081.18,5047.02,5001.83,4964.72,4924.6,4864.09,4820.89,4781.16,4743.94,4715.86,4700.36,4680.73,4665.6,4655.03,4661.47,4676.39,4688.1,4715.81,4741.74,4771.76,4791.67,4812.23,4825.77,4841.28,4847.28,4848.02,4847.96,4839.19,4837.19,4819.21,4808.71,4798.93,4793.59,4790.71,4785.5,4786.33,4792.54,4801.72,4816.43,4832.61,4850.47,4870.53,4894.28,4922.14,4948.95,4970.73,4987.48,5000.71,5009.79,5019.76,5025.58,5031.31,5037.86,5047.92,5060.16,5075.01,5091.75,5109.06,5123.03,5134.69,5141.87,5146.89,5144.8,5136.84,5121.42,5094,5062.82,5029.28,4991.56,4955.68,4923.11,4893.41,4871.22,4857.38,4851.27,4854.49,4861.28,4870.26,4880.21,4890.23,4905.55,4922.19,4941.21,4963.19,4977.23,4981.84,4980.62,4968.62,4949.47,4917.17,4876.47,4832.13,4791.44,4759.56,4742.64,4741.41,4750.84,4771.76,4802.32,4839.94,4882.6,4920.77,4953.06,4978.76,5002.72,5016.86,5023.51,5022.98,5004.8,4977.5,4944.34,4907.26,4867.49,4828.1,4799.35,4778.4,4764.84,4764.86,4773.73,4787.68,4809.38,4838.17,4863.82,4889.09,4910.06,4926.12,4941.68,4951.1,4950.51,4935.57,4913.31,4889.97,4868.68,4847.85,4832.75,4824.96,4817.4,4827.32,4855.45,4883.07,4919.51,4953.93,4993.18,5030.25,5061.66,5094.47,5116.47,5123.07,5127.15,5125.55,5120.03,5102.41,5081.11,5051.74,5028.33,5012.01,4995.11,4978.07,4961.31,4944.05,4927.66,4900.92,4877.96,4862.18,4854.02,4840.24,4839.7,4835.09,4831.07,4826.87,4828.27,4826.14,4822.21,4812.13,4800.78,4784.56,4766.79,4748.77,4725.15,4681.75,4617.25,4452.59,4299.51,4166.42,4064.45,3906.74,3898.75,3816.59,3747.61,3692.72,3694.9,3696.53,3693.03,3681.81,3669,3680.32,3720.04,3772.88,3835.8,3911.27,3995.58,4088.5,4186.5,4291.46,4387.63,4448.58,4479.46,4502.19,4517.89,4534.96,4550.69,4569.69,4584,4602.16,4619.5,4636.35,4652.45,4664.15,4676.94,4691.86,4701.69,4711.2,4717.88,4721.35,4725.04,4725.73,4723.24,4717.78,4711.94,4708.75,4702.27,4699.16,4702.59,4704.87,4708.77,4721.81,4735.27,4749.73,4767.13,4783.47,4801.26,4817.95,4836.86,4851.02,4861.29,4874.54,4885.16,4887.71,4892.43,4893.46,4884.26,4874.21,4861.09,4848.23,4832.68,4817.1,4804.41,4795.62,4790.42,4788.22,4789.01,4791.05,4793.26,4791.53,4795.3,4801.83,4804.82,4803.21,4800.33,4793.85,4788.02,4779.29,4772.8,4762.94,4751.1,4738.51,4727.34,4715.4,4707.16,4696,4685.45,4675.72,4667.46,4661.34,4657.39,4653.76,4654.38,4656.68,4656.63,4657.77,4658.6,4659.25,4659.49,4659.35,4659.35,4659.62,4663.75,4674.36,4688.36,4708.43,4729.05,4747.18,4764.4,4785.7,4806.47,4825.63,4836.75,4844.25,4849.59,4855.09,4859.82,4864.43,4863.94,4857.72,4849,4842.6,4835.82,4829.48,4821.3,4812.45,4805.46,4803.06,4800.15,4799.58,4802.13,4805.09,4806.94,4811.24,4817.74,4825.43,4830.04,4836.79,4840.39,4840.4,4841.79,4839.92,4834.99,4829.15,4817.31,4803.95,4790.18,4779.13,4766.88,4757.25,4744.77,4733.71,4726.01,4720.22,4717.43,4715.69,4714.94,4716.43,4718.9,4723.8,4729.69,4733.57,4734.59,4734.09,4730.56,4724.27,4714.69,4702.92,4689.42,4676.57,4666.09,4658.15,4652,4647.93,4645.16,4643.29,4642.38,4644.71,4648.61
6000,6000,6000,6000,6000,6000,5906.47,5850.96,5786.32,5706.59,5604.58,5524.84,5453.04,5381.01,5307.07,5224.68,5146.17,5089.3,5078.99,5097.8,5113.27,5127.04,5140.34,5161.84,5169.32,5171.29,5158.32,5126.8,5083.45,5044.44,5003.94,4957.12,4924.62,4863.55,4820.02,4780.53,4742.1,4725.35,4697.32,4674.43,4661.71,4656.52,4655.63,4664.05,4676.16,4706.82,4740.81,4771.5,4806.21,4833.29,4844.21,4865.43,4879.11,4883.28,4896.33,4888.49,4867.88,4855.17,4841.78,4824.04,4812.56,4804.66,4795.72,4787.53,4787.69,4793.87,4806.41,4819.26,4835.07,4853.24,4875.94,4905.46,4937.94,4961.75,4982.61,4998.28,5012.71,5026.54,5037.63,5046.64,5053.84,5066.02,5080.42,5094.95,5113.42,5130.88,5144.62,5155.56,5162.77,5165.76,5161.31,5149.46,5129.65,5099.79,5061.88,5025.9,4983.88,4947.12,4913.12,4882.94,4861.5,4846.94,4843.01,4844.69,4850.27,4857.56,4866.55,4874.34,4888.48,4903.24,4920.23,4940.57,4954,4955.98,4951.08,4938.21,4917.31,4883.62,4842.57,4798.23,4759.53,4727.15,4711.12,4711.99,4722.2,4742.94,4771.8,4807.95,4850.42,4887.44,4919.79,4947.99,4973.9,4992.88,5004.04,5006.77,4993.27,4969.2,4939.06,4904.75,4866.51,4829.2,4798.69,4778.44,4764.94,4762.71,4768.66,4780.21,4798.92,4824.23,4847.12,4868.65,4886.92,4901.88,4916.93,4928.63,4927.8,4917.97,4900.24,4882.98,4867.04,4850.77,4840.96,4837.9,4838.11,4851.26,4879.6,4907.49,4942.48,4969.35,5004.84,5038.17,5070.82,5096.05,5113.44,5117.71,5120.2,5120.06,5110.32,5090.39,5069.32,5046.24,5023.83,5005.84,4992.1,4979.76,4966.77,4953.28,4941.16,4920.27,4899.8,4889.12,4874.16,4868.93,4861.19,4860.85,4855.58,4850.58,4849.4,4846.35,4839.17,4828.6,4813.49,4796.89,4778.4,4759.58,4732.47,4687.7,4618.49,4446.31,4290.38,4154.78,4044.41,3890.88,3886.73,3806.61,3738.14,3685.7,3689.47,3690.93,3687.35,3676.15,3663.45,3674.95,3715.71,3772.88,3836.53,3913.28,3998.12,4088.91,4185.02,4285.91,4379.57,4439.95,4470.63,4494.39,4511.48,4529.74,4548.32,4569.51,4586.96,4606.54,4627.41,4647.42,4666.39,4677.32,4690.11,4704.52,4712.37,4720.17,4723.94,4724.37,4724.4,4722.83,4718.25,4711.77,4704.95,4699.52,4692.21,4689.58,4694.53,4697.55,4700.95,4713.84,4727.48,4744.72,4762.27,4779.35,4795.54,4812.3,4830.31,4844.63,4854.57,4867.21,4875.85,4879.97,4886.96,4887.4,4880.36,4870.17,4858.29,4845.5,4828.94,4815.21,4800.58,4789.58,4784.73,4781.93,4781.18,4783.52,4786.29,4785.43,4788.35,4795.11,4798.98,4796.79,4793,4785.35,4778.7,4771,4763.48,4752.77,4741.24,4728.26,4717.99,4708.33,4700.28,4690.12,4681.66,4674.38,4668.87,4666.24,4665.76,4664.56,4669.23,4674.49,4679.32,4683.42,4685.56,4687.98,4690.53,4692.05,4691.96,4694.1,4696.83,4705.78,4717.91,4736.01,4754.57,4769.96,4782.78,4801.37,4817.95,4834.67,4843.49,4850.41,4853.39,4858.37,4862.06,4867.52,4866.8,4862.49,4854.76,4847.7,4842.66,4837.7,4829.67,4821.2,4813.94,4812.04,4810.33,4810.1,4811.47,4812.01,4810.71,4812.94,4816.61,4821.6,4822.62,4823.5,4822.54,4817.96,4814.71,4811.8,4802.98,4794.96,4781.62,4766.19,4751.97,4740.86,4729.53,4720.85,4710.02,4701.57,4695.56,4690.5,4690.16,4691.43,4692.36,4697.27,4702.57,4710.43,4719.35,4724.06,4727.51,4727.99,4723.52,4716.06,4706.88,4694.97,4680.45,4667.31,4656.35,4647.66,4640.9,4636.25,4632.61,4630.71,4629.68,4632.08,4635.73
6000,6000,6000,6000,5932.19,5883.29,5825.97,5797.73,5747.86,5660.35,5560.15,5495.99,5441.44,5382.67,5317.59,5243.22,5161.56,5108.78,5098.86,5115.65,5126.8,5134.39,5156.4,5164.86,5177.28,5172.48,5159.85,5128.21,5083.77,5044.9,4999.91,4966.51,4923.11,4868.8,4825.87,4787.02,4757.07,4740.52,4710.74,4685.18,4672.81,4661.26,4659.04,4658.94,4682.79,4725.83,4762.53,4793.53,4829.45,4861.86,4874.65,4906.53,4917.7,4927.03,4939.28,4930.65,4911.45,4886.74,4868.84,4848.94,4829.47,4812.82,4797.77,4783.62,4779.45,4783.16,4794.45,4802.9,4816.78,4833.51,4854.96,4887,4920.65,4948.98,4972.75,4989.12,5005.35,5023.18,5038.97,5051.06,5058.19,5070.46,5085.35,5103.04,5121.62,5139.2,5151.58,5158.91,5166.03,5167.43,5161.12,5146.37,5121.1,5085.01,5043.2,5003.97,4960.61,4923.29,4889.93,4862.08,4842.46,4832.39,4829.29,4833.08,4840.15,4847.81,4855.93,4864.14,4874.51,4889.18,4904.48,4924.25,4935.15,4933.7,4925.84,4910.73,4888.66,4855.75,4814.76,4771.52,4734.33,4706.27,4692.1,4694.22,4704.86,4724.41,4751.88,4787.83,4827.06,4861.55,4895.46,4923.79,4952.42,4973.85,4988.66,4995.44,4987.33,4969.18,4941.82,4910.85,4874.33,4839.5,4810.71,4788.84,4775.03,4770.92,4772.53,4781.37,4795.47,4816.58,4833.96,4850.37,4867.37,4878.83,4892.35,4903.18,4904.86,4899.04,4885.78,4872.38,4863.42,4853.86,4849.69,4851.1,4855.84,4872.6,4900.67,4931.74,4961.28,4993.43,5022.37,5050.2,5070.22,5095.33,5109.54,5111.27,5109.98,5105.58,5093.36,5073.89,5052.19,5031.17,5011.53,4996.5,4984.26,4975.73,4968.11,4960.19,4953.63,4938.17,4924.26,4911.63,4903.34,4897.12,4893.1,4887.79,4881.43,4874.89,4872.07,4868.17,4859.7,4844.78,4827.65,4808.98,4788.49,4764.39,4739.1,4692.68,4617.65,4442.17,4284.99,4148.39,4017.94,3821.78,3878.9,3799.24,3731.11,3678.65,3683.14,3684.15,3680.22,3667.45,3656,3667.76,3708.58,3770.05,3836.85,3916.24,4001,4092.55,4187.65,4287.42,4379.2,4439.52,4469.56,4494.41,4512.33,4532.19,4551.42,4575.57,4594.56,4616.03,4638.69,4660,4679.3,4691.99,4704.5,4718.27,4724.23,4732.18,4734.27,4732.33,4731.06,4727.64,4722.24,4715.64,4707.11,4700.24,4693.04,4690.13,4695.07,4695.51,4697.83,4707.37,4718.07,4733.88,4749.45,4763.13,4776.65,4789.32,4804.35,4818.31,4828.45,4842.2,4851.02,4854.82,4866.7,4871.33,4868.96,4864.53,4855.22,4843.91,4830.01,4817.86,4802.83,4787.83,4781.51,4776.41,4774.45,4776.76,4779.56,4779.23,4782.8,4790.7,4796.59,4796.62,4794.02,4786.52,4779.26,4771.71,4763.99,4752.21,4740.73,4729,4717.75,4707.95,4701.43,4691.68,4683,4678.47,4675.75,4675.52,4676.96,4678.2,4684.15,4692.33,4700.72,4707.45,4712.4,4716.48,4719.33,4723.38,4724.99,4727.13,4728.61,4735.31,4743.84,4760.21,4776.13,4787.55,4797.29,4812.43,4826.75,4841.52,4848.32,4854.13,4855.55,4859.12,4863.55,4870.56,4872,4867.41,4861.29,4855.02,4851.16,4848.33,4838.9,4828.89,4820.83,4818.22,4814.25,4811.41,4811.36,4809.25,4804.53,4803.86,4804.55,4805.01,4802.19,4801.13,4796.85,4790.62,4785.38,4780.87,4771.96,4763.09,4749.52,4735.24,4722.35,4711.02,4702.56,4695,4686.71,4679.15,4674.52,4672.24,4674.47,4677.18,4681.2,4688.13,4696.51,4706.27,4716.36,4724.52,4728.96,4731.21,4729.47,4723.22,4714.23,4702.85,4687.87,4672.96,4661.13,4651.34,4641.3,4635.27,4630.45,4625.74,4624.05,4629.88,4632.12
6000,6000,6000,5889.99,5830.79,5776.44,5727.06,5700.94,5662.13,5600.05,5516.5,5464.08,5423.57,5376.06,5316.3,5250.35,5176.8,5129.17,5119.83,5134.35,5141.42,5149.28,5154.94,5169,5172.38,5176.17,5162.4,5127.23,5084.98,5044.45,5005.61,4966.01,4922.21,4870.46,4829.12,4799.87,4777.84,4750.33,4728.26,4705.76,4687.29,4677.53,4665.75,4677.82,4707.25,4749.94,4785.66,4822.01,4859.24,4888.67,4917.7,4941.1,4960.05,4974.17,4972.16,4962.27,4938.93,4915.1,4894.08,4866.97,4846.96,4820.43,4798.26,4778.86,4774.15,4777.95,4787.33,4791.27,4801.66,4814.16,4834.88,4867.25,4902.61,4929.11,4952.72,4969.88,4989.21,5010.94,5029.49,5044.41,5053.25,5065.84,5080.96,5098.98,5118.5,5137.47,5149.38,5157.34,5159.85,5158.25,5148.75,5131.1,5100.62,5060.18,5016.05,4972.48,4927.38,4888.91,4858.07,4833.05,4816.04,4808.94,4809.23,4815.38,4823.79,4833.09,4840.64,4847.83,4858.73,4872.32,4886.07,4903.51,4912.37,4908.54,4900.92,4886.29,4863.9,4832.02,4793.67,4755.53,4721.78,4696.87,4686.26,4688.91,4699.73,4719.96,4744.72,4778.11,4814.18,4848.45,4878.83,4910.04,4937.73,4962.47,4979.87,4990.02,4986.33,4971.73,4949.13,4921.63,4888.19,4856.25,4828.88,4808.4,4794.07,4788.87,4786.46,4791.98,4799.92,4815.02,4826.35,4836.72,4849.13,4858.1,4869.34,4880.26,4882.78,4881.47,4872.27,4864.78,4861.27,4856.87,4857.49,4863.71,4871.9,4889.93,4917.14,4948.91,4977.75,5002.2,5027.08,5048.89,5067.24,5084.11,5096.17,5096.88,5092.9,5086.98,5074.01,5054.19,5032.85,5013.15,4997.17,4982.54,4971.65,4966.62,4964.45,4961.38,4957.72,4941.51,4933.15,4922.83,4913.45,4916.43,4914.3,4909.95,4903.16,4897.96,4894.3,4891.37,4881.44,4864.51,4845.17,4824.97,4802.57,4779.75,4748.33,4696.73,4618.17,4443.55,4284.94,4147.09,4007.22,3831.84,3871.76,3793.96,3726.02,3672.83,3677.73,3677.06,3672.87,3659.55,3648.43,3660.03,3700.88,3766.02,3837.65,3919.17,4005.3,4097.71,4193.15,4293.25,4385.33,4445.41,4476.14,4498.94,4518.22,4538.08,4558.93,4583.43,4603.99,4625.05,4649.18,4673.06,4694.49,4706.87,4720.44,4734.36,4740.77,4747.8,4749.61,4748.56,4746.56,4742.23,4737.45,4730.29,4720.96,4713,4702.71,4698.86,4701.1,4696.87,4695.73,4701.39,4708.19,4720.28,4732.2,4742.82,4752.41,4761.71,4774.19,4785.85,4797.01,4811.48,4821,4828.81,4845.51,4855.65,4861.08,4861.62,4857.02,4848.64,4837.18,4826.6,4811.19,4793.44,4784.82,4777.66,4774.4,4776.03,4778.81,4777.81,4782.22,4793.06,4801.2,4801.47,4799.96,4794.35,4788.05,4781.83,4774.93,4762.23,4750.36,4738.33,4726.96,4716.2,4709.25,4699.76,4690.31,4686.1,4684.66,4686.83,4690.39,4693.31,4700.91,4711.12,4722.31,4731.47,4737.01,4743.5,4748.73,4753.24,4756.28,4758.38,4758.22,4763.29,4770.46,4782.56,4793.96,4803.46,4808.26,4820.41,4831.49,4844.05,4848.04,4852.59,4853.62,4857.03,4861.88,4869.06,4871.13,4868.31,4863.5,4859.24,4856.6,4853.92,4845.09,4834.5,4824.35,4818.38,4813.1,4808.5,4805.22,4799.58,4790.69,4786.5,4783.97,4780.97,4775.87,4770.93,4764.39,4756.61,4750.48,4746.19,4740.45,4732.31,4721.4,4710.32,4699.39,4691.63,4685.57,4680.6,4674.85,4669.38,4668.22,4669.3,4672.35,4678.39,4685.33,4694.74,4704.41,4716.59,4728.52,4738.31,4746.33,4749.66,4749.75,4744.35,4738.43,4726.18,4711.86,4696.87,4684.02,4670.53,4658.99,4650.03,4641.34,4633.7,4630.08,4633.61,4634.28
6000,5937.32,5859.58,5787.01,5732.75,5682.93,5638.77,5611.94,5580.83,5533.5,5473.1,5434.98,5407.5,5366.88,5318.35,5260.83,5193.27,5151.82,5145.92,5158,5161.27,5170.6,5173.23,5162.68,5166.56,5175.17,5167.8,5131.17,5089.06,5050.04,5013.53,4973.93,4933.32,4882.42,4848.27,4817.88,4798.23,4774.69,4756.48,4738.43,4724.1,4703.93,4701.14,4719.7,4745.01,4792.97,4827.82,4862.64,4897.65,4931.14,4957.79,4982.41,5000.35,5010.19,5006.54,4993.47,4967.1,4939.03,4910.23,4882.55,4857.93,4824.76,4797.69,4775.03,4768.82,4770.13,4776.67,4779.38,4785.69,4795.88,4815.62,4849.01,4883.58,4910.59,4934.45,4952.47,4973.37,4997.24,5018.49,5035.87,5045.05,5055.96,5070.83,5089.59,5107.62,5124.38,5134.96,5139.43,5137.85,5134.25,5121.95,5101.52,5067.06,5024.15,4978.82,4932.36,4887.22,4850.42,4821.36,4800.04,4785.02,4781.25,4784.77,4792.94,4804.13,4815.07,4824.12,4831.86,4842.68,4856.43,4870.04,4885.69,4894.3,4891.52,4884.21,4872.1,4850.49,4821.47,4785.69,4752.44,4724.33,4702.12,4693.21,4694.25,4704.61,4722.46,4744.81,4772.97,4805.07,4834.6,4865.24,4895.88,4925.23,4952.55,4971.49,4984.84,4984.95,4975.56,4956.81,4934.64,4904.28,4874.57,4848.6,4829.72,4816.23,4809.42,4804.55,4803.62,4806.94,4817.06,4824.08,4831.2,4840.92,4847.81,4857.78,4868.86,4874.94,4878.38,4874.89,4871.36,4871.6,4871.55,4877.04,4885.98,4895.86,4913.74,4940.25,4968.29,4992.35,5012.58,5031,5045.66,5057.3,5067.07,5074.25,5072.2,5065.62,5058.37,5044.51,5026.19,5004.47,4987.61,4974.27,4963.86,4952.79,4951.31,4953.7,4955.51,4956.56,4950.14,4936.32,4932.55,4924.97,4932.3,4931.48,4927.84,4921.29,4917.79,4911.85,4907.96,4895.55,4877.23,4854.83,4832.18,4807.48,4782.65,4747.06,4694.43,4614.09,4448.69,4289.14,4151.35,3958.67,3799.06,3869.07,3791.57,3723.65,3669.79,3672.78,3671.51,3665.6,3651.16,3640.75,3653.28,3694.85,3761.74,3836.17,3920.95,4009.41,4102.08,4199.67,4299.62,4393.26,4451.88,4482.11,4504.63,4522.29,4540.48,4560.96,4585.09,4605.86,4628.11,4652.35,4677.26,4699.09,4713.81,4729.59,4745.1,4752.98,4762.23,4766.26,4766.81,4767.43,4763.65,4759.61,4752.87,4743.78,4735.96,4724.21,4718.13,4716.77,4708.46,4704.47,4704.94,4706.52,4712.8,4721.46,4726.6,4731.18,4736.91,4746.87,4756.63,4769.03,4785.42,4797.1,4807.12,4829.83,4847.98,4858.82,4864.99,4864.39,4859.75,4851.51,4843.48,4831.91,4813.81,4803.74,4794.25,4788.71,4788.14,4787.73,4783.66,4784.08,4791.34,4796.21,4797.71,4799.31,4796.87,4793.52,4789.2,4785.12,4776.05,4766.1,4755.05,4744.7,4733.26,4725.91,4715.63,4706.36,4701.03,4699.7,4701.63,4705.01,4707.39,4715.59,4725.34,4735.8,4745.97,4752.54,4760.06,4765.83,4770.83,4774.62,4777.66,4776.95,4780.4,4784.49,4794.68,4803.06,4809.78,4812.41,4821.27,4831.68,4841.93,4843.9,4846.29,4845.86,4849.28,4855.24,4864.3,4867.14,4865.6,4862.33,4860.76,4858.94,4858.29,4849.92,4838.33,4826.67,4820.59,4813.31,4806.01,4800.46,4790.81,4779.4,4771.08,4765.3,4758.91,4750.65,4743.6,4735.86,4727.45,4721.65,4719.39,4716.04,4710.02,4702.63,4692.77,4684.48,4679.54,4676.39,4673.81,4671.11,4667.77,4668.56,4672.4,4678.54,4685.33,4694.63,4705.91,4717.31,4730.48,4743.84,4756.23,4764.78,4770.5,4772,4769.68,4764.94,4753.75,4738,4723.11,4708.75,4694.38,4680.15,4668.32,4656.92,4646.56,4639.5,4639.98,4639
5926.52,5854.53,5767.22,5699.33,5646.55,5596.72,5553.09,5528.39,5503.52,5470.92,5420.34,5399.07,5378.61,5352.77,5317.58,5270.59,5221.09,5189.74,5188.04,5198.18,5197.23,5194.74,5197.44,5201.09,5180.71,5173.05,5174.12,5136.2,5092.55,5053.65,5016.76,4978.87,4932.67,4889.52,4870.07,4834.38,4810.41,4790.39,4775.14,4762.09,4746.59,4730.9,4737.32,4757.79,4786.35,4838.82,4874.42,4908.72,4943.51,4972.89,4998.21,5021.15,5041.81,5045.79,5043.24,5030.42,5005.33,4979.77,4955.18,4919.6,4888.07,4849.9,4817.66,4789.43,4774.52,4770.96,4771.9,4769.86,4772.37,4778.68,4797.05,4828.9,4863.58,4890.39,4914.55,4933.23,4952.52,4977.43,5000.97,5019.75,5030.77,5041.29,5057.47,5073.52,5088.3,5101.27,5106.69,5105.11,5098.84,5091.53,5079.35,5056.48,5024.4,4983.69,4943.32,4901.97,4864.75,4833.85,4808.96,4793.17,4783.48,4782.94,4789.12,4797.15,4808.44,4819.66,4828.19,4838.38,4849.74,4863.24,4874.73,4890.35,4900.02,4896.1,4888.62,4878.13,4857.84,4834.52,4803.35,4775.53,4753.28,4733.7,4725.93,4729.81,4737.9,4752.69,4771.84,4796.14,4821.55,4847.43,4874.43,4903.19,4930.73,4957.82,4977.23,4990.12,4991.51,4984.53,4968.8,4948.34,4922.04,4895.15,4872.36,4853.8,4842.65,4837.33,4828.46,4825.86,4824.67,4830.61,4835.19,4840.2,4849.7,4858.5,4870.33,4886.54,4896.86,4904.09,4904.03,4906.41,4909.74,4912.08,4916.69,4924.93,4934.46,4947.69,4968.07,4989.04,5004.9,5016.14,5024.98,5029.54,5032.41,5035.11,5036.92,5031.54,5025.02,5015.81,5004.26,4986.52,4969.37,4955.59,4945.58,4938.37,4932.48,4936.35,4941.87,4946.93,4951,4953.36,4945.96,4938.54,4931.33,4932.97,4930.16,4926.1,4918.94,4913.66,4904.73,4897.73,4883.69,4861.65,4837.67,4814.09,4788.29,4760,4720.46,4665.66,4585.08,4425.86,4275.68,4144.51,4006.03,3741.28,3862.16,3786.48,3721.03,3667.74,3671.23,3667.91,3661.23,3645.98,3634.87,3647.23,3687.92,3756.05,3834.28,3920.16,4010.45,4103.12,4200.39,4298.9,4392.24,4453.12,4482.01,4504,4520.87,4538.28,4556.96,4580.12,4602.03,4623.98,4648.79,4675.39,4697.09,4713.84,4732.64,4749.49,4759.88,4772.23,4779.52,4783.42,4786.36,4785.74,4784.35,4779.87,4773.84,4768.09,4757.55,4750.77,4748.31,4738.45,4731.08,4727.46,4724.26,4725.08,4724.7,4724.81,4724.11,4724.15,4730.52,4738.19,4749.94,4765.26,4777.06,4789.19,4813.35,4836.12,4850.76,4860.44,4863.02,4861.56,4856.46,4852.17,4843.16,4827.87,4818.2,4808.97,4803.21,4801.43,4797.42,4791.1,4787.95,4791.87,4794.51,4795.66,4797.21,4795.99,4795.05,4794.42,4794.31,4788.13,4781.34,4773.74,4765.35,4754.6,4747.79,4740.43,4731.43,4726.44,4725.73,4727.37,4728.83,4729.8,4735.72,4742.87,4752.59,4760.51,4765.98,4772.91,4778.04,4783.33,4787.29,4788.96,4787.04,4788.12,4790.04,4797.66,4802.42,4805.62,4806.55,4812.47,4820.06,4827.49,4827.89,4829.47,4828.55,4831.44,4837.53,4846.82,4852.31,4852.36,4851.3,4852.73,4853.8,4854.92,4847.37,4836.86,4825.8,4818.16,4810.63,4802.07,4794.13,4782.49,4768.44,4757.75,4749.33,4740.46,4730.08,4720.81,4711.7,4704.04,4699.26,4698.03,4696.84,4694.36,4690.33,4685.99,4681.77,4680.31,4679.33,4680.48,4681.17,4681.21,4683.83,4689.26,4695.71,4703.84,4714.47,4724.96,4736.62,4750.12,4763.14,4774.3,4782.65,4790.02,4794.11,4792.09,4788.83,4777.82,4763.14,4747.83,4733.69,4716.94,4701.29,4687.91,4674.3,4661.61,4653.2,4651.05,4649.11
5861.08,5783.47,5700.96,5635.76,5583.46,5531.19,5483.88,5461.12,5439.42,5406.41,5364.78,5354.06,5350.49,5338.18,5312.68,5272.39,5244.73,5221.45,5224,5233.19,5225.87,5218.05,5213.71,5207.21,5188.09,5167.84,5143.82,5113.75,5068.63,5028.39,4986.47,4951.19,4928.76,4880.06,4864.4,4843.92,4813.16,4804.2,4793.75,4782.45,4757.1,4754.17,4764.32,4778.83,4804.57,4854.52,4891.18,4924.85,4956.47,4985.91,5009.77,5036.33,5054.27,5058.85,5056.4,5046.1,5024.13,5002.21,4978.62,4944.33,4910.99,4874.94,4832.79,4799.66,4780.12,4770.56,4765.18,4757.99,4758.16,4762.36,4778.81,4808.16,4842.89,4870.34,4892.66,4911.45,4931.83,4955.85,4981.22,5001.65,5011.91,5023.9,5038.93,5053.49,5069.32,5081.69,5083.69,5076.9,5066.08,5055.6,5041.87,5019.54,4991.23,4954.48,4919.67,4887.06,4857.8,4835.4,4817.71,4807.73,4802.88,4806.97,4815.59,4826.4,4838.81,4850.62,4860.93,4872.92,4884.41,4896.66,4906.1,4922.52,4928.42,4925.9,4918.9,4910.44,4893.61,4872.22,4847.5,4824.06,4805.65,4790.71,4786.69,4791.76,4799.84,4812.74,4827.52,4848.06,4871.09,4890.68,4914.95,4940.72,4965.6,4991.25,5009.52,5022.72,5023.73,5019.29,5005.14,4987.74,4963.27,4938.61,4915.7,4897.37,4885.79,4877.37,4866.38,4859.26,4855.26,4857.76,4858.69,4861.78,4872.49,4882.82,4895.83,4915.44,4930.13,4941.72,4946.71,4951.98,4956.52,4958.45,4962.44,4967.2,4972.95,4980.68,4993.41,5003.97,5010.28,5012.66,5009.39,5003.7,4998.17,4991.71,4988.21,4979.5,4971.23,4962.62,4951.99,4938.27,4926.07,4916.08,4910.46,4906.79,4904.82,4910.99,4918.6,4925.19,4930.61,4930.09,4921.71,4918.6,4912.63,4915.38,4911.85,4910.8,4903.08,4897.28,4882.92,4868.25,4850.34,4819.9,4796.77,4774.58,4746.91,4715.82,4677.17,4623.71,4545.2,4397.47,4257.25,4135.04,4038.01,3349.01,3858.73,3785.55,3723.44,3671.92,3673.15,3668.69,3660.34,3643.55,3633.38,3644.66,3682.87,3754.21,3829.97,3913.35,4003.17,4097.18,4195.99,4295.93,4392.8,4460.23,4488.12,4509.5,4525.62,4541.83,4560.13,4581.99,4602.98,4623.83,4647.85,4674.81,4696.4,4714.67,4736.73,4757.3,4771.1,4786.6,4798.79,4806.14,4813.92,4815.33,4816.76,4814.65,4809.67,4805.73,4795.5,4787.82,4783.11,4770.15,4759.85,4751.15,4743.68,4739.07,4734.4,4729.57,4725.83,4721.4,4724.16,4731.12,4739.85,4752.96,4765.54,4777.52,4802.77,4826.13,4844.62,4856.9,4863.09,4865.06,4863.87,4861.39,4855.12,4841.94,4832.69,4823.05,4815.69,4812.05,4805.48,4797.88,4791.31,4791.43,4791.69,4791.32,4794.15,4794.92,4796.27,4800.09,4803.12,4801.36,4799.25,4795.43,4789.49,4781.27,4776.3,4770.36,4762.45,4758.5,4757.61,4756.97,4756.08,4754.4,4755.06,4758.05,4763.26,4769.17,4771.06,4777.47,4780.69,4784.77,4788.31,4790.75,4785.83,4785.81,4786.82,4792.71,4794.34,4796.27,4796.8,4801.96,4806.99,4812.31,4811.92,4812.78,4811.58,4815.09,4820.23,4828.78,4835.02,4836.01,4836.13,4839.65,4841.99,4842.68,4836.62,4825.86,4814.62,4806.14,4798.98,4790.6,4781.06,4769.36,4754.34,4742.57,4732.79,4722.78,4711.68,4701.85,4693.12,4686.93,4683.17,4684.96,4685.69,4685.5,4685.59,4685.56,4684.73,4686.17,4688.84,4692.5,4696.5,4699.55,4703.92,4711.77,4718.31,4727.02,4736.35,4747.67,4759.43,4770.42,4781.77,4792.05,4800.54,4807.78,4812.9,4813.32,4810.25,4800.75,4786.06,4771.83,4757.99,4740.06,4723.2,4708.22,4691.9,4677.58,4667.88,4664.19,4661.19
5789.2,5714.45,5639.02,5575.52,5522.4,5468.74,5417.58,5395.96,5369.59,5338.99,5307.33,5306.22,5313.73,5308.42,5303.97,5272.27,5241.34,5228.94,5233.57,5241.79,5236.27,5217.89,5202.46,5190.23,5177.49,5144.2,5112.11,5083.4,5049.71,5016.04,4987.65,4957.08,4935.69,4900.45,4889.96,4867.06,4852.26,4839.65,4829.08,4809.76,4794.63,4783.48,4790.19,4797.65,4818.25,4865.18,4897.53,4928.24,4959.09,4986.55,5009.06,5030.63,5052.3,5059.3,5059.74,5054.05,5038.11,5015.61,5001.86,4976.43,4936.45,4897.92,4859.11,4821.94,4797.5,4781.33,4771.6,4759.69,4757.04,4758.35,4773.12,4801.46,4832.26,4857.56,4880.85,4897.46,4919.09,4944.95,4970.15,4989.66,5002.89,5015.37,5033.09,5048.31,5063.36,5073.31,5075.67,5068.05,5055.22,5044.25,5029.02,5007.74,4980.73,4946.25,4916.74,4889.4,4867.33,4849.61,4838.53,4832.62,4831.38,4838.03,4850.48,4861.33,4874.69,4886.2,4897.27,4909.09,4921.76,4932.87,4942.96,4956.6,4963.72,4961.6,4957.22,4952.02,4937.66,4921.62,4901.18,4882.31,4870.49,4859.62,4857.67,4863.04,4869.95,4883.03,4897.17,4915.43,4936.03,4951.06,4970.7,4992.63,5013.18,5036.17,5051.98,5062.52,5063.56,5060.47,5049.5,5034.01,5011.85,4988.82,4967.84,4951.09,4938.15,4929.32,4915.98,4905.38,4898.87,4898.44,4897.38,4898.89,4908.25,4918.72,4932.23,4952.3,4968.76,4982.78,4989.47,4995.85,5000.06,5001.1,5002.71,5004.5,5004.55,5006.71,5010.95,5010.9,5007.05,4999.91,4986.03,4971.37,4956.79,4945.65,4937.57,4928.17,4919.85,4914.06,4906.18,4897.93,4889.45,4886.9,4885.15,4886.39,4886.32,4892.99,4902.05,4910.3,4915.43,4916.04,4911.5,4904.52,4899.11,4899.9,4896.05,4889.2,4879.38,4875.02,4856.77,4835.98,4813.32,4781.13,4748.17,4726.14,4697.31,4665.78,4627.37,4576.35,4504.66,4369.76,4240.13,4126.48,4035.57,2590.58,3860.22,3788.97,3729.49,3680.22,3678.24,3672.36,3662.99,3645.18,3634.72,3643.85,3685.16,3751.93,3825.78,3907.46,3997.68,4093,4193.76,4296.26,4399.51,4470.95,4500.25,4521.57,4537.88,4552.59,4570.25,4590.08,4609,4629.21,4652.81,4678.17,4699.95,4719.21,4743.57,4766.5,4783.99,4802.57,4817.42,4829.44,4840.73,4845.42,4849.62,4848.16,4845.63,4842.87,4832.49,4823.47,4816.93,4801.17,4787.69,4775.82,4763.89,4754.82,4745.46,4736.03,4728.4,4721.62,4719.96,4723.31,4730.44,4741.87,4752.85,4765.78,4789.87,4814.35,4834.44,4850.43,4859,4864.81,4867.57,4868.24,4865.66,4855.78,4847.06,4836.93,4829.87,4822.68,4813.11,4800.98,4791.08,4787.06,4783.18,4781.8,4784.52,4786.43,4791.5,4799.22,4805.1,4808.09,4810.88,4810.92,4809.63,4804.23,4801.62,4796.98,4789.88,4787.69,4785.59,4784.04,4779.36,4773.64,4768.86,4768.17,4768.51,4770,4769.87,4772.75,4774.8,4777.99,4779.3,4781.26,4776.62,4774.18,4775.16,4778.43,4779.11,4780.29,4779.79,4783.7,4787.44,4792.48,4790.64,4791.09,4790.38,4794.25,4799.41,4808.77,4814.81,4816.57,4816.99,4821.45,4825.11,4826.52,4820.17,4809.1,4797.46,4788.19,4781.58,4773.15,4764.2,4750.83,4736.97,4726.28,4716.84,4706.06,4696.31,4688.48,4681.44,4676.49,4675.25,4679.84,4684.34,4687.04,4690.3,4693.59,4694.97,4701.33,4706.48,4711.49,4717.9,4722.58,4728.11,4736.71,4743.72,4752.58,4761.71,4773.29,4781.52,4790.76,4799.47,4808.77,4816.72,4824.88,4830.61,4831.12,4830.27,4822.44,4808.5,4795.45,4782.04,4764.88,4746.25,4729.82,4713.42,4697.99,4685.89,4680.88,4676.23
5698.23,5625.2,5557.31,5498.05,5445.42,5390.56,5342.71,5318.72,5294.63,5262.35,5248.4,5250.41,5261.36,5264.65,5272.28,5258.35,5236.58,5225.93,5237.48,5258.32,5237.88,5215.05,5193.02,5176.14,5146.23,5130.94,5097.17,5052.62,5024,4985.66,4980.97,4959.02,4944.07,4928.61,4912.47,4889.81,4885.96,4876.23,4860.49,4852.55,4842.19,4821.12,4819.23,4820.46,4833.74,4876.12,4903.92,4929.65,4956.42,4979.44,4998.6,5018.77,5040.7,5047.85,5051.04,5048.2,5038.3,5022.68,5015.54,4995.44,4962.23,4919.45,4882.64,4837.79,4811.96,4787.72,4770.29,4752.99,4746.23,4746.31,4759.1,4783.95,4813.73,4839.27,4860.7,4878.17,4901.85,4927.41,4954.9,4976.68,4990.89,5004.77,5024.33,5041.23,5056.95,5068.1,5070.03,5062.61,5050.1,5038.12,5022.7,5002.61,4976.69,4948.42,4922.39,4900.14,4886.48,4875.51,4869.97,4868.24,4870.26,4879.52,4892.93,4905.97,4919.65,4928.7,4938.62,4949.98,4962.44,4972.23,4980.98,4992.43,4999.49,5000.56,4998.44,4995.82,4985.47,4971.33,4954.65,4940.64,4933.89,4927.16,4926.37,4932.08,4940.81,4952.87,4966.15,4983.31,5001.32,5014.09,5029.46,5050.15,5067.47,5086.02,5098.26,5106.38,5106.21,5103.24,5094.8,5081.19,5061.62,5040.85,5021.93,5004.81,4992.87,4984.19,4968.82,4956.21,4946.79,4943.55,4939.08,4940.23,4954.81,4964.56,4976.96,4997.77,5013.94,5028.11,5037.02,5042.57,5045.38,5045.42,5043,5039.21,5033,5027.46,5022.1,5012.47,5000.11,4984.39,4959.25,4936.99,4918.89,4902.93,4890.53,4881.69,4874.83,4869.87,4865.3,4861.31,4857.16,4856.87,4859.19,4863.33,4864.9,4872.99,4881.02,4886.66,4890.67,4891.47,4889.62,4883.42,4878.49,4879.3,4876.43,4868.63,4862.44,4850.61,4829.88,4805.89,4781.35,4743.68,4709.1,4680.92,4653.56,4620.85,4583.4,4536.26,4468.61,4346.39,4225.67,4119.78,4033.02,1900.95,3863.78,3794.99,3737.8,3692.38,3685.77,3679.62,3669.19,3650.19,3639.84,3644.97,3682.44,3747.82,3819.29,3899.67,3989.02,4085.85,4187.78,4293.42,4402.28,4478.5,4509.2,4530.6,4547.68,4563.13,4578.99,4597.19,4615.65,4633.76,4655.51,4679.67,4702.4,4724.66,4750.59,4776.99,4796.77,4820.35,4840.58,4855.13,4868.83,4876.12,4883.62,4885.36,4883.68,4881.32,4871.01,4862.21,4852.42,4833.67,4817.57,4801.23,4785.29,4771.46,4757.82,4743.76,4731.49,4721.25,4715.69,4716.17,4720.92,4728.69,4737.95,4749.97,4773.5,4798.56,4820.65,4836.62,4847.59,4855.7,4863.07,4869.72,4870.5,4864.35,4857.75,4849.03,4842.47,4834.82,4820.83,4805.65,4792.73,4784.47,4777.04,4773.82,4775.92,4776.62,4783.98,4795.01,4804.07,4811.5,4817.37,4823.08,4825.9,4824.26,4825.34,4824.26,4819.5,4817.52,4816,4811.47,4804.46,4794.56,4785.74,4779.6,4774.96,4771.76,4766.22,4767.09,4767.82,4768.64,4769.27,4770.49,4766.19,4763.3,4763.26,4766.2,4765.57,4766.82,4767.74,4772.16,4774.89,4778.55,4777.17,4776.79,4776.58,4780.69,4786.21,4793.87,4798.99,4799.88,4801.11,4805.9,4807.49,4809.23,4802.64,4792.67,4779.47,4769.75,4765.12,4757.15,4747.06,4736.51,4722.88,4711.87,4703.1,4693.81,4684.75,4676.26,4670.15,4668.23,4668.34,4674.59,4682.33,4686.25,4692.45,4699.56,4705.6,4718.37,4725.13,4738.58,4747.4,4753.97,4754.33,4763.56,4772.55,4780.79,4789.64,4800.06,4808.4,4815.08,4821.86,4829.03,4836.2,4844.6,4851,4851.59,4852,4845.95,4834.88,4822.96,4809.33,4792.85,4775,4757.57,4739.48,4722.51,4709.47,4704.17,4698.19
5654.88,5584.4,5521.25,5464.73,5412.63,5357.37,5309.93,5288.04,5261.85,5229.02,5213.98,5214.1,5222.19,5228.21,5238.61,5234.68,5215.23,5199.85,5217.38,5228.98,5207.63,5181.7,5157.41,5140.01,5108.28,5086.51,5064.43,5030.72,4985.17,4970.08,4955.66,4953.52,4944.28,4936.88,4928.51,4924.7,4914.28,4908.28,4900.42,4887.92,4877.36,4865.6,4848.69,4845.26,4854.35,4891.93,4915.31,4937.43,4959.73,4978.83,4994.88,5017.81,5033.94,5043,5047.09,5049.02,5044.17,5034.35,5033.57,5014.52,4983.68,4946.85,4905.16,4860.12,4824.02,4796.65,4772.79,4749.47,4738.98,4735.73,4746.62,4769.95,4795.85,4819.5,4839.92,4859.03,4882.6,4909.73,4939.49,4962.99,4980.9,5001.24,5024.05,5044.4,5061.77,5073.54,5075.83,5068.88,5057.12,5046.02,5031.53,5012.6,4989.51,4963.9,4942.37,4924.68,4916.55,4911.83,4909.04,4910.88,4916.35,4926.59,4941.14,4953.76,4967.51,4975.11,4982.57,4992.97,5003.55,5013.05,5020.24,5029.82,5037.04,5039.83,5041.13,5042.52,5034.98,5024.19,5011.66,5003.36,4999.74,4996.51,4995.6,5001.03,5009.63,5021.84,5033.86,5050.06,5063.93,5073.44,5086.74,5104.05,5119.18,5133.79,5144.9,5149.98,5149.36,5146.1,5140.39,5127.23,5108.91,5090.26,5073.46,5057.14,5044.49,5034.26,5018.7,5005.32,4995.53,4990.76,4991.04,4991.13,5005.88,5016.39,5029.42,5050.62,5066.96,5080.37,5087.64,5091.31,5090.25,5086.42,5078.76,5068.49,5055.66,5040.23,5027.35,5006.03,4984.55,4960.14,4929.27,4901.31,4878.47,4860.5,4847.76,4839.6,4834.21,4833.18,4831.85,4831.77,4832.8,4835.52,4838.8,4845.69,4847.15,4856.23,4863.26,4868.13,4873.11,4875.81,4874.46,4871.03,4867.54,4871.18,4867.62,4859.71,4848.46,4836.5,4812.29,4787.48,4759.88,4723.31,4685.02,4649.32,4619.12,4583.92,4543.49,4497.51,4434.84,4323.62,4210.28,4111.6,4029.89,3673.3,3869.38,3803.27,3747.92,3704.57,3695.12,3687.67,3676.88,3656.09,3646.46,3646.85,3680.66,3742.51,3813.07,3891.82,3981.34,4076.39,4179.42,4288.71,4402.5,4483.23,4515,4537.3,4554.85,4570.5,4586.19,4603.1,4620.78,4638.5,4658.58,4683.15,4705.17,4727.5,4756.76,4784.57,4808.18,4833.04,4857.15,4874.97,4891.51,4902.94,4911.31,4913.86,4914.82,4913.64,4904.92,4894.18,4883.71,4863.67,4844.98,4825.61,4805.62,4788.21,4770.53,4752.15,4737.62,4724.1,4715.44,4711.88,4713.1,4718.06,4724.72,4735.02,4755.32,4778.99,4800.39,4817.9,4830.72,4841.31,4852.57,4862.81,4868.55,4867.88,4866.1,4860.44,4855.95,4846.91,4831.49,4813.61,4796.7,4783.92,4772.63,4765.08,4765.69,4766.84,4774.86,4787.82,4799.84,4811.55,4823.32,4834.25,4840.97,4844.8,4848.21,4851.4,4849.02,4847.87,4845.82,4839.71,4830.13,4816.53,4800.21,4788.47,4776.26,4767.52,4758.62,4755.36,4754.08,4754.95,4754.05,4756.05,4752.61,4750.86,4752.79,4756.84,4756.57,4758.67,4760.92,4765.88,4768.37,4771.29,4769.96,4768.21,4768.03,4772.38,4775.43,4781.58,4786.73,4785.36,4786.02,4790.42,4792.52,4791.51,4785.74,4777.27,4763.33,4753.78,4751.12,4744.79,4735.52,4726.48,4714.75,4703.91,4696.07,4689,4680.35,4672.32,4667.92,4665.74,4668.27,4677.1,4685.65,4691.56,4701.4,4710.59,4723.29,4734.87,4749,4759.59,4770.05,4779.72,4790.4,4793.07,4801.81,4812.04,4821.42,4831.69,4837.91,4843.02,4848.5,4854.19,4859.1,4868.4,4874.65,4876.09,4876.6,4872.52,4862.44,4853.24,4842.08,4825.92,4808.21,4790.09,4770.56,4751.99,4739.76,4731.69,4725.24
5626.91,5559.89,5502.6,5452.46,5407.92,5358.04,5313.05,5291.39,5265.66,5230.43,5214.41,5208.21,5207.06,5206.63,5203.58,5195.94,5183.38,5163.46,5174.08,5169.59,5159.38,5134.07,5108.27,5080.73,5057.28,5029.88,5012.53,4986.69,4971.04,4945.55,4943.83,4949.14,4947.07,4940.02,4948.1,4951.31,4937.47,4936.32,4935.6,4923.84,4914.54,4901.84,4891.57,4873.73,4877.31,4910.34,4930.61,4948.65,4967.16,4980.02,4993.03,5009.27,5028.98,5038.51,5043.74,5048.37,5048.49,5048.88,5045.2,5035.06,5005.71,4974.14,4929.23,4881.96,4842.04,4809.66,4779.63,4754.01,4740.43,4734.34,4742.52,4760.32,4783.72,4803.85,4821.69,4840.6,4865.3,4894.79,4926.44,4954.09,4975.31,4998.48,5026.54,5051.9,5075.58,5089.1,5091.73,5084.14,5073.57,5063.94,5051.44,5033.29,5014.39,4990.44,4973.02,4959.46,4956.28,4955.89,4958.02,4961.37,4968.97,4979.57,4994.03,5006.7,5017.45,5021.38,5026.06,5033.31,5042.26,5047.6,5051.21,5057.47,5064.11,5068.27,5071.75,5076.91,5072.55,5065.04,5058.08,5054.01,5056.35,5056.22,5057.69,5063.06,5072.77,5083.8,5094.98,5110.57,5123.51,5129.37,5138.48,5152.93,5165.18,5173.7,5180.81,5183.85,5181.42,5178.81,5175.77,5164.47,5149.69,5131.78,5117.37,5101.83,5090.23,5081.07,5065.81,5052.99,5043.54,5038.39,5039.97,5041,5053.87,5068.71,5081.56,5101.79,5117.19,5127.85,5134.91,5135.56,5130.26,5123.32,5110.26,5094.64,5073.62,5050.63,5026.83,4997.05,4966.63,4937.45,4898.06,4866.41,4841.48,4822.08,4807.53,4802.11,4800.49,4802.31,4803.78,4809.16,4813.04,4818.89,4823.92,4832.01,4834.2,4842.6,4850.22,4854.85,4859.28,4866.34,4868.83,4863,4862.51,4866.03,4867.11,4858.24,4842,4832.2,4805.65,4775,4743.85,4702.35,4664.6,4626.09,4587.72,4548.52,4505.68,4460.58,4401.28,4300.04,4192.76,4100.03,4023.63,3944.95,3873.1,3810.13,3757.06,3716.55,3704.21,3695.88,3684.51,3663.63,3653.35,3649.64,3677.5,3735.96,3804.64,3879.48,3966.98,4061.82,4165.91,4276.87,4396.2,4483.19,4517.49,4542.22,4562.12,4578.27,4594.66,4611.87,4629.96,4647.74,4666.87,4690.25,4713.77,4737.68,4766.11,4794.97,4819.53,4844.46,4870.27,4890.01,4908.83,4918.42,4928,4931.44,4934,4933.59,4925.44,4914.47,4902.33,4883.45,4864.01,4842.68,4822.07,4801.41,4782.39,4762.47,4745.59,4730.81,4719.34,4712.8,4710.7,4712.5,4715.41,4722.4,4738.31,4757.29,4777.35,4792.99,4805.75,4819.66,4834.82,4848.39,4859.48,4866.56,4870.96,4869.61,4868.66,4860.69,4844.59,4827.11,4806.04,4789.16,4772.96,4762.35,4760.3,4760.29,4768.4,4783.16,4797.6,4812.61,4829.3,4845.27,4858.02,4866.98,4875.27,4882.29,4881.83,4883.24,4881.66,4872.1,4858.06,4839.96,4817.6,4799.13,4779.83,4764.31,4750.55,4742.88,4738.95,4737.2,4735.64,4739.18,4738.65,4737.71,4742.6,4747.67,4748.78,4752.61,4757.7,4762.53,4765.31,4767.12,4763.17,4761.39,4759.7,4762.73,4763.72,4767.31,4768.93,4767.38,4766.46,4770.47,4771,4769.32,4763.29,4755.49,4744.09,4736.27,4735.18,4730.05,4723.85,4717.15,4708.4,4700.34,4694.51,4688.75,4681.72,4675.68,4672.48,4673.42,4676.76,4687.18,4697.49,4704.81,4714.03,4726.12,4735.22,4748.39,4767.55,4779.36,4792.81,4803.4,4816.82,4829.32,4831.29,4841.83,4850.5,4859.53,4865.9,4867.93,4871.29,4874.49,4878.78,4886.18,4891.93,4893.88,4894.66,4892.1,4884.4,4877.43,4867.28,4854.51,4837.25,4821.05,4802.12,4783.21,4770.29,4766.58,4758.49
5619.99,5553.56,5501.77,5460.08,5420.95,5376.34,5334.72,5313.98,5283.09,5246.07,5216.77,5203.8,5186.2,5176.05,5158.45,5149.83,5130.9,5110.04,5116.36,5116.04,5098.76,5075.85,5052.97,5036.14,5018.13,4998.88,4978.9,4961.14,4947.25,4941.28,4942.2,4948.24,4952.66,4952.62,4979.46,4987.58,4971.85,4972.16,4977.08,4964.03,4952.76,4938.48,4924.23,4899.09,4896.77,4924.79,4938.44,4951.36,4963.71,4970.97,4979.34,4996.56,5009.6,5020.96,5029.13,5035.9,5041.69,5047.58,5053.08,5048.79,5023.22,4986.81,4946.03,4898.37,4855.82,4819.62,4784.65,4755.84,4739.38,4731.38,4736.65,4751.86,4771.88,4788.8,4804.91,4826.98,4853.56,4885.2,4919.33,4953.31,4980.08,5010.01,5040.93,5064.93,5095.32,5112.09,5114.04,5106.95,5101.31,5094.04,5082.06,5066.87,5049.61,5029.78,5015.62,5006.46,5008.84,5011.63,5015.13,5019.79,5026.42,5035.57,5048.1,5057.3,5061.9,5059.96,5058.35,5060.48,5066.43,5066.97,5067.28,5072.22,5077,5083.48,5091.59,5099.44,5098.32,5093.58,5088.59,5089.04,5095.69,5099.84,5102.04,5109.67,5120.1,5133.15,5147.26,5163.31,5176.66,5179.98,5186.83,5200.69,5210.68,5218.45,5223.12,5225.17,5223.15,5223.15,5222.13,5214.27,5204.28,5190.43,5180.25,5169.51,5161.82,5154.48,5141.91,5130.21,5124.03,5120.5,5125.75,5131.66,5139.77,5144.92,5162.7,5178.5,5188.31,5193.81,5195.7,5190.34,5176.14,5161.88,5141.97,5118.08,5092.4,5060.06,5027.17,4989.89,4953.24,4916.97,4874.23,4838.84,4811.54,4791.05,4777.73,4775.09,4776.69,4780.82,4786.49,4793.8,4801.18,4809.57,4818.36,4827.16,4831.51,4841.21,4849.32,4854.42,4857.98,4868.26,4873.62,4872.71,4869,4875.01,4870.23,4858.9,4846.64,4826.07,4800.14,4762.67,4726.92,4682.56,4639.34,4595.56,4552.98,4508.97,4465.03,4420.83,4364.44,4270.72,4170.17,4081.62,4010.99,3937.32,3873.15,3814.95,3763.93,3726.57,3712.73,3703.45,3692.61,3672.56,3661.93,3654.05,3675.77,3730.41,3794.91,3865.49,3951.44,4043.65,4147.29,4260.03,4383.2,4478.11,4517.64,4545.15,4569.33,4588.02,4605.4,4624.39,4643.47,4662.31,4682.24,4705.28,4728.69,4754.02,4781.77,4808.74,4832.72,4857.47,4881.74,4900.98,4918.43,4929.4,4937.47,4941.57,4944.24,4943.74,4936.56,4924.78,4913.1,4893.32,4874.91,4855.11,4832.38,4811.34,4791.09,4769.38,4753.36,4738.23,4724.82,4717.14,4712.25,4709.22,4709.58,4713.31,4723,4738.2,4752.78,4767.09,4780.49,4793.53,4811.02,4828.32,4844.29,4861.34,4872.34,4878.33,4881.88,4874.67,4859.32,4841.62,4819.54,4796.82,4777.35,4763.84,4758.27,4758.17,4768.3,4785.79,4800.93,4820.89,4842.05,4862.95,4880.89,4893.64,4904.98,4916.85,4920.44,4924.97,4922.97,4911.6,4895.17,4872,4844.89,4820.76,4795.19,4774.17,4754.5,4742.66,4737.16,4731.67,4729.49,4733.76,4734.83,4735.57,4741.44,4747.51,4749.89,4754.69,4760.09,4764.02,4764.54,4763.07,4759.31,4755.71,4752.46,4753.27,4751.42,4752.16,4751.93,4748.14,4746,4748.57,4747.56,4749.54,4745.23,4736.36,4726.88,4721.69,4724.99,4722.36,4719.37,4716.53,4710.59,4706.04,4701.79,4698.4,4692.3,4686.64,4684.36,4685.17,4688.13,4698.21,4707.66,4712.87,4723.34,4733.65,4744.18,4758.6,4779.09,4792.52,4806.86,4819.7,4836.25,4849.53,4862.31,4864.25,4872.43,4881.18,4885.26,4885.37,4886.63,4886.34,4887.48,4891.48,4895.31,4895.44,4895.04,4893.11,4886.97,4881.53,4875.66,4866.42,4854.35,4841.6,4824.68,4809.63,4795.12,4791.91,4789.06
5635.07,5575.86,5530.29,5492.1,5456.64,5416.61,5377.42,5362.22,5334.68,5289.15,5255.91,5225.7,5203.35,5183.93,5153.66,5132.47,5095.9,5069.66,5077.09,5067.78,5055.09,5035.15,5017.25,5006.52,4996.44,4982.69,4971.12,4961.47,4962.05,4958.35,4968.09,4982.67,4993.11,4999.81,5032.94,5043.57,5028.52,5029.13,5030.25,5013.88,4981.03,4976.58,4956.84,4925.8,4914.75,4937.81,4946.43,4956.65,4961.29,4964.39,4971.06,4984.71,4994.59,5003.27,5012.61,5021.19,5029.73,5041.17,5050.91,5050.05,5027.96,4998.24,4960.51,4913.21,4862,4818.12,4778.06,4745.47,4726.99,4716.84,4719.86,4730.93,4747.19,4765.77,4783.38,4802.34,4833.6,4868.65,4908.92,4946.23,4987.56,5024.63,5061.05,5087.66,5119.81,5137.84,5139.63,5132.1,5128.84,5120.53,5109.97,5098.1,5083.93,5066.88,5056.76,5054.13,5063.23,5069.07,5075.04,5079.69,5085.1,5091.52,5098.89,5101.6,5098.31,5087.48,5080.35,5076.54,5076.96,5074.38,5074.97,5077.86,5084.2,5092.8,5105.72,5118.29,5120.74,5119.1,5118.42,5122.29,5132.74,5142.01,5146.11,5154.1,5169.38,5184.07,5198.74,5218.04,5231.37,5233.04,5237.12,5249.72,5257.96,5261.56,5264.8,5265.53,5263.47,5264.4,5267.52,5262.74,5255.47,5247.37,5241.68,5236.37,5231.98,5229.84,5221.16,5214.35,5214.42,5215.3,5226.38,5235.95,5243.55,5248.33,5250.34,5266.72,5268.66,5265.22,5259.41,5242.01,5218.27,5193.97,5166.64,5134.14,5099.24,5060.7,5017.94,4971.63,4929.75,4888.91,4843.96,4806.38,4779,4759.1,4746.13,4746.72,4751.1,4757.66,4767.99,4779.9,4792.17,4802.24,4812.5,4825.56,4834.66,4846.54,4857.04,4864.36,4871.32,4886.21,4896.36,4900.97,4902.93,4897.66,4892.33,4883.34,4864.7,4843.65,4802.93,4761.64,4719.12,4668.2,4619.38,4569.64,4522.7,4473.81,4427.23,4384,4327.99,4240.35,4145.41,4061.87,3995.98,3926.63,3871.05,3816.63,3767.1,3733.77,3718.1,3708.98,3699.17,3680.47,3669.62,3658.26,3674.92,3724.36,3784.69,3851.57,3934.16,4025.25,4127.73,4242.13,4367.03,4470.64,4516.68,4549.8,4578.11,4599.29,4620.26,4639.29,4660.81,4681.22,4701.33,4721.68,4743.51,4768.07,4793.97,4817.97,4840.99,4861.89,4883.12,4898.64,4915.81,4924.15,4931.68,4936.56,4939.21,4940.79,4936.42,4925.83,4915.61,4900.89,4883.8,4867.05,4845.47,4825.56,4807.45,4786.79,4770.06,4755.98,4742.66,4732.45,4724.26,4719.16,4715.37,4714.06,4718.41,4726.07,4735.3,4745.65,4756.68,4770.98,4787.56,4807.37,4827.96,4850.37,4867.67,4880.6,4889.05,4885.75,4871.23,4854.5,4831.08,4806.51,4781.31,4766.33,4758.87,4757.29,4765.9,4784.04,4799.79,4821.07,4843.81,4868.61,4889.99,4905.69,4919.65,4933.81,4939.09,4945.7,4944.17,4931.63,4910.92,4887.02,4856.14,4826.5,4797.58,4773.05,4750.08,4734.25,4725.93,4722.7,4721.6,4727.19,4731.48,4733.75,4741.64,4750.15,4753.41,4760.97,4767.47,4769.76,4768.46,4765.71,4759.49,4756.1,4751.66,4749.83,4746.04,4743.34,4740.85,4735.63,4731.59,4731.94,4728.83,4730.21,4726.99,4724.29,4712,4709.81,4716.35,4718.29,4718.86,4719.64,4715.77,4713.7,4712.6,4711.78,4707.99,4700.83,4697.46,4698.25,4700.26,4708.98,4714.2,4716.92,4725.92,4734.37,4744.5,4758.58,4769.63,4791.8,4806.08,4821.53,4839.25,4854.94,4867.53,4878.6,4877.65,4884.9,4888.52,4886.88,4885.95,4882.94,4878.52,4879.52,4879.96,4876.56,4873.78,4872.43,4868.03,4865.68,4860.86,4856.08,4849,4840.02,4827.77,4816.98,4806.6,4809.01,4802.69
5661.54,5609.36,5570.35,5540.93,5512.36,5474.19,5435.26,5419.86,5388.21,5341.65,5300.79,5268.2,5220.52,5190.53,5164.34,5130.88,5078.01,5044.92,5037.5,5032.91,5019.84,5004.72,4989.75,4987.08,4985.29,4979.08,4973.85,4978.7,4986.35,4993.31,5003.38,5017.75,5026.35,5043.34,5080.75,5091.8,5086.85,5084.48,5068.54,5043.72,5009.16,4994.36,4966.9,4944.17,4919.97,4931.82,4938.91,4949.96,4952.44,4953.81,4957.67,4969.59,4977.17,4983.75,4993.14,5003.23,5014.54,5029.8,5045.42,5047.39,5028.72,4999.08,4964.67,4920.37,4869.82,4816.63,4771.21,4735.71,4713.93,4702.06,4700.5,4706.73,4718.62,4725.26,4743.7,4764.56,4795.33,4834.96,4879.3,4931.71,4978.36,5032.74,5079.05,5115.25,5145.99,5166.69,5172.74,5165.34,5160,5154.22,5143.28,5133.09,5122.41,5109.82,5103.68,5108.76,5123.09,5131.27,5138.98,5142.51,5144.41,5143.04,5143.23,5138.63,5123.22,5101.73,5084.4,5076.16,5072.32,5067.85,5066.53,5069.81,5078.49,5090.21,5106.33,5120.8,5123.77,5123.83,5124.36,5131.08,5142.77,5154.36,5164.09,5178.31,5198.2,5217.65,5239.8,5262.57,5280.2,5282.29,5284.97,5294.77,5299.29,5298.67,5299.29,5297.48,5294.15,5295.11,5298.52,5298.28,5294.67,5289.32,5290.63,5290.23,5289.35,5291.44,5290.4,5290.55,5297.68,5302.61,5317,5327.42,5337.17,5336.85,5339,5338.66,5335.41,5320.61,5303.36,5278.08,5244.85,5210.59,5175.69,5135.88,5094.87,5047.83,5000.12,4949.84,4904.5,4861.89,4815.33,4778.12,4752,4733.98,4722.1,4727.38,4736.85,4746.58,4760.1,4775.69,4791.33,4805.69,4818.38,4834.09,4846.34,4861.39,4874.5,4883.08,4893.31,4909.82,4925.13,4934.2,4938.43,4937.53,4927.02,4913.13,4898.03,4873.7,4832.47,4778.71,4731.21,4673.12,4618.54,4561.29,4508.3,4452.94,4402.9,4357.79,4299.86,4212.61,4119.46,4038.07,3975.51,3911.37,3863.76,3813.16,3767.02,3738,3721.5,3712.15,3704.01,3687.77,3676.39,3661.91,3674.67,3717.88,3773.47,3836.39,3915.42,4004.78,4105.16,4219.02,4348.44,4458.65,4514.13,4553.75,4587.74,4612.35,4635.53,4660.42,4683.15,4704.46,4724.79,4743.82,4765.94,4788.06,4808.04,4828.5,4845.27,4859.31,4874.01,4885.1,4897.29,4903.04,4910.28,4914.35,4916.37,4919.4,4917.43,4911.62,4904.93,4894.29,4880.98,4867.4,4849.36,4832.16,4816.52,4797.54,4783.65,4769.98,4756.9,4745.11,4733.17,4723.89,4716.92,4711.23,4708.83,4709.97,4713.83,4720.15,4731,4743.79,4762.55,4782.79,4803.85,4828.68,4851.13,4869.98,4883.45,4883.1,4874.88,4861.52,4842.12,4819.25,4795.76,4777.44,4766.05,4761.07,4767.95,4780.99,4792.66,4811.72,4833.5,4857.87,4881.09,4899.01,4913.15,4927.9,4935.79,4942.61,4943.02,4930.49,4911.31,4886.34,4854.77,4825.44,4796.5,4770.78,4745.91,4730.35,4721.65,4718.78,4718.86,4726.45,4733.3,4737.66,4746.33,4756.7,4762.77,4770.31,4777.06,4777.45,4774.43,4769.54,4762.95,4758.29,4752.74,4748.87,4743.47,4739.74,4735.48,4729.83,4725.62,4724.44,4720.23,4722.41,4719.25,4717.36,4710.77,4707.57,4715.31,4718.4,4721.29,4723.82,4722.16,4721.58,4721.72,4721.66,4716.96,4710.58,4705.96,4704.97,4705.02,4713.33,4715.85,4715.87,4722.53,4729.84,4739.15,4752.79,4763.04,4780.22,4799.83,4817.12,4835.61,4851.93,4866.31,4877.53,4876.24,4884.23,4887.77,4885.1,4879.83,4876.38,4870.55,4867.02,4863.08,4857.77,4851.89,4844.29,4840.58,4833.92,4832.51,4837.33,4833.47,4830.35,4823.69,4822.52,4812.79,4813.68,4814.68
5688.58,5647.04,5619.23,5599.39,5573.17,5539.21,5502.7,5485.25,5448.15,5391.14,5345.35,5303.45,5248.65,5206.5,5158.39,5112.23,5045.83,5012.73,4995.12,4988.94,4991.21,4974.6,4971.59,4968.91,4975.64,4984.28,4984.91,4992.43,4999.57,5012.83,5028.33,5047.82,5061.1,5082.39,5110.02,5135.86,5132.11,5126.75,5108.07,5078.36,5045.4,5013.83,4979.83,4949.29,4921.75,4922.62,4928.54,4937.53,4939.42,4940.43,4944.37,4955.14,4960.92,4967.79,4973.42,4979.7,4986.65,4998.82,5010.68,5015.24,4997.38,4972.55,4940.99,4899.89,4852.48,4799.17,4754.2,4717.43,4693.92,4679.64,4674.5,4677.35,4686.51,4688.82,4700.74,4711.88,4743.83,4808.72,4860.65,4919.5,4968.29,5030.08,5081.21,5126.78,5164.26,5188.29,5198.95,5195.56,5192.28,5186.23,5177.46,5168.35,5158,5145.98,5137.91,5141.69,5154.05,5161.94,5167.35,5166.47,5161.36,5152.83,5145.21,5131.26,5107.4,5077.23,5054.31,5038.8,5032.08,5024.6,5022.81,5026.54,5034.15,5049.75,5071.25,5088.25,5091.89,5091.94,5092.87,5100.49,5115.78,5133.54,5146.13,5162.53,5185.95,5211.64,5241.32,5270.72,5290.93,5297.03,5300.05,5310.27,5314.66,5311.73,5312.15,5310.59,5307.17,5310.35,5317.57,5319.6,5320.67,5319.49,5324.84,5329.37,5332.43,5336.59,5338.09,5341.06,5351.04,5359.1,5372.76,5381.19,5381.01,5384.67,5380.02,5375.4,5362.05,5341.98,5314.97,5279.7,5240.11,5202.34,5163.05,5121.42,5076.45,5028.88,4978.89,4927.5,4883.48,4841.91,4798,4763.99,4739.15,4723.78,4715.45,4723.06,4734.31,4746.51,4762.72,4780.45,4796.1,4812.69,4827.81,4846.44,4860.22,4875.7,4890.63,4903.11,4917.96,4938.6,4959.64,4976.06,4986.87,4991.54,4985.78,4974.52,4960.97,4933.63,4891.48,4836.18,4778.12,4718.82,4657.04,4591.95,4530.83,4469.11,4416.12,4366.77,4304.96,4216.8,4118.88,4035.29,3970.22,3907.19,3865.13,3814.62,3768.74,3739.93,3721.44,3712.89,3706.56,3692.46,3682.09,3663.95,3675,3713.55,3765.31,3826.39,3902.97,3990.82,4090.03,4205.59,4335.56,4449.62,4515.39,4560.14,4603.58,4630.43,4658.48,4681.07,4706.27,4730.05,4750.88,4770.22,4791.45,4809.66,4826.87,4840.59,4849.73,4858.37,4864.45,4869.52,4876.12,4878.64,4880.35,4883.12,4884.98,4888.33,4889.55,4884.52,4879.11,4873.89,4864.75,4854.31,4840.92,4828.18,4816.84,4799.86,4788.84,4777.51,4764.44,4752.21,4738.77,4729.1,4719.56,4709.74,4705.02,4702.53,4703.49,4707.81,4717.43,4729.47,4747.71,4767.55,4788.35,4812.7,4835.72,4856.09,4873.93,4877.07,4873.73,4866.75,4850.3,4831.71,4811.42,4793.06,4780.71,4773.81,4776.58,4786.37,4795.73,4810.85,4829.56,4850.93,4873.82,4889.68,4901.42,4912.37,4918.25,4923.36,4923.26,4910.56,4891.79,4866.04,4837.08,4809.4,4782.88,4759.37,4736.14,4719.62,4713.24,4711.07,4714.04,4723.83,4733.17,4742.59,4752.51,4764.1,4773.62,4783.72,4791.63,4792.49,4788.58,4782.25,4775.75,4769.82,4763.61,4759.43,4751.73,4746.73,4742.33,4735.7,4730.47,4727.72,4722.77,4719.93,4721.45,4719.21,4713.6,4714.79,4719.07,4721.77,4725.21,4729.99,4729.04,4728.46,4728.78,4728.4,4723.43,4715,4710.78,4708.36,4708,4713.8,4714.14,4712.66,4717.78,4723.23,4731.11,4742.74,4752.88,4763.95,4783.25,4806,4826.63,4842.49,4856.31,4869.1,4871.84,4877.62,4880.27,4877.52,4871.98,4865.21,4857.27,4851.38,4845.05,4831.33,4824.3,4820.77,4817.35,4814.95,4814.59,4816.51,4812.96,4818.33,4822.77,4820.6,4817,4816.97,4824.66
5709.12,5679.55,5666.12,5652.8,5634.73,5605.6,5566.84,5546.88,5504.45,5441.94,5389.12,5337.4,5279.76,5222.76,5149.22,5095.04,5020.12,4972.14,4960.54,4952.85,4944.24,4958,4937.09,4952.52,4967.67,4992.51,5001.34,5016.59,5032.99,5052.25,5073.67,5099.51,5119.62,5137.33,5159.9,5178.24,5185.32,5178.88,5156,5122.51,5087.7,5055.67,5019.65,4983.92,4953.9,4949.09,4951.61,4958.4,4957.44,4955.51,4957.08,4966.82,4970.99,4974.96,4979.67,4980.76,4982.75,4992.54,5001.82,4998.7,4984.01,4964.36,4935.53,4888.33,4848.85,4797.05,4751.67,4715.59,4690.4,4673.41,4666.63,4658.59,4648.81,4642.44,4630.16,4669.24,4668.79,4746.07,4814.91,4912.18,4970.98,5038.71,5102.26,5147.55,5184.97,5214.57,5226.4,5227.35,5223.22,5217.72,5208.07,5198.21,5184.27,5171.43,5162.84,5164.56,5173.92,5176.02,5177.74,5170.3,5158.87,5140.16,5121.41,5097.26,5063.25,5026.88,4996.89,4976.24,4963.24,4954.14,4951.42,4952.57,4961.64,4979.13,5002.95,5021.3,5027.92,5030.14,5035.56,5046.42,5064.99,5086.01,5101.78,5119.79,5147.52,5174.19,5210.42,5241.52,5265.26,5271.73,5276.04,5288.49,5292.99,5289.43,5289.42,5286.73,5282.87,5287.97,5298.31,5302.61,5307.49,5309.73,5320.51,5327.9,5336.34,5343.92,5348.99,5356.58,5369.97,5379.11,5393.89,5402.53,5402.96,5395.96,5387.69,5376.65,5356.49,5329.18,5303.51,5263.85,5218.88,5178.98,5139.44,5098.76,5056.37,5008.52,4961.13,4914.17,4873.01,4836.15,4796.06,4766.41,4745.8,4734.63,4729.4,4739.67,4752.46,4766.58,4784.53,4802.99,4819.52,4837.06,4852.49,4872.18,4889.1,4908.54,4927.11,4943.46,4963.12,4989.87,5017.45,5041.08,5056.8,5065.27,5067.45,5060.41,5039.64,5018.06,4975.26,4920.38,4853.42,4785.05,4720.72,4650.79,4582.13,4513.56,4454.38,4398.02,4330.5,4240.81,4136.86,4045.68,3974.51,3907.28,3867.15,3815.81,3768.76,3739.31,3718.65,3711.63,3706.89,3694.85,3685.39,3664.02,3675.39,3709.92,3758.82,3817.55,3890.87,3977.46,4073.69,4188.01,4317.71,4431.98,4507.99,4558.81,4600.72,4631.73,4666.25,4695.72,4721.6,4741.98,4763.91,4782.26,4801.07,4816.98,4828.1,4835.75,4839.37,4840.89,4840.1,4839.21,4840.8,4839.89,4839.62,4842.84,4845.56,4848.89,4850.68,4848.64,4848.4,4846.52,4843.38,4837.46,4828.38,4819.36,4812.87,4800.95,4791.84,4782.52,4771.77,4760.2,4746.36,4736.22,4726.88,4714.56,4706.1,4702.49,4701.26,4703.09,4711.61,4722.75,4739.43,4759.23,4778.77,4800.92,4826.41,4850.05,4869.9,4877.62,4880.47,4877.27,4865.11,4850.4,4832.78,4815.71,4803.22,4794.62,4796.19,4802.83,4807.76,4819.06,4833.79,4849.02,4869.11,4881.42,4886.77,4893.29,4896.17,4900.07,4896.85,4884.1,4864.48,4841.28,4815,4790.03,4767.49,4746.53,4725.79,4709.88,4705.88,4705.7,4710.47,4721.71,4734.81,4746.07,4758.01,4771.88,4783.45,4794.95,4803.9,4804.27,4799.8,4793.61,4786.39,4781.09,4774.29,4769.58,4761.72,4752.62,4747.73,4741.52,4741.95,4737.32,4732.61,4730.17,4732.49,4730.23,4725.46,4726.92,4734.27,4732,4736.19,4739.85,4738.5,4737.95,4738.22,4736.12,4731.44,4722.52,4717.53,4714.67,4712.21,4717.08,4715.77,4713.09,4717.12,4720.73,4726.8,4736.62,4744.08,4753.12,4766.92,4788.38,4806.61,4825.13,4841.28,4849.29,4856.31,4860.79,4865.46,4861.79,4856.52,4849.67,4840.58,4832.88,4825.05,4808.85,4800.68,4795.38,4790.24,4787.36,4784.02,4786.56,4795.46,4804.23,4812.51,4810.8,4813.72,4812.27,4814.83
5723.38,5711.97,5711.32,5709.63,5701.94,5677.58,5639.84,5620.55,5572.3,5505.24,5446.92,5384.43,5316.74,5249.72,5168.52,5107.22,5036.65,5004.46,4993.73,4985.27,4978.51,4977.91,4978.23,4989.05,5009.66,5027.82,5038.15,5049.33,5063.86,5083.07,5110.82,5130.87,5149.44,5169.84,5191.78,5202.38,5204.77,5207.44,5187.76,5155.56,5122.34,5092.39,5059.4,5025.8,4990.42,4987.55,4990.02,4993.28,4987.93,4981.85,4981.02,4982.61,4987.42,4987.34,4987.66,4984.1,4979.8,4984.44,4990.18,4978.42,4964.7,4947.2,4917.17,4873.34,4828.8,4784.21,4741.82,4708.19,4685.33,4671.04,4662.01,4643.88,4662.17,4658.33,4653.35,4665.6,4694.17,4767.8,4823.28,4912.1,4999.89,5072.39,5112.96,5149.95,5184.02,5214.38,5228.23,5225.82,5224.98,5219.2,5211.53,5202.63,5191.98,5182.24,5175.96,5179.55,5188.31,5189.73,5189.97,5179.85,5164.75,5140,5113.66,5080.37,5036.26,4989.73,4953.12,4924.16,4901.64,4884.08,4874.81,4871.89,4876.38,4893.82,4917.89,4937.09,4945.1,4950.03,4959.43,4973.17,4996.2,5020.41,5038.23,5060.32,5090.98,5121.04,5156.43,5190.65,5216.46,5224.82,5228.56,5240.22,5244.29,5242.13,5241.42,5238.78,5236.38,5242,5253.92,5262.18,5270.1,5277.06,5291.95,5305.29,5317.21,5328.99,5337.49,5347.7,5365.49,5377.82,5392.43,5394.7,5397.48,5390.51,5381.46,5364.71,5343.93,5319.24,5277.27,5241.2,5195.93,5153.81,5115.41,5075.79,5036.14,4992.6,4948.25,4905.79,4870.21,4838.53,4806.03,4781.89,4765.08,4757.3,4755.87,4767.58,4781.25,4795.81,4811.92,4829.88,4845.31,4861.31,4876.68,4897.4,4916.65,4938.69,4959.98,4981,5005.65,5035.12,5070.39,5100.8,5121.27,5135.28,5140.29,5137.03,5124.15,5098.8,5058.51,4995.15,4932,4865.46,4788.86,4719.51,4646.65,4571.4,4506.95,4443.05,4368.37,4276.48,4163.85,4064.68,3984.66,3913.1,3870.73,3817.28,3768.14,3737.09,3714.25,3708.69,3705.68,3696.25,3687.26,3663.92,3674.91,3703.82,3750.27,3805.68,3874.52,3956.41,4049.02,4159.07,4285.42,4401.67,4493.93,4545.87,4590.24,4624.15,4655.59,4688.34,4720.63,4747.1,4766.26,4783.42,4803.27,4816.37,4822.11,4825.48,4824.56,4821.65,4816.77,4812.05,4812.39,4808.68,4808.78,4814.25,4817.24,4823.46,4827.85,4829.09,4830.87,4832.54,4832.08,4830.55,4824.64,4820.07,4816.18,4807.47,4801.41,4793.64,4783.73,4772.44,4758.68,4748.02,4737.82,4723.08,4712.43,4706.78,4702.01,4703.53,4710.29,4719.54,4734.37,4752.35,4769.65,4791.75,4817.34,4843.71,4865.87,4875.79,4883.33,4885.9,4878.58,4868.88,4854.74,4837.04,4825.25,4816.17,4815.69,4818.57,4818.4,4824.34,4834.17,4845.99,4860.5,4866.11,4867.3,4867.99,4865.56,4864.93,4861.22,4846.92,4829.14,4809.17,4787.3,4767.31,4751.1,4733.91,4716.3,4704.59,4702.91,4707,4713.16,4727.32,4742.65,4756.14,4770.49,4786.68,4800.33,4813.73,4822.33,4821.12,4817.14,4809.5,4802.18,4795.98,4788.36,4783.25,4775.88,4770.08,4765.65,4760.86,4757.52,4752.58,4746.96,4744.34,4741.77,4744.23,4740.07,4741.35,4746.29,4748.24,4747.84,4750.35,4749.69,4748.29,4747.69,4745.99,4740.11,4730.31,4725.49,4721.12,4718.53,4721.24,4719.23,4714.67,4718.02,4719.76,4723.94,4731.09,4735.59,4743.03,4753.57,4769.37,4785.92,4798.17,4815.87,4821.79,4833.08,4838.88,4841.95,4839.81,4833.67,4827.32,4817.11,4808.63,4798.52,4786.81,4776.39,4770.54,4764.01,4760.65,4762.64,4767.9,4773.06,4785.15,4792.7,4797.07,4803.8,4812.03,4815.47
5726.82,5733.75,5748.43,5762.47,5762.44,5739.97,5698.9,5675.52,5623.76,5554.77,5491.69,5423.79,5343.34,5266.75,5183.28,5125.74,5056.73,5029.97,5015.05,5003.82,4997.15,4997.65,5000.94,5019.77,5034.55,5056.81,5067.57,5085.9,5093.12,5112.93,5133.23,5159.51,5175.43,5195.55,5213.59,5221.04,5217.06,5217.73,5209.6,5181.7,5151.28,5124.87,5096.31,5063.9,5030.06,5025.38,5033,5036.11,5027.32,5018.6,5013.65,5006.62,5007.31,5008.16,5004.63,4996.34,4986.48,4985.5,4980.05,4969.46,4952.08,4931.03,4907.67,4862.74,4830.65,4787.54,4752.56,4726.32,4709.76,4701.43,4683.57,4669.1,4678.15,4688.69,4691.34,4690.5,4733.15,4846.94,4880.17,4949.17,5036.69,5098.31,5146.65,5171.01,5189.25,5210.92,5224.77,5223.48,5222.25,5217.08,5213.86,5208.52,5201.11,5194,5191.98,5198,5207.14,5208.27,5208.32,5198.31,5180.76,5154.54,5124.35,5086.56,5032.9,4978.94,4935.08,4896.45,4865.51,4837.26,4819.96,4808,4805.05,4817.24,4839,4855.6,4865.71,4873.25,4884.02,4902.21,4927.21,4956.31,4979.02,5004.99,5038.15,5071.24,5110.02,5144.45,5170.41,5179.5,5183.21,5192.21,5194.14,5188.54,5185.4,5181.17,5177.33,5182.04,5195.02,5204.37,5217.29,5228.78,5247.63,5265.47,5283.75,5300.86,5316.04,5333.38,5355.11,5369.35,5385.38,5386.85,5387.32,5379.99,5368.19,5350.1,5329.48,5296.44,5251.43,5215.56,5170.2,5127.29,5091.56,5053.83,5017.82,4978.64,4938.4,4903.15,4871.97,4846.41,4821.94,4802.29,4791.01,4786.15,4789.03,4801,4815.66,4831.8,4848.59,4865.22,4879.41,4897.59,4913.23,4934.69,4956.97,4981.03,5006.14,5029.35,5060.95,5093.77,5130.15,5166.5,5190.62,5207.47,5215.51,5209.98,5204.17,5179.57,5136.44,5074.43,5007.36,4938.62,4860.14,4787.88,4710.92,4631.76,4560.69,4490.44,4408.98,4313.57,4192.67,4085.17,3997.08,3920.08,3874.87,3818.62,3767.35,3734.04,3707.4,3704.26,3703.76,3696.33,3688.44,3664.24,3673.39,3698.21,3740.7,3793.34,3858.64,3936.16,4023.84,4130.81,4254.07,4372.02,4469.74,4527.48,4574.26,4612.65,4645.15,4682.71,4717.28,4745.31,4769.29,4782.04,4799.93,4809.82,4810.79,4810.26,4806.81,4799.4,4792.1,4786.7,4785.76,4784.08,4786.18,4794.78,4801.49,4809.99,4816.61,4820.8,4825.68,4829.34,4832.74,4834.53,4831.24,4829.19,4829.56,4823.41,4819.13,4812.98,4805.81,4794.07,4779.67,4768.98,4758.39,4742.32,4730.94,4721.82,4716.38,4714.02,4719.9,4727.61,4740.15,4755.98,4771.39,4790.17,4815.25,4840.7,4863.31,4875.78,4886.27,4892.74,4888.31,4880.79,4869.48,4853.26,4841.13,4830.82,4826.37,4825.18,4820.9,4819.98,4824.6,4829.68,4837.43,4837.94,4831.11,4826.28,4820.27,4815.72,4811.72,4797.96,4782.86,4765.38,4749.12,4735.39,4725.66,4714.48,4702.71,4694.89,4697.25,4704.92,4715.92,4731,4748.48,4764.59,4781.05,4798.28,4814.81,4830.47,4840.06,4838.75,4834.17,4826.31,4818.71,4811.39,4805.06,4798.67,4791.99,4786.39,4783.85,4780.12,4776.93,4772.87,4766.56,4763.9,4762.35,4759.08,4760.94,4760.34,4764.12,4764.14,4766.69,4765.74,4765.28,4764.32,4762.98,4761.31,4754.24,4745.2,4740.24,4735.31,4732.02,4732.89,4729.04,4724.56,4725.38,4724.58,4726.12,4729.8,4730.24,4734.1,4742.38,4754.99,4766.55,4775.78,4787.88,4797.65,4804.01,4812.56,4816.42,4814.43,4807.78,4800.54,4791.09,4781.59,4770.8,4758.67,4747.34,4740.48,4733.79,4729.81,4732.32,4737.61,4749.29,4754.89,4767.4,4779.65,4789.78,4802.23,4814.38
5711.63,5739.78,5774.4,5796.75,5800.35,5778.76,5734.11,5705.26,5649.39,5582.51,5516.18,5440.15,5349.94,5273.15,5205.27,5151.03,5082.68,5048.73,5032.88,5008.5,5011.51,5017.99,5022.49,5042.97,5066.71,5084.36,5096.51,5114.06,5120.46,5132.31,5156.81,5180.23,5192.96,5204.56,5217.53,5222.72,5221.68,5214.96,5209.09,5190.38,5163.31,5144.54,5122.45,5094.5,5067.19,5062.86,5069.4,5070.77,5048.68,5036.74,5037.27,5025.84,5021.35,5017.66,5009.18,4995.94,4981.1,4975.48,4966.97,4948.69,4930.86,4910.66,4882.11,4856,4825.59,4795.2,4771.59,4759.93,4754.1,4751.41,4739.16,4744.98,4770.74,4784.41,4785.96,4799.37,4813.29,4914.39,4974.03,5025.37,5071.15,5126.85,5144.52,5160.91,5172.68,5184.76,5181.43,5189.06,5187.86,5185,5189.45,5190.07,5186.37,5187.92,5191.58,5204.31,5216.95,5221.63,5225.34,5216.08,5199.8,5172.53,5140.26,5099.79,5042.59,4984.21,4933.31,4887.89,4846.9,4811.56,4785.1,4763.66,4744.35,4745.93,4760.54,4773.51,4782.31,4796.58,4810.24,4830.24,4855.5,4887.23,4915.69,4946.05,4984.71,5021.39,5062.33,5097.79,5124.64,5132.14,5135.19,5138.57,5135.76,5124.73,5115.34,5105.09,5096.33,5097.53,5106.52,5118.14,5133.57,5150.27,5174.58,5199.98,5224.93,5251.04,5273.19,5302.02,5328.12,5342.79,5364.89,5370.47,5364.42,5360.98,5347.65,5325.26,5297,5255.92,5221.21,5178.88,5133.83,5092.69,5058.42,5025.16,4993.53,4958.67,4926.46,4896.06,4871.45,4851.56,4833.35,4820.73,4814.45,4813.14,4818.43,4834.21,4850.59,4868.1,4886.4,4902.93,4917.08,4937.04,4954.12,4978.19,5001.18,5028.42,5055.23,5082.58,5116.54,5152.19,5184.02,5222.87,5251.89,5275.34,5286.58,5288.63,5280.71,5261.4,5221.42,5160.37,5099.04,5023.36,4941.58,4867.94,4786.03,4711.53,4636.82,4561.54,4475.35,4374.9,4242.37,4121.82,4023.05,3938.66,3888.04,3826,3770.3,3732.17,3700.58,3700.04,3701.21,3696.08,3689.21,3663.94,3671.76,3692.64,3733.05,3782.72,3844.48,3918.27,4003.29,4105.65,4224.55,4343.85,4455.54,4516.79,4565.77,4605.96,4640.97,4679.24,4708.58,4737.91,4762.77,4774.88,4791.6,4797.99,4796.94,4791.7,4785.16,4777.81,4767.95,4761.85,4762.29,4762.25,4766.25,4777.53,4788.54,4800.62,4810.94,4819.54,4828.39,4835.35,4841.9,4847.75,4848.28,4850.16,4852.88,4851.98,4849.92,4846.9,4840.49,4830.26,4817.9,4807.43,4797,4780.8,4767.92,4759.59,4750.51,4746.37,4750.89,4757.3,4766.34,4778,4791.04,4805.93,4827.67,4850.67,4872.74,4885.03,4897.5,4903.91,4900.98,4896.56,4886.12,4869.81,4855.46,4842.5,4834.3,4827.44,4816.12,4808.68,4805.95,4803.77,4804.57,4798.13,4786.94,4777.24,4766.58,4760.55,4756.03,4744.74,4732.95,4721.5,4711.46,4703.42,4700.06,4696.07,4690.03,4685.68,4691.2,4702.58,4714.88,4730.41,4750.5,4767.43,4785.3,4803.23,4822.24,4839.02,4847.6,4847.95,4844.44,4837.54,4829.94,4825,4817.69,4811.59,4805.74,4802.39,4800.68,4799.3,4797.41,4792.4,4786.06,4781.97,4779.05,4774.99,4771.29,4770.24,4776.44,4774.26,4772.68,4774.99,4774.93,4773.01,4772.56,4769.4,4762.61,4754.28,4749.4,4745.35,4740.32,4740.39,4735.58,4730.67,4729.64,4725.24,4723.31,4722.06,4720.48,4722.21,4727.09,4735.3,4743.63,4748.71,4759.04,4766.12,4772.04,4779.79,4783.82,4782.35,4776.26,4770.09,4762.16,4753.41,4741.8,4729.93,4718.28,4711.27,4704.46,4701.39,4703.73,4709.32,4724.11,4736.38,4751.03,4764.66,4777.11,4796.85,4806.88
5662.21,5713.23,5761.46,5800.42,5808.69,5792.53,5747.74,5718.78,5662.74,5598.39,5527.53,5444.6,5354.6,5284.26,5222.27,5177.9,5113.86,5097.17,5063.78,5049.9,5047.69,5060.44,5062.81,5079.38,5102.35,5127.2,5124.3,5146.08,5150.47,5164.69,5184.41,5205.18,5201.42,5212.83,5219.54,5218.45,5208.35,5204.73,5190.26,5175.14,5163.44,5149.46,5133.41,5119.5,5091.67,5088.52,5096.12,5094.24,5069.08,5054.89,5053.63,5037.1,5027.77,5014.98,5005.68,4988.28,4967.91,4958.22,4945.71,4932.56,4907.51,4889.16,4865.92,4842.44,4828.29,4806.52,4795.17,4796.85,4804.14,4812.89,4824.77,4846.02,4878.13,4896.1,4899.6,4922.58,4969.13,5010.97,5044.86,5085.35,5137.24,5158.55,5158.99,5146.27,5168.27,5165.96,5156.18,5150.02,5146.29,5144.44,5153.82,5158.88,5161.01,5169.03,5179.6,5197.94,5212.66,5221.85,5230.33,5223.91,5211.06,5184.27,5152.99,5112.17,5054.64,4994.53,4940.37,4891.07,4844.32,4801.47,4767.04,4732.6,4708.31,4698.57,4701.48,4707.75,4712.88,4720.96,4733.72,4757.81,4785.82,4817.41,4848.68,4881.77,4927.27,4967.8,5010.39,5048.32,5074.27,5080.62,5080.14,5080.15,5071.28,5054.33,5040.63,5024.97,5011.71,5008.6,5017.5,5024.64,5046.93,5067.67,5097,5127.54,5160.78,5193.14,5226.63,5263.98,5299.03,5321.56,5333.15,5344.88,5343.35,5327.5,5318.77,5289.68,5264.13,5227.91,5186.86,5145.38,5103.34,5065.07,5034.6,5004.59,4976.46,4946.94,4920.06,4895.01,4876.41,4860.74,4848.98,4841.21,4838.39,4840.06,4849.37,4864.35,4881.51,4899.75,4918.76,4936.47,4951.96,4973.26,4993.85,5020.21,5047.2,5075.14,5103.6,5133.35,5169.67,5198.3,5238.79,5281.46,5312.37,5333.06,5345.34,5353.89,5348.08,5326.29,5288.45,5238.24,5173.61,5097.96,5020.23,4948.36,4873.9,4793.58,4717.36,4640.09,4549.39,4443.41,4297.53,4165.34,4054.68,3962.53,3904.39,3835.78,3774.39,3731.35,3694.73,3694.56,3698.45,3694.88,3689.11,3664.19,3669.07,3687.67,3725.81,3773.94,3831.72,3902.55,3983.11,4080.49,4198.98,4312.04,4425.78,4494.02,4544.9,4585.67,4624.68,4658.51,4687.78,4718.46,4743.8,4756.56,4771.84,4778.84,4775.85,4771.88,4763.6,4757.7,4750.11,4745.9,4748.27,4751.74,4760,4775.99,4790.53,4807.69,4821.99,4834.97,4846.55,4858.6,4868.01,4877.68,4882.65,4886,4891.9,4892.37,4892.64,4891.14,4886.62,4877.81,4865.88,4857.25,4848.61,4833.82,4819.97,4810.4,4801.28,4796.06,4797.75,4801.82,4808.27,4816.43,4824.35,4835.19,4852.69,4873.19,4890.83,4899.36,4909.77,4916.42,4913.46,4907.9,4899.78,4881.67,4864.79,4850.08,4837.52,4824.77,4808.4,4794.56,4783.57,4774.21,4767.68,4755.95,4741.51,4727.49,4715.1,4707.16,4702.94,4693.69,4686.84,4681.13,4676.11,4674.24,4679.72,4681.6,4680.31,4681.25,4690.43,4704.09,4717.53,4734.55,4754.39,4771.16,4788.63,4808.41,4827.27,4844.44,4854.51,4854.66,4852.98,4847.05,4839.97,4835.9,4830.52,4825.18,4821.14,4818.35,4819.73,4819.77,4818.91,4814.2,4808.28,4804.44,4800.36,4795.19,4789.54,4788.12,4787.65,4784.7,4785.32,4787.03,4786.64,4785.44,4783.05,4777.21,4771.32,4763.45,4757.14,4752.76,4747.01,4743.12,4737.83,4731.6,4727.06,4720.1,4714.83,4709.12,4703.74,4702.07,4705.13,4710.08,4713.62,4717.01,4724.49,4732.2,4738.02,4745.1,4748.92,4749.27,4743.44,4740.27,4733.77,4726.48,4716.29,4704.64,4694.36,4687.39,4682.27,4680.41,4684.75,4693.63,4708.74,4722.09,4739.46,4759.06,4771.77,4789.42,4807.26
