4074.4,4066.84,4055.09,4041.73,4032.33,4024.08,4017.67,4009.74,4004.52,4000.51,3998.84,3999.29,4003.71,4006.95,4012.12,4015.36,4018.44,4020.64,4024.18,4025.2,4025.98,4026.58,4025.45,4024.59,4028.21,4026.84,4026.88,4021.17,4013.8,4006.99,4002.69,4001.41,3999.67,3996.92,3995.98,3997.25,4001,4003.4,4008.32,4011.73,4011.33,4009.3,4007.39,4004.35,3998.25,3988.74,3983.82,3975.49,3968.22,3961.33,3955.56,3948.53,3940.98,3937.24,3934.66,3933.34,3935.57,3940.98,3948.38,3957.39,3967.02,3979.38,3990.63,4004.72,4017.75,4026.88,4032.47,4037.06,4043.8,4049.42,4054.47,4058.24,4058.9,4056.15,4056.22,4054.2,4046.99,4035.68,4023.35,4009.06,3991.58,3981.97,3972.62,3960.29,3950.15,3938,3934.67,3932.68,3932.36,3937.74,3940.41,3949.58,3958.35,3966.97,3977.86,3985.68,3993.04,4000.12,4005.42,4010.77,4009.8,4006.35,4002.4,3995.69,3994.11,3985.32,3980.65,3974.86,3967.14,3958.19,3953.75,3949.52,3948,3947.43,3946.75,3946.76,3947.24,3948.99,3953.78,3965.74,3967.35,3969.06,3971.66,3975.78,3978.39,3983.08,3987.48,3993.85,3990.23,3989.17,3990.71,3987.36,3986.69,3984.66,3981.99,3977.12,3974,3970.48,3967.35,3963.16,3958.89,3954.79,3951.34,3948.6,3949.7,3954.54,3960.15,3967.47,3977.92,3988.86,3999.5,4005.74,4012.19,4019.29,4023.11,4025.83,4025.49,4023.75,4022.07,4020.24,4019.43,4017.13,4012.42,4006.3,4001.68,3996.62,3993.38,3992.76,3990.83,3989.82,3990.3,3991.21,3991.77,3992.18,3995.51,3996.04,3995.12,3996.96,3999.56,4001.32,4002,4002.68,4001.05,4002.68,4002.98,4002.59,3999.89,3999.16,3998.27,3994.39,3993.45,3995.1,3999.57,4000.89,3998.2,3998.47,3994.59,3988.22,3978.34,3971.51,3955.08,3949.14,3943.51,3936.39,3933.94,3931.8,3923.81,3924.01,3924.62,3924.56,3921.79,3919.19,3923.12,3926.63,3930.01,3936.65,3942.15,3954.43,3958.19,3952.73,3956.66,3960.73,3954.31,3949.95,3937.95,3923.92,3906.69,3887.79,3871.31,3849.54,3812.77,3780.88,3736.68,3684.46,3634.34,3591.86,3546.61,3486.45,3413.54,3288.45,3044.71,1920.48,1622.56,1309.67,2693.89,2682.84,2635.6,2604.63,2585.61,2576.21,2573.9,2571.67,2569.11,2566.75,2564.56,2562.18,2560.15,2559.01,2558.35,2560.25,2566.46,2583.02,2649.39,2739.84,2842.07,1729.13,3062.13,3184.74,3336.88,3490.12,3603.25,3624.84,3629.75,3635.08,3640.51,3648.82,3661.13,3674.84,3687.94,3699.66,3710.27,3720.11,3729.77,3738.93,3748.37,3758.75,3770.16,3780.51,3792.47,3802.96,3812.16,3819.51,3823.15,3822.17,3822.47,3817.63,3810.69,3802.99,3795.55,3789,3782.33,3776.07,3771.26,3762.79,3754.86,3747.33,3737.93,3729.56,3722.98,3716.09,3710.87,3709.96,3708.31,3707.87,3708.6,3710.02,3711.53,3713.03,3715.3,3718.62,3721.82,3730.8,3742.29,3754.36,3768.49,3783.85,3798.04,3812.96,3825.88,3840.48,3849.9,3852.38,3852.22,3850.84,3846.6,3842.14,3833.31,3823.99,3812.66,3802.72,3790.91,3779.81,3766.81,3754.38,3743.17,3734.33,3726.17,3720.29,3714.94,3708.76,3701.73,3700.4,3695.75,3691.21,3686.38,3673.15,3664.9,3662.03,3669.48,3658.14,3657.19,3661.56,3658.9,3660.53,3662.79,3663.92,3664.76,3665.92,3667.09,3668.38,3669.03,3669.75,3670.87,3671.31,3672.69,3674.37,3674.87,3675.38,3675.55,3676.34,3676.98,3678.66,3679,3678.53,3677.37,3676.97,3678.01,3678.86,3678.82,3679.21,3680.96,3682.79,3685.36,3689.32,3693.86,3703.5,3707.17,3714.07
4083.15,4075.68,4067.39,4052.94,4039.85,4030.95,4024.06,4016.67,4011.3,4005.83,4002.99,4002.21,4005.46,4007.06,4011.48,4013.35,4015.38,4016.71,4019.43,4020.2,4020.92,4021.65,4021.12,4024.27,4027.99,4022.54,4015.28,4014.11,4011.84,4006.32,4003.05,4002.11,4000.1,4001.66,3997.76,3999.13,4002.75,4003.56,4010.96,4011.16,4012.45,4010.71,4010.63,4008.91,4004.18,3995.09,3990.54,3982.14,3973.27,3964.44,3957.35,3949.47,3939.55,3938.42,3930.85,3929.82,3931.88,3937.19,3944.59,3953.25,3963.52,3976.75,3988.55,4003.88,4018.35,4028.34,4034.85,4040.43,4050.05,4057.2,4069.79,4078.9,4075.25,4073.87,4081.21,4080.74,4066.23,4048.68,4033.7,4014.42,3994.69,3980.99,3968.63,3958.93,3949.99,3946.33,3946.42,3945.89,3945.42,3947.16,3947.4,3951.37,3958.91,3966.47,3975.39,3981.65,3988.5,3997.53,4004.62,4010.57,4012.87,4008.9,4005.41,4002.48,3997.65,3992.63,3989.31,3984.6,3978.04,3970.98,3967.69,3965.08,3964.49,3965.42,3965.65,3965.9,3966.56,3967.91,3970.96,3974.68,3977.77,3979.78,3982.87,3987.28,3992.17,3997.99,4003.33,4006.38,4007.83,4008.91,4010.57,4009.68,3999.72,3995.78,3993.67,3990.24,3987.47,3984.66,3982.39,3978.21,3974.73,3970.58,3967.08,3964.23,3964.78,3967.81,3970.86,3977.4,3985.92,3995.38,4003.52,4009.64,4015.08,4021.78,4025.18,4027.19,4025.79,4024.27,4023.06,4021.06,4021.26,4020.93,4017.29,4012.63,4009.16,4005.58,4004.32,4004.31,4007.32,4007.53,4011.34,4009.05,4009.91,4005.98,4007.3,4006.54,4003.89,4004.62,4005.57,4007.2,4006.94,4005.47,4005.24,4008.31,4007.26,4006.66,4006.3,4002.11,4000.64,4000.01,3998.86,4000.69,3998.37,3995.81,3992.52,3988.61,3984.86,3978.73,3972.02,3965.14,3957.42,3951.45,3946.54,3941.29,3936.8,3932.36,3931.58,3930.95,3929.25,3932,3931.7,3930.54,3938.2,3948.41,3950.21,3953.24,3960.8,3963.65,3965.89,3972.15,3972.1,3967.21,3960.11,3953.89,3945.96,3932.22,3908.84,3887.99,3866.86,3839.55,3810.44,3779.79,3727.78,3676.16,3627.36,3584.88,3540.58,3469.53,3360.95,3110.92,2825.14,2802.37,2637.31,2386.5,2679.93,2693.61,2642.95,2609.66,2588.33,2577.11,2574.45,2572.18,2569.44,2567.3,2565.33,2562.68,2560.92,2559.74,2559.23,2561.24,2567.12,2581.38,2646.03,2734.52,2834.48,2008.86,3051.74,3182.95,3327.81,3476.73,3601.08,3625.84,3632.69,3638.23,3644.22,3653.01,3664.15,3676.18,3688.83,3699.03,3708.75,3717.19,3724.14,3730.3,3737.34,3744.41,3753.11,3766.94,3771.82,3782.7,3792.02,3800.52,3805.88,3807.46,3808.3,3805.18,3800.42,3795.11,3788.76,3782.76,3776.89,3770.97,3766.89,3759.16,3751.48,3744.28,3735.43,3726.54,3720.31,3712.98,3707.07,3705.19,3703.04,3701.73,3702.22,3702.77,3703.48,3703.25,3704.78,3707.33,3709.62,3717.04,3726.52,3737.04,3749.26,3762.75,3775.28,3787.81,3799.22,3815.61,3822.91,3824.89,3826.8,3825.62,3824.5,3822.09,3815.91,3809.61,3801.06,3792.67,3783.27,3773.92,3763.96,3753.35,3744.7,3737.65,3731.28,3727.14,3722.11,3716.73,3711.7,3707.87,3702.38,3696.48,3691.71,3679.89,3667.32,3663.78,3661.03,3670.86,3665.27,3655.53,3654.8,3654.84,3655.61,3656.27,3656.2,3656.91,3657.7,3659.3,3660.57,3662.22,3663.23,3663.99,3666.45,3669.2,3670.47,3671.98,3673.5,3676.18,3678.69,3680.96,3683.3,3684.94,3685.36,3686.76,3688.97,3690.4,3691.28,3691.49,3692.96,3694.11,3695.01,3697.36,3699.67,3703.49,3707.63,3712.08
4081.41,4070.3,4065.78,4051.17,4042.05,4033.94,4026.81,4020.27,4015.38,4009.68,4006.48,4005.45,4007.96,4009.08,4011.8,4013.58,4014.77,4015.27,4017.4,4017.84,4018.78,4019.68,4018.82,4018.58,4018.65,4016.69,4017.31,4008.69,4014.44,4009.96,4007.04,4009.8,4008.78,4006.07,4005.97,4007.08,4010.28,4010.01,4012.58,4016.27,4019.19,4018.77,4016.74,4019.49,4016.09,4008.26,4002.09,3994.64,3987.5,3975.29,3971.22,3962.09,3952.7,3947.14,3943.16,3941.16,3942.66,3948.93,3959.33,3966.95,3979.41,3989.05,4000.91,4018.46,4033.42,4043.24,4046.68,4057.31,4066.97,4074.42,4081.68,4089.68,4092.48,4092.88,4096.69,4093.59,4077.2,4057.85,4040.46,4017.99,3994.5,3979.48,3967.31,3953.95,3945.15,3943.61,3947.03,3948.07,3947.76,3948.75,3946.28,3948.1,3952.84,3958.95,3966.2,3971.22,3977.11,3986.21,3994.42,4001.33,4003.15,3999.85,3996.91,3994.34,3990.81,3986.69,3983.6,3980.5,3976.7,3972.36,3970.91,3969.89,3970.16,3972.21,3974.03,3974.05,3974.88,3976.93,3979.76,3983.54,3986.3,3987.76,3990.38,3995.89,4000.23,4004.62,4009.11,4011.12,4011.61,4011.64,4012.61,4010.74,4008.27,4007.91,4006.97,4003.86,4001.92,4000.5,3998.94,3995.89,3993.77,3990.77,3987.52,3984.51,3984.83,3985.78,3976.03,3981.32,3988.26,3995.4,4002.55,4007.14,4012.62,4018.36,4025.1,4026.54,4031.57,4033.6,4033.38,4031.76,4032.94,4033.98,4031.68,4028.88,4027.63,4026.25,4026.59,4028.65,4029.96,4031.24,4033.32,4033.08,4032.75,4030.9,4031.21,4029.45,4024.43,4023.26,4021.63,4018.12,4016.16,4012.38,4007.83,4003.36,4001.27,3999.33,3997.95,3996.31,3994.8,3990.02,3988.8,3990.46,3987.84,3984.46,3980.7,3977.17,3974.75,3969.34,3963.84,3957.11,3950.45,3945.73,3938.98,3937,3932.59,3929.51,3929.58,3933.82,3940.27,3945.28,3945.19,3945.82,3952.58,3957.4,3961.59,3965.14,3968.61,3971.69,3974.47,3976.1,3976.23,3969.6,3960.78,3950.77,3938.35,3921.96,3902.25,3880.02,3852.75,3826.39,3791.88,3757.74,3717.15,3665.03,3617.1,3576.66,3535.75,3493.44,3433.56,3323.56,3185.98,2993.7,2781.95,2336.96,2656.85,2707.49,2651.66,2614.45,2590.46,2577.85,2575.21,2572.66,2569.93,2567.94,2565.94,2563.45,2561.84,2560.96,2560.85,2562.35,2567.79,2577.92,2644.09,2733.49,2834.18,2387.69,3044.12,3187.73,3329.64,3477.77,3607.85,3630.97,3638.38,3644.06,3650.32,3656.36,3667.15,3678.97,3690.14,3699.8,3708.53,3715.72,3721.75,3728.94,3734.51,3740.42,3749.39,3757.82,3767.93,3778.93,3788.15,3796.67,3801.7,3803.22,3804.07,3800.79,3795.64,3790.46,3784.72,3779.04,3773.64,3767.98,3764.47,3757.62,3749.97,3743.17,3734.53,3726.12,3718.91,3711.48,3706.02,3703.56,3701.14,3699.64,3698.79,3698.91,3698.63,3697.22,3697.3,3698.56,3699.42,3704.99,3712.58,3721.22,3731.39,3742.67,3752.78,3763.9,3776.17,3791.03,3794.75,3798.16,3800.33,3801.44,3801.32,3800.54,3797.15,3792.55,3786.62,3781.04,3774.2,3767.69,3760.47,3752.56,3746.12,3741.32,3736.92,3733.38,3729.03,3723.1,3717.94,3712.6,3706.71,3699.32,3692.86,3680.28,3667.3,3662.4,3658.29,3654.74,3660.81,3652.18,3646.76,3645.83,3646.3,3645.79,3645.19,3645.81,3646.34,3647.9,3649.56,3651.71,3653.55,3655.58,3658.25,3662.06,3664.16,3667.17,3670.53,3674.68,3679.02,3683.12,3687.16,3690.25,3692.61,3695.75,3698.61,3700.73,3702,3702.17,3702.51,3702.88,3703.12,3703.61,3704.02,3706.23,3707.96,3709.99
4072.83,4065.67,4056.94,4045.37,4036.94,4029.02,4022.37,4015.6,4012.67,4008.26,4006.06,4005.64,4008.47,4009.98,4012.93,4014.59,4016.09,4017.89,4021.11,4022.21,4027.25,4028.24,4031.71,4028.01,4028.19,4026.61,4026.99,4023.08,4021.62,4017.01,4018.32,4016.91,4014.69,4011.77,4010.63,4009.74,4011.48,4009.56,4010.55,4013.34,4017.11,4018.26,4019.86,4020.18,4018.12,4011.61,4007.76,4006.95,3997.17,3987.82,3980.83,3972.23,3962.07,3955.93,3951.78,3951.55,3948.33,3953.18,3962.86,3969.58,3980.47,3992.51,4003.55,4016.4,4031.76,4041.56,4048.95,4056.22,4067.14,4074.92,4082.56,4090.95,4096.08,4098.61,4104.5,4102.03,4086.13,4065.4,4045.96,4021.71,3994.8,3978.63,3965.94,3952.75,3944.19,3941.19,3944.62,3946.93,3946.77,3947.91,3943.13,3943.68,3942.52,3949.16,3956.01,3960.22,3965.73,3975.49,3984.02,3991.5,3992.93,3988.82,3986.85,3985.43,3982.06,3979.11,3977.28,3975.83,3972.92,3970.3,3970.52,3970.67,3972.88,3976.49,3979.82,3980.82,3982.52,3984.65,3986.84,3990.76,3992.98,3993.12,3995.14,3998.29,4001.1,4004.19,4007.67,4008.49,4007.09,4006.55,4006.79,4004.69,4002.33,4002.69,4003.06,4000.32,3999.82,3999.04,3999.03,3997.6,3997.33,3995.43,3993.1,3990.08,3990.11,3991.02,3989.16,3992.6,3998.06,4003.06,4008.95,4013.19,4017.5,4022.6,4025.86,4028.31,4030.53,4030.7,4031.64,4031.32,4033.92,4036.6,4035.79,4034.47,4035.15,4036.5,4038.72,4042.85,4045.92,4048,4049.67,4049.3,4048.46,4044.53,4043.69,4039.73,4032.86,4029.22,4025.67,4021.24,4017.58,4012.07,4005,3999.31,3995.09,3992.75,3991.62,3989.1,3985.32,3979.65,3977.67,3978.82,3975.07,3970.73,3966.62,3960.28,3957.65,3956.96,3953.27,3947.77,3941.41,3936.82,3932.27,3927.86,3923.49,3920.21,3920.18,3922.98,3928.89,3933.48,3934.77,3936.54,3942.08,3945.07,3946.88,3948.62,3951.47,3952.6,3954.2,3957.73,3958.7,3951.54,3942.51,3930.26,3916.3,3899.8,3881.15,3858.54,3832.76,3801.63,3768.26,3735.59,3699.45,3654.87,3612.22,3575.49,3538.17,3503.41,3439.92,3358.27,3238.19,2977.96,2840.79,2291.62,2749.42,2726.23,2662.8,2620.26,2594.08,2579.85,2576.96,2574.26,2571.58,2569.6,2567.7,2565.64,2564.07,2563.09,2562.99,2564.39,2568.99,2577.76,2643.43,2735.61,2837.47,2844.05,3051.93,3192.11,3333.19,3481.2,3613.45,3636.48,3643.79,3650,3655.18,3660.99,3669.93,3680.19,3690.88,3700.14,3708.11,3714.49,3719.75,3726.05,3733.66,3740.28,3748.16,3755.84,3765,3775.08,3784.67,3792.99,3794.6,3796.12,3796.6,3793.62,3789.16,3784.47,3778.71,3774.54,3770.25,3765.46,3762.81,3757.1,3750.12,3743.4,3735.65,3727.83,3720.43,3713.6,3708.27,3704.74,3701.76,3699.69,3697.93,3696.94,3696.2,3693.76,3692.69,3692.74,3692.95,3696.73,3702.77,3709.54,3718.35,3727.2,3738.61,3752.75,3762.8,3769.34,3772.46,3775.55,3777.73,3779.22,3780.45,3781.67,3779.9,3776.9,3772.72,3769.45,3764.69,3759.94,3755.16,3749.73,3745.13,3741.47,3738.11,3735.81,3731.86,3726.01,3719.61,3713.76,3706.53,3698.79,3690.85,3673.7,3663.14,3656.69,3652.24,3648.63,3647.36,3646.85,3643.72,3635.78,3634.93,3634.04,3633.39,3633.35,3634.32,3636.29,3638.6,3641.29,3643.49,3646.07,3649.25,3654.22,3658.11,3662.46,3667.26,3672.98,3679.21,3685,3691.17,3695.74,3699.42,3703.94,3707.77,3709.72,3710.51,3710.42,3711.4,3710.78,3710.07,3709.51,3707.94,3708.39,3709.01,3709.12
4063.53,4051.07,4042.09,4032.86,4025.56,4018.78,4013.28,4008.41,4005.85,4003.13,4002.83,4003.56,4007.9,4010.22,4013.21,4016.21,4019.56,4023.2,4028.81,4030.88,4037.17,4042.92,4043.48,4042.95,4042.9,4037.53,4037.59,4033.46,4032.77,4024.52,4025.39,4027.68,4023.74,4020.66,4018.97,4015.85,4015.62,4012.08,4011.78,4013.58,4016.18,4016.41,4017.3,4017.33,4015.67,4010.89,4009.02,4009.98,4003.11,3994.42,3988.96,3982.15,3972.88,3967.81,3965.88,3961.68,3963.29,3967.21,3972.32,3977.23,3984.81,3994.87,4004.56,4017.4,4028.49,4041.77,4049.85,4057.08,4067.29,4074.66,4082.46,4091.78,4096.35,4097.44,4102.65,4099.98,4084.73,4065.37,4044.54,4019.21,3990.41,3973.14,3960.65,3947.78,3937.17,3933.73,3936.27,3938.38,3938.13,3940.08,3933.43,3933.67,3935.76,3941.05,3947.42,3951.78,3955.98,3967.19,3974.5,3981.73,3982.25,3977.88,3975.74,3974.8,3972.09,3969.98,3968.98,3969.28,3969.02,3968.58,3970.29,3972.52,3976.24,3981.06,3985.32,3987.77,3990.34,3991.82,3993.93,3997.49,3999.08,3998.66,3999.46,4001.12,4001.92,4003.28,4005.78,4005.19,4001.97,3999.18,3998.88,3995.75,3993.16,3993.95,3995.77,3994.01,3994.17,3995.31,3997.33,3997.51,3998.97,3999.58,3998.98,3995.91,3996.65,3994.58,3997.03,3999.24,4003.46,4006.95,4011.02,4013.49,4016.57,4021.01,4023.95,4026.99,4026.65,4027.54,4029.77,4030.57,4034.59,4038.7,4039.34,4039.42,4042.81,4047.02,4051.76,4057.32,4061.38,4064.08,4066.15,4065.29,4063.9,4057.83,4054.2,4048.04,4039.12,4033.25,4027.38,4020.41,4014.85,4007.12,3998.16,3990.63,3984.41,3980.21,3977.06,3972.52,3967.42,3961.21,3958.2,3958.13,3955.46,3951.11,3946.24,3941.94,3940.08,3937.17,3935.19,3931.43,3925.72,3920.57,3917.58,3913.28,3908.99,3902.7,3905.34,3906.06,3910.8,3915.64,3918.03,3919.46,3924.59,3927.35,3928.29,3929.06,3930.7,3930.81,3931.67,3934.06,3932.95,3924.68,3914.88,3902.35,3886.61,3870.25,3851.97,3828.94,3802.6,3773.53,3742.84,3713.56,3684.8,3650,3613.75,3578.79,3554.68,3513.09,3453.9,3373.9,3276.91,2992.07,2751.39,2658.96,2739.16,2740.8,2671.15,2625.25,2597.85,2582.36,2579.08,2576.27,2573.7,2571.63,2569.92,2568.1,2567.11,2565.78,2565.44,2566.17,2570.04,2577.83,2641.5,2733.06,2834.64,2932.56,3039.86,3189.98,3332.31,3482.48,3620.19,3643.42,3651.35,3657.68,3661.46,3665.81,3673.42,3682.26,3691.49,3700.35,3707.38,3713.25,3717.7,3723.64,3728.99,3733.99,3743.77,3750.17,3757.97,3764.68,3773.77,3780.92,3785.49,3786.82,3787.55,3786.03,3782.12,3777.28,3773.6,3769.35,3766.75,3763.66,3760.98,3756.73,3750.75,3745.05,3738.1,3730.48,3723.88,3717.14,3711.58,3708.47,3704.72,3702.51,3700.27,3698.8,3696.83,3695.52,3693.48,3692.2,3691.59,3694.71,3699.51,3704.72,3711.42,3720.96,3735.51,3741.84,3747.84,3752.85,3754.75,3757.62,3759.64,3761.47,3763.43,3764.98,3764.71,3763.54,3760.94,3758.75,3755.88,3753.43,3751.42,3747.19,3743.98,3741.94,3739.62,3737.42,3733.64,3727.7,3720.9,3713.24,3705.07,3696.18,3687.27,3668.81,3658.02,3650.91,3646.19,3641.42,3641.77,3634.48,3630.68,3625.31,3623.77,3622.97,3621.71,3621.8,3622.44,3624.81,3627.75,3630.84,3634.35,3637.4,3641.65,3646.59,3651.89,3657.2,3663.94,3671.4,3679.11,3685.99,3693.85,3700.58,3706.19,3712.01,3716.52,3718.15,3717.88,3717.72,3717.48,3716.27,3714.62,3712.78,3710.69,3709.52,3709.08,3708.17
4041.66,4034.13,4026.41,4017.49,4012.49,4007.75,4003.23,3999.18,3997.3,3995.88,3997.87,3999.93,4005.35,4008.17,4012.69,4016.94,4021.46,4027.46,4034.56,4037.82,4044.53,4051.56,4052.49,4052.86,4053.27,4051.74,4048.73,4045.7,4044.58,4036.37,4034.01,4035.7,4035.76,4031.78,4029.7,4025.51,4022.19,4017.01,4015.25,4014.73,4014.53,4013.33,4012.67,4011.59,4011.12,4008.11,4007.81,4010.38,4004.74,3998.1,3994.87,3990.64,3982.92,3978.36,3979.92,3974.74,3973.25,3976.65,3980.62,3984.17,3989.58,3998.2,4006.12,4013.49,4029.81,4039.48,4047.9,4055.25,4064.46,4071.62,4079.35,4088.2,4091.95,4091.84,4096.01,4092.51,4076.29,4056.64,4035.29,4008.98,3979.05,3961.26,3948.09,3937.5,3928.52,3926.46,3930.13,3933.92,3932.69,3935.89,3933.14,3933.67,3937.3,3938.71,3942.92,3946.21,3949.08,3959.63,3966.4,3971.55,3971.43,3966.93,3965.24,3965.48,3962.43,3960.81,3961.3,3962.67,3964.29,3966.01,3970.43,3974.05,3979.06,3985.06,3990.11,3992.99,3995.4,3997.79,3999.55,4002.75,4004.11,4002.88,4002.79,4003.75,4002.45,4000.98,4001.24,3999.71,3995.02,3990.34,3988.85,3984.88,3982.02,3983.08,3985.1,3983.69,3984.79,3987,3989.4,3990.99,3994.29,3996.6,3996.64,3995.73,3996.82,3998.24,3997.29,4000.28,4003.74,4006.38,4009.59,4010.93,4013.2,4016.47,4019.35,4021.95,4022.46,4023.65,4026.31,4028.37,4033.71,4039.06,4040.75,4042.94,4047.72,4053.2,4059.03,4064.56,4068.23,4070.2,4070.99,4069.4,4065.76,4058.35,4051.96,4044.32,4034.17,4026.87,4019.56,4011.53,4005.81,3997.35,3987.35,3978.06,3970.57,3965.54,3961.61,3956.38,3949.98,3943.02,3937.87,3936.37,3932.48,3926.87,3921.76,3917.62,3916.33,3914.14,3914.11,3911.81,3906.76,3902.2,3899.05,3892.12,3890.34,3887.6,3886.52,3885.74,3888.88,3893.29,3895.32,3897.77,3901.63,3902.79,3902.61,3902.16,3902.73,3901.48,3900.42,3902.08,3900.96,3892.11,3881.31,3868.12,3852.39,3835.27,3817.13,3795.37,3769.14,3742.26,3716.1,3691.98,3668.97,3642.73,3610.56,3589.96,3564.62,3529.43,3475.34,3405.09,3313.06,3121.35,2773.35,2617.66,2521.92,2753.59,2678.16,2629.03,2599.92,2585.23,2581.99,2578.6,2576.02,2574.28,2572.86,2570.67,2569.52,2568.55,2567.67,2568.21,2571.05,2578.48,2638.03,2727.88,2828.14,2927.4,2997.58,3181.3,3323.47,3473.32,3617.99,3644.46,3653.04,3660.3,3663.59,3666.63,3673.35,3681.2,3689.94,3697.61,3704.67,3709.16,3713.38,3719.36,3724.35,3728.95,3736.54,3739.79,3746.5,3754.93,3762.68,3770.01,3773.93,3775,3776.95,3775.69,3772.52,3769.7,3766.32,3763.83,3761.75,3759.62,3758.87,3755.29,3750.37,3746,3739.44,3733.19,3726.31,3720.45,3715.47,3711.95,3707.94,3705.44,3703.01,3701.37,3699.66,3697.37,3695.79,3694.65,3695.02,3696.63,3700.69,3705.24,3711.38,3719.98,3725.05,3732.46,3739.45,3745.34,3747.22,3749.27,3751.39,3752.39,3753.83,3755.86,3755.92,3755.16,3753.89,3753.12,3751.03,3749.5,3749.07,3746.67,3744.54,3743.38,3741.75,3738.81,3734.92,3728.96,3720.46,3712.46,3704.01,3694.21,3678.06,3665.15,3653.79,3646.46,3640.75,3635.4,3629.37,3624.47,3619.86,3616.97,3615.17,3613.86,3612.67,3612.2,3613.06,3615.34,3618.18,3622.33,3625.61,3629.42,3633.89,3640.09,3646.03,3652.68,3660.62,3669.73,3678.74,3687.07,3696.46,3704.12,3710.4,3717.05,3721.36,3722.78,3722.07,3721.43,3720.4,3718.68,3716.09,3713.75,3710.14,3708.6,3708.56,3707.51
4022.95,4015.69,4008.46,4001.71,3997.8,3993.6,3989.62,3987.05,3986.37,3987.2,3990.46,3994.25,4000.99,4004.56,4010.78,4015.23,4021.79,4030.4,4039.34,4045,4054.35,4062.68,4064.52,4066.35,4067.13,4066.32,4063.57,4061.77,4064.54,4062.78,4058.7,4052.19,4047.44,4042.14,4038.89,4033.38,4028.75,4021.6,4016.89,4014.85,4013.09,4010.32,4008.29,4006.9,4007.15,4005.25,4010.44,4011.45,4007.49,4003.47,4001.86,4000.15,3994.36,3993.64,3993.07,3987.51,3984.96,3986.52,3989.39,3991.09,3993.43,3998.47,4000.68,4012.36,4023.62,4031.96,4038.56,4045.26,4053.98,4060.95,4069.34,4078.35,4081.88,4081.54,4085.9,4082.06,4066.52,4046.92,4026.33,4000.08,3970.61,3953.86,3942.55,3933.19,3925.97,3926.16,3930.92,3936.98,3936.11,3940.16,3938.32,3937.39,3939.78,3938.66,3940.6,3942.56,3943.86,3952.91,3958.17,3961.32,3959.85,3955.57,3954.18,3955.11,3952.76,3951.7,3953.22,3956.02,3959.43,3963.41,3969.91,3975.21,3980.76,3988.05,3994.25,3998.49,4001.36,4003.21,4005.17,4008.25,4009.6,4007.88,4007.02,4005.87,4002.85,3998.62,3997.06,3993.76,3986.53,3980.89,3976.96,3971.27,3967.12,3967.88,3967.84,3966.53,3967.33,3968.98,3971.55,3973.47,3977.83,3980.72,3981.15,3982.4,3987.28,3989.58,3989.87,3993.14,3997.49,4000.47,4004.58,4006.44,4009.2,4011.12,4014.29,4017.23,4018.4,4020.44,4023.51,4025.67,4030.32,4036,4038.54,4041.21,4044.55,4048.17,4053.35,4058.54,4061.77,4063.27,4062.32,4057.96,4053.82,4046.79,4041.78,4033.14,4023.77,4016.35,4009.41,4001.54,3995.46,3985.75,3976.82,3967.35,3959.97,3953.34,3947.64,3941.74,3933.51,3925.51,3918.7,3914.68,3909.32,3902.75,3897.46,3893.32,3890.68,3889.72,3890.29,3888.16,3884.52,3879.95,3878.21,3871.96,3870.66,3868.02,3867.26,3865.95,3869.31,3873.62,3876.85,3878.34,3880.51,3880.76,3879.37,3877.8,3877.39,3876.41,3874.01,3874.76,3872.92,3864.59,3852.19,3838.9,3823.83,3807.51,3789.41,3767.79,3743.69,3720.13,3698.3,3678.9,3660.5,3641.17,3620.08,3600.69,3583.1,3556.44,3509.51,3445.91,3363.1,3203.42,2638.91,2657.54,1860.41,2765.52,2683.67,2632.38,2603.12,2587.88,2584.57,2580.84,2578.23,2576.8,2575.28,2573.51,2572.1,2570.41,2569.25,2569.06,2571.3,2578.53,2632.11,2719.97,2818.27,2916.78,2609.24,3168.93,3310.56,3461.06,3612.3,3642.1,3652.78,3661.09,3664.51,3667.24,3673.2,3679.92,3687.89,3695.33,3701.43,3706.35,3710.01,3715.66,3721.26,3724.49,3728.95,3738.46,3741.38,3749.13,3754.12,3759.57,3763.3,3764.19,3765.71,3765.56,3762.49,3760.08,3757.72,3756.05,3755.54,3753.81,3753.85,3751.78,3748.12,3744.95,3740.22,3735.29,3729.62,3724.25,3721.13,3717.57,3713.93,3711.31,3709.16,3707.08,3705.91,3704.25,3702.44,3701.38,3701.46,3703,3706.11,3711.18,3716.29,3724,3730.54,3737.08,3743.17,3745.39,3746.12,3748.34,3749.27,3749.62,3751.02,3752.51,3753.29,3752.4,3751.73,3750.95,3749.08,3748.84,3749.61,3748.36,3746.59,3746.64,3745.48,3742.26,3737.31,3730.67,3722.22,3712.51,3703.91,3693.06,3682.16,3659.91,3650.94,3642.92,3636.36,3631.39,3628.14,3625.09,3617.83,3611.52,3611.92,3607.65,3606.21,3605.89,3606.46,3608.81,3611.34,3615.04,3619.01,3623.18,3628.26,3634.58,3641.66,3649.38,3658.18,3668.31,3677.81,3687.12,3697.13,3706.19,3713.88,3720.66,3724.26,3725.44,3724.19,3722.4,3720.95,3717.88,3714.16,3711.07,3706.37,3705.32,3704.93,3704.19
4015.12,4007.03,3996.64,3988.06,3988.39,3980.25,3976.91,3974.19,3974.19,3975.61,3980.18,3985.36,3991.83,3996.54,4006.99,4017.26,4025.79,4032.32,4048.54,4056.65,4068.22,4078.85,4083.74,4085.95,4087.79,4087.06,4088.13,4086.09,4080.64,4075.19,4070.41,4065.81,4059.35,4049.57,4045.54,4039.22,4032.62,4023.45,4016.82,4012.96,4010.62,4006.45,4003.47,4002.53,4002.92,4001.73,4007.82,4011.02,4008.8,4005.84,4008.98,4009.34,4008.77,4006.59,4003.85,3998.34,3994.81,3994.97,3996.37,3996.24,3996.22,3995.56,4000.85,4008.41,4017.49,4023.95,4029.75,4035.63,4043.7,4050.06,4057.97,4067.06,4069.78,4069.67,4073.78,4069.07,4053.99,4034.37,4013.22,3988.42,3961.14,3942.84,3930,3926.16,3924.74,3926.83,3934.72,3940.27,3943.78,3948.62,3947.2,3948.64,3945.51,3943.63,3944.15,3942.83,3942.4,3948.93,3952.35,3953.45,3950.27,3945.76,3944.27,3945.84,3942.98,3943.07,3945.7,3950.53,3954.62,3960.22,3967.91,3974.24,3980.39,3988.56,3995.16,3999.16,4002.68,4005.8,4008.24,4011.39,4012.49,4010.56,4009.15,4007.6,4003.32,3998.63,3995.33,3990.67,3982.44,3975.64,3969.46,3962.55,3956.7,3955.73,3954.55,3951.19,3950.79,3952.19,3953.87,3955.78,3960.57,3964.16,3966.46,3969.49,3974.91,3978.31,3979.98,3984.49,3989.71,3993.43,3997.17,3999.42,4002.37,4004.98,4008.38,4012.76,4014.24,4016.72,4020.43,4022.11,4025.57,4030.86,4033.7,4034.83,4037.18,4038.57,4041.24,4045.29,4048.37,4049.66,4046.6,4041.8,4036.58,4030.15,4025.58,4019.34,4010.16,4002.84,3996.85,3989.79,3984.58,3975.42,3967.99,3958.54,3950.06,3943.21,3937.58,3930.35,3921.2,3910.85,3902.81,3896.05,3889.98,3882.36,3876.15,3870.56,3868.73,3868.31,3869.53,3865.38,3861.88,3858.1,3855.9,3856.06,3852.82,3847.98,3850.75,3850.76,3854.44,3858.86,3861.9,3863.68,3865.77,3865.3,3862.51,3861.75,3861.87,3860.17,3858.3,3860.76,3859.43,3853.07,3845.08,3832.91,3818.06,3802.48,3786.85,3767.8,3745.09,3723.29,3703.66,3685.15,3668.37,3651.05,3632.43,3614.76,3599.69,3577.08,3535.22,3476.36,3403.38,3250.36,2773.32,2601.31,1820.84,2773.47,2686.81,2634.16,2604.73,2590.18,2586.84,2583.31,2580.82,2579.18,2577.88,2575.9,2574.04,2571.8,2570.22,2569.63,2571.1,2578.31,2625.81,2711.14,2807.16,2903.43,2743.79,3154.01,3295.34,3446.41,3600.57,3638.05,3650.19,3659.2,3663.1,3665.34,3670.28,3676.89,3684.68,3691.12,3696.18,3700.77,3704.59,3710.18,3715.66,3718.8,3725.39,3728.8,3735.63,3741.92,3746.11,3747.73,3750.57,3751.16,3751.81,3752.4,3750.45,3748.97,3747.04,3746.59,3746.45,3746.33,3746.98,3747.35,3743.99,3743.34,3740.29,3737.44,3732.39,3728.64,3726.34,3722.86,3720.05,3718.37,3715.66,3714.02,3713.31,3711.7,3710.26,3709.09,3710.15,3712.21,3715.69,3722.13,3727.32,3734.31,3743.15,3746.71,3749.96,3751.39,3751.52,3752.91,3753.38,3753,3752.9,3753,3753.22,3752.44,3750.72,3750.09,3748.31,3748.3,3749.43,3748.88,3748.3,3748.66,3747.65,3744.31,3740.14,3732.8,3723.28,3712.93,3703.08,3692.7,3680.11,3656.84,3647.76,3639.47,3635.44,3627.21,3629.55,3623.18,3618.34,3606.1,3607.21,3605.75,3601.83,3600.82,3601.24,3603.24,3606.6,3610.32,3614.8,3618.95,3624.96,3631.77,3639.05,3647.27,3656.65,3667.43,3677.28,3687.58,3698.01,3707.95,3715.26,3722.68,3726.05,3726.19,3724.51,3721.64,3718.53,3714.43,3710.37,3706.66,3701.77,3699.87,3699.97,3699.24
4004.71,3997.07,3991.12,3987.14,3985.15,3981.03,3977.89,3975.9,3975.93,3977.75,3982.73,3988.53,3995.28,3999.44,4005.53,4012.09,4021.18,4033.68,4046.26,4055.27,4067.1,4077.85,4082.31,4085.23,4087.12,4089.26,4087.26,4086.6,4081.7,4077.52,4073.06,4068.58,4062.46,4055.96,4050.52,4040.91,4032.64,4022.86,4014.59,4009.32,4006.45,4002.65,3999.31,3997.81,3998.23,3998.69,4005.12,4009.78,4009.82,4011.67,4013.25,4018.23,4017.22,4016.17,4014.42,4009.46,4006.36,4005.7,4005.87,4003.83,4002,4001.83,4002.2,4006.17,4012.53,4017.81,4022.8,4027.89,4034.53,4039.34,4045.59,4053.15,4055.19,4054.95,4057.54,4052.46,4040.6,4025.31,4007.38,3984.79,3962.46,3951.13,3943.05,3939.11,3938.23,3941.95,3949.91,3958.33,3965.48,3974.54,3971.87,3968.94,3963.14,3958.19,3953.87,3947.67,3947.37,3949.09,3949,3947.41,3942.91,3937.74,3936.22,3938.18,3936.33,3937.14,3939.79,3945.41,3951.63,3958.43,3966.79,3974.26,3981.31,3989.02,3995.81,3999.99,4004.15,4007.91,4010.84,4014.3,4014.58,4013.63,4011.17,4008.49,4003.76,3997.94,3993.35,3986.24,3977.64,3968.93,3960.71,3953.28,3946.62,3943.38,3940.9,3936.76,3935.58,3936.28,3938.6,3940.11,3943.68,3948.07,3951.49,3954.61,3960.68,3964.95,3967.3,3972.53,3978.47,3981.86,3986.06,3989.91,3992.88,3994.96,3998.88,4003,4003.84,4006.91,4010.03,4010.64,4013.25,4016.99,4018.22,4019.11,4020.82,4021.53,4023.83,4024.89,4028.13,4027.87,4024.54,4020.55,4014.8,4008.97,4005.87,4001.78,3995.46,3988.65,3982.33,3976.39,3972.36,3964.81,3958.37,3948.68,3939.67,3932.92,3925.66,3917.9,3907.06,3896.17,3885.92,3878.07,3871.28,3862.68,3856.77,3852.59,3850.11,3850.88,3853.46,3854.79,3851.62,3853.14,3853.79,3854.16,3852.73,3853.72,3855.17,3856.39,3860.17,3864.24,3866.64,3868.38,3869.35,3867.94,3864.96,3863.36,3863.55,3861.61,3859.72,3861.5,3861.19,3854.76,3847.23,3835.18,3821.17,3806.22,3791.56,3773.29,3753.36,3733.23,3714.78,3697.37,3681.89,3665.46,3647.64,3631.4,3616.46,3596.15,3558.8,3503.82,3439.32,3277.65,2560.78,2380.89,1589.35,2779.34,2688.39,2634.54,2605.64,2591.78,2588.92,2585.93,2583.12,2581.76,2580.08,2577.65,2575.62,2572.74,2570.5,2569.57,2570.52,2577.31,2619.22,2701.17,2794.25,2889.56,2810.55,3137.45,3281.35,3432.38,3584.9,3631.83,3646.41,3657.09,3660.26,3662.73,3667.69,3676.04,3682.77,3688.7,3695.39,3700.01,3700.43,3705.85,3710.94,3715.68,3719.09,3722.18,3725.12,3730.5,3738.44,3739.74,3741.52,3739.57,3739.83,3737.71,3736.7,3736.25,3735.88,3735.9,3737.51,3738,3740.68,3742.05,3740.3,3740.31,3739.84,3737.55,3734.22,3731.64,3730.16,3727.6,3725.02,3724.33,3722.12,3720.57,3720.03,3718.93,3718.04,3719.72,3721.54,3724.07,3729.89,3734.83,3744.91,3749.13,3754.08,3757.08,3759.8,3761.69,3761.7,3761.92,3761.28,3760.34,3759.32,3758.98,3757.74,3755.79,3753.71,3752.86,3751.07,3751,3752.56,3752.54,3752.08,3752.9,3752.57,3750.12,3745.34,3737.92,3728.13,3717.23,3706.4,3695.56,3681.46,3662.64,3652.5,3642.98,3633.16,3633.7,3626.41,3620.23,3615.36,3609.44,3608.08,3600.98,3605.46,3598.96,3599.44,3601.32,3604.48,3607.87,3613.02,3617.69,3623.73,3631.47,3639.09,3647.5,3657.3,3668.39,3678.57,3688.78,3699.44,3708.83,3716.75,3723.64,3726.4,3725.45,3722.71,3719.59,3715.22,3710.64,3705.75,3701.09,3696.18,3694.48,3695.39,3694.75
4008.83,3999.91,3992.24,3987.72,3984.36,3979.81,3976.45,3974.85,3974.85,3977.71,3982.67,3988.6,3994.28,3998,4003.79,4010.75,4019.62,4031.8,4045.05,4053.26,4064.44,4072.14,4080.29,4082.49,4086.7,4086.14,4084.48,4084.37,4080.66,4077.01,4069.98,4068.94,4063.3,4057.27,4045.51,4038.27,4025.64,4014.84,4004.92,3998.35,3994.11,3989.62,3985.09,3983.1,3987.1,3988.89,3996,4006.09,4011.4,4012.11,4015.33,4023.18,4024.38,4024.91,4024.55,4020.86,4017.85,4016.43,4016.01,4013.23,4010.07,4007.69,4006.69,4007.43,4010.11,4013.62,4016.94,4020.65,4024.18,4026.05,4029.79,4034.34,4034.21,4032.1,4033.74,4030.58,4021.9,4009.08,3996.79,3982.75,3966.39,3955.6,3950.75,3950.24,3949.57,3953.59,3961.21,3969.76,3973.67,3979.21,3975.25,3978.71,3978.5,3968.03,3962.02,3953.56,3950.2,3947.79,3944.7,3939.75,3934.07,3928.73,3928.01,3931.43,3930.32,3930.88,3934.86,3941.35,3948.46,3956.01,3965.25,3973.34,3981.42,3989.23,3996.55,4001.46,4005.11,4009.23,4012.29,4014.69,4014.53,4012.52,4009.81,4005.8,4000.58,3993.62,3988.44,3981.45,3972.43,3962.25,3954.66,3946.65,3938,3933.8,3929.66,3925.26,3922.2,3922.06,3924.42,3925.75,3929.6,3933.71,3938.18,3942,3947.97,3952.88,3956.56,3962.14,3967.14,3971.43,3976.13,3979.51,3979.4,3983.49,3987.12,3990.77,3991.78,3994.67,3997.5,3997.62,3997.97,4000.41,4000.85,4000.46,4001.13,4001.55,4002.45,4003.18,4006.01,4006.2,4003.72,4000.42,3996.53,3992.4,3990.06,3986.18,3981.93,3977.95,3974.41,3969.86,3967.34,3961.65,3956.22,3947.65,3940.21,3932.99,3925.89,3915.9,3903.01,3891.4,3881.07,3871.59,3864.45,3856.69,3851.49,3848.71,3847.71,3851.71,3855.5,3858.43,3859.75,3860.81,3861.81,3863.02,3861.81,3863.41,3865.46,3866.33,3869.26,3871.83,3873.55,3873.45,3874.05,3871.72,3867.2,3865.75,3865.44,3864.25,3862.17,3865.34,3863.78,3857.14,3849.04,3837.88,3825,3810.58,3796.92,3780.42,3761.48,3743.36,3725.77,3709.68,3694.6,3679.29,3662.6,3646.01,3632.54,3613.73,3579.96,3530.09,3475.36,3305.8,2296.6,2087.28,1303.08,2784.95,2689.69,2633.83,2605.19,2592.64,2590.76,2587.7,2585.19,2583.51,2581.59,2578.9,2576.36,2573.25,2570.83,2569.42,2569.62,2575.96,2613.51,2690.96,2781.58,2879.41,2672.96,3123,3264.18,3417.85,3572.48,3625.69,3643.33,3658.65,3660.91,3668.63,3672.94,3677.69,3684.3,3689.93,3693.21,3697.37,3699.27,3704.18,3708.85,3710.75,3713.43,3715.33,3717.76,3721.2,3725.9,3728.14,3729.56,3727.46,3724.58,3725.93,3722.71,3722.88,3723.68,3724.27,3725.91,3728.16,3731.49,3734.3,3734.81,3735.96,3736.74,3735.87,3733.42,3731.58,3732.07,3729.48,3727.53,3727.26,3725.84,3724.51,3725.36,3725.6,3727.65,3732.69,3735.54,3738.6,3743.64,3748.68,3756.84,3761.41,3766.61,3769.96,3772.55,3774.4,3774.19,3773.04,3771.61,3769.36,3767.1,3765.04,3763.25,3760.4,3757.74,3756.65,3755.17,3754.71,3755.87,3755.9,3755.58,3757.29,3757.96,3755.73,3752.22,3742.16,3735.58,3724.7,3714.42,3702.01,3684.06,3670.26,3658.43,3648.03,3640.41,3634.15,3630.28,3624.55,3619.79,3613.72,3612.44,3611.65,3610.35,3607.13,3604.72,3603.09,3606.85,3610.18,3615.68,3620.49,3626.43,3634.34,3642.42,3651.09,3660.76,3671.05,3681.34,3694.17,3707.76,3716.39,3723.78,3726.17,3728.17,3723.82,3724.1,3719.69,3711.39,3705.92,3700.87,3696.03,3690.81,3689.65,3690.28,3690.1
4015.71,4003.14,3994.17,3988.18,3983.18,3978.41,3974.37,3972.15,3971.67,3974.87,3981.03,3986.6,3992,3994.6,4001.07,4007.63,4017.76,4030.04,4042.38,4051.37,4058.81,4066.36,4071.53,4076.5,4075.19,4083.08,4081.39,4081.6,4078.66,4074.98,4071.13,4067.17,4061.57,4055.39,4047.4,4037.39,4023.88,4013.81,4002.82,3995.02,3989.78,3983.82,3977.42,3974.5,3973.94,3976.72,3986.59,3991.01,3996.24,4004.48,4015.95,4023.96,4027.68,4029.76,4031.23,4028.5,4025.16,4023.22,4022.58,4018.32,4012.91,4008.07,4004.39,4001.94,4002.29,4003.71,4005.53,4006.66,4008.31,4008.7,4009.88,4011.77,4011.19,4009.88,4009.93,4008.49,4005.5,3997.84,3991.07,3983.86,3970.75,3963.72,3962.59,3963.06,3963.93,3966.11,3972.58,3979.11,3984.37,3990.61,3990.71,3991.85,3989.72,3979.6,3965.36,3959.07,3950.94,3945.69,3939.21,3931.36,3923.82,3919.14,3920.54,3926.78,3927.2,3928.86,3933.04,3940.47,3947.86,3955.11,3963.81,3972.14,3980.2,3988.27,3996.2,4000.65,4004.62,4009.29,4012.01,4013.86,4013.53,4010.76,4007.05,4002.89,3996.08,3988.66,3982.48,3975.17,3966.02,3956.04,3947.7,3939.52,3930.61,3925.23,3920.42,3915.42,3911.75,3909.79,3911.61,3912.54,3916.07,3920.38,3925.11,3929.97,3936.07,3941.65,3946.2,3951.91,3957.74,3962.54,3966.66,3970.47,3972.53,3974.78,3978.32,3982.06,3983.84,3986.49,3987.6,3986.73,3986.4,3987.69,3985.92,3984.89,3983.71,3982.28,3983.06,3982.78,3985.59,3985.85,3984.88,3983.24,3980.75,3978.16,3977.55,3976.33,3974.76,3972.07,3970.01,3968.47,3967.33,3962.75,3959.14,3951.9,3944.58,3937.65,3930.28,3920.71,3907.09,3894.63,3884.04,3873.82,3866.53,3859,3854.59,3852.43,3852.2,3856.62,3860.84,3864.67,3866.72,3867.72,3869.36,3870.96,3870.12,3872.42,3873.83,3874.01,3875.29,3876.87,3877.93,3877.71,3876.56,3873.63,3868.75,3866.04,3865.42,3864.24,3862.93,3864.51,3863.24,3856.45,3848.93,3838.53,3826.5,3813.85,3797.98,3780.26,3763.49,3751.03,3735.99,3720.67,3705.76,3690.95,3674.34,3658.3,3644.95,3627.71,3597.37,3551.8,3504.91,3328.48,2257.67,1955.54,1131.81,2788.78,2690.07,2632.3,2604.91,2593.73,2591.85,2589.44,2586.91,2584.87,2582.45,2579.42,2576.56,2573.53,2570.69,2568.53,2568.6,2575.14,2608.08,2680.89,2768.86,2865.54,2194.75,3107.05,3247.06,3394.77,3550.35,3622.78,3643.3,3655.16,3660.15,3662.63,3666.38,3673.5,3679.75,3684.44,3687.28,3692.85,3692.1,3696.48,3700.67,3702.4,3706.48,3710.62,3709.79,3710.63,3713.53,3718.39,3719.15,3713.17,3710.21,3711.08,3710.29,3710.69,3712.59,3713.34,3715.86,3718.1,3722.34,3726.28,3727.71,3729.46,3731.38,3731.46,3730.11,3729.61,3730.64,3729.99,3728.94,3729.14,3728.79,3728.56,3730.76,3731.68,3737.95,3738.46,3741.66,3751.61,3756.71,3763.09,3769.25,3774.67,3780.18,3784.45,3787.64,3788.04,3787.73,3786.29,3783.42,3780.21,3777.82,3773.75,3771.13,3767.69,3764.82,3762.93,3761.38,3760.48,3761.47,3761.55,3761.61,3763.56,3764.77,3763.09,3760.64,3751.34,3744.69,3734.48,3723.76,3711.44,3695.72,3675.44,3665.98,3654,3645.13,3639.6,3628.89,3629.4,3624.79,3619.6,3616.3,3614.89,3613.74,3613.43,3610.64,3612.2,3612.47,3616.13,3621.29,3626.15,3632.4,3640.29,3649.29,3657.74,3667.11,3679.9,3689.48,3698.55,3707.89,3715.43,3721.8,3726.34,3724.17,3722.79,3719.29,3714.77,3709.08,3702.23,3697.06,3691.61,3686.91,3684.96,3686.6,3690.48
4018.65,4005.07,3994.52,3986.96,3982.47,3977.82,3973.24,3970.55,3969.81,3973.47,3978.78,3983.86,3988.63,3991.42,3997.25,4003.91,4013.38,4025.81,4037.96,4047.05,4053.68,4060.74,4066.36,4068.53,4076.31,4076.42,4077.22,4074.54,4074.74,4071.17,4066.91,4063.16,4058.39,4051.8,4040.39,4033.6,4019.14,4012.09,3999.5,3990.75,3983.69,3977.14,3969.84,3966.87,3965.7,3971.05,3974.27,3981.88,3988.87,4001.59,4010.79,4020.43,4026.38,4030.35,4032.5,4031.59,4028.98,4026.01,4024.14,4019.29,4011.59,4005.36,4000.69,3995.63,3993.95,3992.69,3993.3,3992.66,3992.85,3990.66,3990.75,3991.24,3989.31,3987.09,3986.87,3986.88,3987.81,3987.83,3985.76,3983.96,3976.96,3975.23,3973.15,3977.12,3978.78,3981.49,3985.15,3991.54,3996.57,4009.58,4011.31,4011.67,4003.75,3991.55,3975.54,3967.67,3958.45,3950.12,3941.17,3930.3,3921.6,3917.07,3917.77,3925.32,3925.96,3927.85,3933.15,3939.38,3946.02,3952.66,3959.75,3967.56,3975,3982.75,3990.58,3995.22,3999.76,4005.23,4009.75,4012.05,4011.77,4008.99,4004.16,3998.53,3991.85,3984.57,3978.84,3971.84,3963.27,3954.14,3946.08,3937.74,3928.78,3922.75,3917.71,3912.61,3908.74,3905.51,3906.4,3907.17,3909.69,3914.72,3919.23,3923.81,3929.45,3935.16,3940.27,3947.47,3953.55,3958.11,3961.97,3966.08,3968.69,3969.78,3972.93,3976.05,3976,3977.37,3977.98,3976.28,3974.25,3972.45,3968.43,3965.88,3962.96,3960.42,3960.2,3959.83,3962.8,3962.8,3963.31,3964.02,3963.62,3963.66,3965.53,3965.83,3966.17,3966.19,3967.71,3968.29,3968.67,3966.22,3963.5,3957.87,3952.29,3945.08,3937.71,3927.78,3913.38,3900.11,3889.02,3878.79,3870.55,3862.49,3858.74,3856.39,3855.54,3860.87,3865.35,3869.5,3871.7,3872.46,3875.08,3877.5,3877.35,3879.63,3880.21,3880.95,3881.58,3881.21,3881.57,3880.52,3877.79,3874.1,3868.56,3865.07,3864.97,3864.16,3862.69,3863.92,3862.72,3855.82,3849.01,3838.96,3828.54,3813.54,3799.3,3783.75,3768.43,3760.57,3746.28,3732.04,3717.17,3702.06,3686.1,3669.68,3656.05,3639.48,3610.2,3568.67,3526.8,3350.79,2221.88,1677.16,947.74,2791.78,2692.42,2632.04,2605.02,2594.95,2592.12,2590.08,2587.75,2585.08,2582.28,2579.38,2575.78,2572.41,2569.47,2567.49,2567.4,2573.88,2602.63,2669.03,2754.52,2850.39,2159.12,3092.14,3231.22,3381.53,3535.98,3624.13,3647.04,3660.95,3664.66,3667.73,3670.72,3674.95,3680.56,3685.17,3689.52,3689.95,3691,3693.87,3698.04,3699.63,3701.16,3705.27,3704.45,3706.79,3709.32,3710.35,3710.05,3708.37,3704.83,3702.58,3698.95,3699.67,3700.92,3702.61,3705,3707.9,3712.36,3717.16,3718.81,3721.44,3723.75,3724.98,3724.83,3725.92,3727.13,3726.57,3726.46,3727.26,3728.26,3729.17,3734.43,3741.66,3743.57,3745.93,3750.97,3759.06,3765.91,3773.77,3781.3,3787.48,3795.03,3799.07,3801.93,3802.94,3801.25,3799.36,3795.5,3791.37,3787.56,3782.75,3778.98,3775.57,3772.37,3770.95,3768.29,3767.01,3767.65,3767.81,3768.21,3770.53,3771.97,3771.39,3770.46,3761.76,3756.12,3746.84,3736.01,3723.91,3708.38,3692.86,3679.75,3667.23,3657.77,3650.89,3640.3,3637.32,3633.65,3630.52,3629.89,3626.22,3625.38,3624.85,3624.56,3619.79,3619.85,3623.64,3628.41,3633.97,3640.58,3649.56,3658.48,3666.88,3676.31,3688.19,3696.93,3705.45,3716.28,3719.71,3724.95,3728.84,3728.86,3723.93,3721.13,3715.92,3709.62,3702.56,3696.64,3691.01,3685.78,3684.02,3688.84,3686.43
4019.93,4006.45,3996.75,3989.4,3984.25,3979.5,3975.38,3973.08,3973.36,3976.08,3981.04,3984.24,3988.36,3990,3994.93,4000.47,4008.56,4019.8,4029.66,4038.11,4043.85,4051.06,4056.08,4058.31,4062.82,4065.72,4064.88,4068.03,4063.27,4063.06,4059.02,4055.4,4051.26,4044.8,4033.71,4026.63,4013.18,4003.21,3997.22,3985.67,3978.15,3971.86,3965.3,3960.75,3962.92,3962.44,3967.28,3973.68,3984.19,3997.22,4005.41,4012.78,4020.35,4024.81,4028.82,4033.32,4032.7,4030.14,4027.68,4021.55,4013.52,4005.08,3998.42,3992.41,3988.69,3985.5,3983.62,3981.97,3979.9,3977.23,3976.44,3975.72,3972.41,3969.82,3969.06,3969.16,3970.72,3974.02,3976.15,3977.81,3975.56,3978.28,3978.67,3983.4,3988.03,3995.49,3996.6,4002.3,4008.14,4020.41,4024.32,4024.95,4018.01,4005.73,3989.8,3980.76,3969.25,3958.98,3947.03,3934.21,3924.55,3919.33,3920.38,3925.36,3926.75,3927.64,3932.64,3938.8,3944.84,3950.94,3957.14,3964.22,3971.77,3979.16,3986.94,3991.71,3996.77,4002.37,4006.7,4009.66,4009.12,4007.4,4004.33,3999.42,3993.1,3987.7,3982.22,3976.76,3969.13,3960.89,3952.4,3943.83,3934.65,3927.82,3922.15,3916.81,3911.9,3909.01,3908.68,3908.31,3909.95,3914.33,3918.17,3922.11,3926.54,3931.23,3936.12,3943.51,3949.61,3953.81,3957.06,3960.55,3962.27,3962.82,3966.13,3967.69,3965.92,3965.34,3964.65,3961.39,3958.06,3954.42,3948.94,3944.18,3939.25,3936.01,3935.79,3935.09,3938.11,3939.45,3941.35,3944.2,3946.3,3948.48,3952.45,3954.87,3958.32,3960.13,3964,3966.61,3968.2,3967.34,3966.71,3961.63,3957.29,3950.39,3943.22,3933.86,3918.94,3905.72,3894.35,3884.13,3875.54,3867.98,3864.02,3861.52,3860.45,3866.4,3870.95,3875.09,3876.86,3877.38,3880.27,3883.54,3884.24,3887.18,3887.31,3886.92,3886.66,3885.96,3884.84,3883.28,3879.04,3874.22,3868.27,3864.04,3862.9,3862.66,3861.07,3861.35,3860.56,3854.27,3847.55,3840.26,3831.03,3815.16,3801.31,3790.14,3784.29,3770.24,3756.64,3742.39,3727.25,3711.99,3695.27,3679.63,3665.64,3648.94,3621.33,3582.55,3545.46,3376.81,2426.09,1838.23,1043.01,2785.64,2691.72,2630.52,2603.75,2594.3,2590.77,2589.43,2587.01,2584,2581.25,2577.88,2574.31,2570.53,2567.53,2565.44,2565.34,2571.91,2596.06,2654.81,2738.74,2836.18,2444.16,3075.27,3211.79,3359.45,3512.6,3618.75,3647.64,3661.71,3666.44,3669.29,3672.33,3676.22,3681.7,3684.83,3687.29,3689.01,3690.09,3694.81,3695.28,3696.63,3701.33,3702.95,3704.39,3703.8,3704.92,3705.3,3704.65,3702.03,3697.65,3694.21,3692.79,3689.98,3690.6,3691.6,3694.04,3696.95,3701.65,3706.26,3708.18,3711.37,3714.74,3715.87,3717.29,3718.71,3721.06,3721.28,3721.43,3724.07,3726.21,3730.42,3739.83,3742.15,3744.76,3748.92,3755.36,3763.93,3771.76,3779.88,3787.9,3794.99,3802.75,3807.71,3810.58,3808.1,3809.34,3806.17,3802.07,3797.03,3792.39,3784.48,3780.75,3779.95,3776.47,3775.43,3773.29,3772.02,3772.74,3773.51,3774.04,3776.87,3780.31,3780.78,3780.89,3773.99,3766.32,3757.83,3746.92,3737.4,3721.76,3702.78,3688.95,3675.3,3668.02,3660.32,3652.66,3647.09,3642.75,3640.16,3639.48,3635.88,3637.57,3637.32,3633.98,3628.75,3633.99,3632.59,3637.37,3643.41,3650.27,3659.87,3669.1,3676.93,3685.85,3694.42,3702.42,3712.75,3716.7,3722.48,3726.16,3728.51,3728.59,3727.2,3724.21,3718.95,3712.05,3704.92,3698.29,3692.94,3691.56,3689.27,3686.56,3690.47
4024.88,4013.02,4003.67,3995.81,3990.32,3985.35,3981.1,3974.82,3976.14,3982.61,3986.14,3987.12,3990.1,3991.18,3994.23,3999.25,4005.51,4014.03,4021.62,4024.44,4033.64,4035.04,4035.8,4037.47,4039.72,4042.5,4044.78,4045.05,4043.24,4043.59,4040.03,4036.65,4037.09,4030.97,4025.2,4013.48,4000.18,3992.03,3983.35,3971.44,3969.23,3963.17,3961.35,3958,3953.37,3956.81,3960.5,3966.7,3978.74,3989.65,3997.58,4008.29,4016.21,4021.32,4026.33,4028.86,4028.88,4027.12,4023.9,4017.14,4008.52,4004.14,3996.28,3988.03,3982.8,3978.25,3974.05,3971.48,3968.9,3965.15,3963.08,3961.29,3959.58,3957.32,3958.37,3958.59,3961.28,3966.05,3970.95,3972.68,3976.17,3982.18,3987.26,3994.38,4001.35,4008.09,4013.28,4022.84,4029.77,4034.87,4038.24,4037.75,4030.11,4016.66,3999.75,3988.6,3976.5,3964.56,3951.03,3937.89,3927.74,3922.24,3922.6,3927.31,3927.99,3928.35,3932.43,3937.98,3942.54,3947.63,3953.29,3959.77,3966.55,3973.51,3980.85,3985.85,3991.07,3997.86,4001.44,4003.83,4003.92,4002.13,3999.15,3995.46,3989.64,3985.49,3981.39,3976.8,3970.43,3963.94,3956.69,3948.76,3939.52,3932.83,3926.13,3920.22,3914.41,3911.37,3910.23,3908.79,3910.09,3913.37,3916.33,3918.98,3922.74,3926.35,3930.02,3937.62,3942.68,3947.47,3950.55,3953.1,3954.91,3955.48,3957.95,3959.07,3955.83,3954.05,3952.19,3947.46,3942.72,3937.73,3930.51,3923.59,3918.24,3914.29,3913.26,3912.43,3915.8,3916.59,3919.82,3925.21,3929.18,3934.01,3939.74,3943.73,3948.99,3953.35,3959.49,3962.88,3965.93,3966.64,3966.9,3963.24,3959.39,3953.01,3946.33,3936.46,3922.18,3909.03,3897.81,3887.56,3879.34,3871.87,3868.12,3865.25,3864.24,3869.83,3874.2,3878,3880.02,3880.57,3883.74,3886.66,3888.49,3891.63,3891.04,3890.26,3889.62,3888,3886.05,3883.44,3878.92,3873,3865.9,3861.67,3860.38,3859.57,3857.85,3858.32,3857.07,3851.67,3846.38,3839.46,3832.42,3815.22,3805.83,3803.68,3792.49,3779.47,3765.86,3751.92,3737.27,3721.55,3705.19,3688.99,3674.4,3657.94,3630.68,3593.92,3561.44,3404.22,2619.98,2028.53,835.359,2781.32,2697.51,2628.46,2601.28,2592.57,2588.58,2587.73,2585.55,2582.31,2579.27,2575.75,2571.72,2567.98,2565.18,2563.47,2563.19,2569.7,2589.07,2639.88,2722.83,2819.36,2692.19,3049.09,3197.07,3345.36,3497.4,3616.59,3644.36,3663.27,3668.04,3670.55,3673.91,3676.97,3681.14,3684.52,3686.41,3687.94,3688.69,3689.99,3695.04,3693.78,3698.5,3700.91,3702.14,3700.97,3702.63,3702.09,3701.69,3698.26,3694.85,3691.34,3686.24,3682.6,3683.23,3683.9,3685.76,3688.24,3692.4,3697.11,3699.13,3701.48,3704.86,3705.8,3706.83,3709.27,3711.54,3711.5,3712.52,3715.93,3726.04,3728.85,3733.95,3737.46,3740.93,3746.46,3756.76,3764.13,3773.34,3782.84,3792.03,3799.64,3808.09,3813.32,3813.11,3815.87,3813.59,3809.24,3805.03,3799.45,3791.92,3786.78,3783.21,3779.2,3779.16,3778.3,3776.39,3776.08,3776.64,3777.89,3778.98,3783.25,3786.93,3789.24,3791.68,3784.81,3778.06,3770.06,3760.12,3747.3,3731.55,3715.71,3701.6,3686.69,3678.95,3671.04,3662.95,3657.4,3653.95,3650.86,3650.4,3649.15,3647.92,3644.05,3643.63,3635.65,3637.95,3645.14,3647.22,3653.23,3660.53,3669.33,3682.07,3687.47,3696.09,3706.57,3716.94,3723.53,3729.24,3727.99,3731.17,3732.5,3732.35,3730.73,3728.43,3723.72,3716.95,3709.35,3703.53,3697.93,3693.34,3691.08,3691.97,3694.94
4032.42,4021.75,4013.01,4004.71,3998.05,3991.81,3983.32,3981.17,3979.01,3982.75,3984.05,3984.28,3986.23,3985.17,3987.46,3991.26,3996.12,4002.81,4012.61,4013.81,4022.46,4022.95,4027.22,4028.74,4030.3,4028.97,4031.6,4033.75,4032.2,4032.38,4028.38,4025.53,4025.76,4019.53,4013.75,4002.11,3990.61,3982.9,3975.11,3971.09,3961.38,3961.13,3959.43,3954.52,3955.36,3958.51,3962.59,3972.51,3984.78,3989.96,3996.6,4005.79,4012.62,4018.08,4023.28,4027.17,4026.98,4025.2,4021.43,4015.52,4010.95,4002.16,3994.23,3985.15,3977.49,3971.31,3966.34,3963.1,3959.2,3954.95,3951.9,3949.97,3948.38,3947.86,3950.4,3953.13,3957.34,3963.28,3970,3974.85,3982.31,3989.18,3996.72,4007.65,4011.4,4021.92,4026.57,4032.08,4037.45,4040.43,4042.39,4040.8,4032.94,4020,4003.14,3992.15,3979.9,3968.18,3953.89,3940.47,3929.74,3924.95,3924.52,3928.55,3929.5,3929.3,3933.3,3938.04,3941.28,3945.08,3950.29,3955.9,3962.59,3968.41,3975.91,3980.9,3986.19,3992.73,3997.14,3999.11,3998.52,3997.25,3994.56,3991.32,3987.02,3983.36,3980.31,3977.16,3972.08,3967.32,3960.26,3952.72,3943.57,3937.84,3930.86,3924.59,3918.77,3914.84,3912.79,3910.55,3909.57,3912.85,3914.25,3916.76,3919.54,3922.42,3925.51,3932.46,3937.14,3941.3,3943.8,3946.49,3947.81,3947.79,3950.41,3950.24,3945.36,3942.83,3940.07,3933.83,3928.51,3921.79,3912.95,3904.91,3898.14,3893.99,3892.51,3891.58,3894.63,3896.01,3900.28,3907.51,3912.42,3918.57,3925.6,3930.99,3937.1,3942.61,3950.3,3955.27,3958.73,3959.62,3960.87,3958.02,3955.06,3950.9,3944.3,3935.77,3921.8,3910.06,3899.3,3889.97,3882.77,3875.65,3872.4,3869.77,3867.73,3873.35,3877.58,3882.26,3883.62,3884.34,3887.02,3891.4,3892.61,3896.19,3894.92,3894.01,3893.2,3890.89,3889.15,3885.44,3879.62,3872.65,3865.76,3860.16,3857.82,3856.65,3855.22,3854.11,3852.17,3847.81,3843.83,3838.37,3833.1,3820.44,3817.02,3809.73,3799.89,3788.84,3775.63,3761.42,3746.07,3730.47,3713.91,3698.03,3682.78,3666.01,3639.03,3604.83,3575.03,3432.13,2599.91,1813.48,899.032,2735.46,2704.05,2627.84,2598.93,2590.95,2585.51,2585.59,2583.3,2580.02,2576.78,2573.13,2569.27,2565.42,2562.89,2561.23,2560.98,2566.59,2581.95,2626.36,2708.16,2804.74,2851.35,3015.28,3181.57,3335.31,3489.18,3620.85,3647.32,3663.01,3673.38,3675.64,3678.87,3681.83,3685.73,3688.71,3690.54,3691.28,3692.11,3692.67,3695.23,3696.67,3698.77,3701.28,3702.74,3704.12,3705.28,3705.03,3703.71,3699.83,3695.96,3685.46,3682.34,3680.43,3678.04,3678.12,3679.41,3680.87,3684.48,3688.28,3690.33,3692.63,3694.82,3695.45,3696.87,3698.82,3700.85,3701.5,3702.66,3706.2,3709.84,3724.14,3729.64,3733.48,3737.81,3744.95,3752.87,3761.28,3771.23,3781.51,3791,3799.89,3808.02,3813.63,3815.96,3815.38,3812.26,3808.3,3803.05,3797.19,3792.07,3787.35,3784.13,3781.07,3779.25,3779.28,3778.33,3777.84,3778.73,3779.6,3781.94,3786.67,3791.56,3794.72,3798.25,3793.22,3789.92,3783.35,3772.93,3760.56,3744.72,3729.02,3715.26,3699.54,3688.94,3680.45,3672.55,3667.27,3663.82,3660.68,3659.78,3658.88,3656.75,3655.98,3653.14,3647.46,3647.06,3650.43,3658.75,3661.91,3672.38,3682.36,3694.65,3699.9,3714.16,3720.6,3722.91,3729.45,3728.09,3738.26,3736.84,3737.83,3738.19,3733.75,3731.8,3727.23,3720.59,3714.28,3708.41,3703.04,3699.3,3697.07,3697.64,3700.97
4037.39,4026.85,4019.62,4010.35,4002.9,3997.07,3989.61,3984.16,3991.66,3990.64,3990.26,3989.06,3990.16,3989.29,3990.65,3992.93,3995.78,4000.01,4003.82,4007.77,4010.35,4014.54,4017.51,4018.52,4019.04,4017.82,4016.56,4018.85,4022.18,4021.03,4017.41,4014.7,4011.01,4004.82,3999.25,3993.06,3976.85,3969.16,3962,3957.19,3955.75,3953.08,3953.32,3953.73,3957.02,3960.94,3963.93,3976.44,3986.09,3991.05,3996.67,4005.47,4011.35,4015.52,4021.34,4025.41,4026.93,4024.61,4021.66,4019.34,4011.81,4003.74,3995.33,3985.53,3978.44,3971.98,3966.74,3963.26,3958.17,3952.74,3947.98,3945.97,3944.51,3944.13,3946.11,3948.33,3952.89,3959.57,3967.92,3976.42,3984.49,3990.75,4001.21,4008.86,4015.91,4022.25,4026.8,4031.99,4035.66,4037.97,4038.57,4037.48,4030.9,4019.22,4003.64,3994.15,3982.6,3970.89,3957.06,3943.74,3933.87,3928.23,3927.72,3930.63,3931.25,3929.56,3933.33,3937.04,3939.33,3942.47,3945.96,3950.72,3957.43,3963.16,3970.1,3975.78,3981.2,3987.03,3991.31,3993.49,3994.43,3992.8,3989.99,3987.23,3982.84,3981.06,3979.63,3977.51,3973.99,3968.59,3963.36,3957.3,3947.91,3942.24,3935.3,3929.51,3923.21,3918.72,3915.65,3912.91,3911.43,3913.43,3914.41,3915.38,3916.5,3918.39,3921.08,3927.55,3932.3,3935.6,3937.11,3939.61,3941.28,3941.06,3942.37,3942.1,3937.1,3933.25,3929.19,3922.77,3916.01,3908.22,3897.28,3889.36,3881.57,3876.89,3875.42,3874.58,3876.84,3878.48,3883.01,3891.64,3896.85,3903.99,3912.29,3918,3925.29,3931.8,3940,3946.45,3950.39,3952.42,3953.75,3952.36,3950.11,3946.15,3939.86,3932.14,3920.38,3909.26,3900.48,3891.95,3884.69,3878.5,3874.72,3872.47,3870.05,3875.54,3879.35,3882.56,3884.36,3884.77,3888.68,3892.55,3894.11,3898.42,3896.6,3895.85,3893.93,3891.37,3889.02,3885.23,3878.31,3870.82,3864.12,3857.68,3854.69,3852.3,3849.69,3848.69,3845.96,3842.49,3839.85,3836.54,3832.47,3826.15,3819.6,3813.32,3805.48,3794.81,3783.56,3769.05,3753.59,3737.97,3720.95,3703.92,3689.22,3672.07,3645.91,3612.74,3585.25,3458.41,2917.55,1692.35,1073.45,2267.22,2713.92,2630.38,2597.84,2589.53,2582.89,2583.34,2580.8,2577.29,2573.78,2570.24,2566.27,2562.76,2560.27,2558.49,2558.26,2563.45,2575.97,2613.91,2695.81,2794.54,2903.44,2496.23,3172.38,3321.07,3482.35,3626.3,3652.41,3665.51,3673.05,3679.81,3682.52,3684.71,3688.18,3691.28,3692.81,3694.16,3694.08,3694.12,3696.65,3697.32,3700.39,3703.18,3705.03,3705.91,3707.17,3706.13,3704.63,3700.56,3695.9,3682.32,3680.42,3677.41,3674.68,3673.76,3674.43,3675.24,3678.34,3681.28,3682.66,3684.36,3686.25,3686.6,3687.48,3689.19,3690.59,3691.28,3693.22,3696.83,3705.97,3715.24,3721.56,3725.97,3731.71,3738.75,3747.93,3756.75,3767.36,3777.79,3787.48,3796.24,3805.36,3809.86,3812.08,3810.35,3806.43,3801.36,3796.11,3790.63,3785.69,3778.46,3778.47,3775.74,3775.27,3775.77,3775.6,3776.01,3777.25,3778.7,3781.46,3786.75,3792.07,3796.2,3800.63,3793.38,3794.75,3788.94,3778.61,3765.83,3751.08,3730.49,3722.42,3706.8,3696.25,3688.31,3680.93,3675.51,3672.19,3669.26,3667.54,3666.81,3664.31,3663.51,3660.29,3651.67,3653.95,3657.41,3662.67,3675.06,3685.09,3689.54,3704.68,3715.22,3720.02,3725.73,3730.76,3726.27,3730.35,3736.34,3737.84,3738.36,3738.83,3734.84,3733.8,3729.75,3724.11,3717.96,3713.04,3708.64,3706.25,3704.09,3704.89,3705.05
4039.35,4029.92,4022.62,4013.96,4006.07,4000.94,3999.08,3991.27,3996.26,3999.53,3999.17,3996.43,3997.5,3996.41,3996.09,3998.12,4000.12,4001.58,4003.81,4005.06,4006.12,4006.72,4008.8,4008.22,4007.69,4006.31,4006.01,4007.42,4006.5,4010.3,4007.71,4005.57,4001.83,3995.34,3990.25,3984.56,3968.47,3961.69,3955.27,3951.21,3953.27,3949.86,3950.33,3952.47,3953.69,3970.96,3974.47,3978.98,3987.74,3991.68,3998.48,4005.32,4010.65,4014.84,4019.36,4024.09,4025.32,4023.47,4024.77,4018.36,4011.09,4003.65,3995.63,3986.18,3979.17,3971.87,3966.52,3962.2,3957.23,3951.81,3946.93,3943.98,3942.76,3942.42,3944.04,3946.61,3951.11,3958.73,3967.04,3975.05,3983.33,3992.14,3999.6,4006.79,4013.69,4019.46,4022.78,4027.35,4030.49,4031.85,4032.14,4031.09,4025.99,4016.22,4002.22,3993.7,3984.22,3971.54,3958.75,3947.35,3936.61,3931.2,3930.63,3931.9,3931,3928.97,3932.04,3934.31,3935.99,3938.37,3940.85,3944.57,3951.38,3956.59,3964.07,3969.79,3975.03,3980.37,3984.41,3987.8,3988.63,3987.42,3985.11,3983.28,3980.13,3978.24,3976.93,3976.1,3972.92,3969.21,3964.46,3959.31,3951.05,3946.15,3939.05,3933.25,3927.37,3922.43,3919.39,3916.54,3913.89,3914.82,3914.22,3914.96,3915.3,3915.8,3917.13,3923.02,3926.94,3929.53,3931.09,3933.39,3934.76,3934.22,3935.65,3935.17,3928.53,3923.99,3918.92,3912.2,3904.99,3896.56,3884.64,3875.85,3867.6,3862.81,3861.4,3860.3,3862.92,3864.35,3868.3,3877.21,3883.23,3890.98,3897.87,3903.85,3910.88,3918.01,3927.41,3934.5,3939.54,3941.88,3943.5,3942.68,3941.6,3938.19,3933.24,3925.89,3915.17,3906.23,3899.09,3891.69,3884.87,3879.09,3875.54,3872.18,3869.81,3874.91,3878.21,3881.49,3882.69,3883.45,3886.9,3890.74,3892.73,3896.71,3895.48,3894.79,3893.28,3890.26,3888.16,3883.68,3877.57,3869.81,3862,3855.51,3852.35,3848.91,3846.34,3844.85,3841.64,3837.78,3834.77,3832.84,3830.65,3826.36,3821.77,3817.61,3810.54,3801.31,3791.95,3778.37,3763.16,3747.4,3730.45,3714.68,3696.99,3679.96,3655.1,3621.5,3596.18,3485.53,3141.18,1583.19,826.976,1334.36,2719.1,2633.96,2597.22,2588.03,2579.98,2580.42,2577.44,2573.52,2570.19,2566.9,2562.71,2559.36,2556.79,2555.36,2554.76,2559.4,2570.35,2601.86,2683.54,2782.79,2897.05,1296.35,3160.89,3313.15,3470.16,3629.11,3660.66,3670.8,3676.21,3682.58,3688.14,3689.62,3692.49,3695.53,3696.86,3698.35,3697.63,3696.84,3698.65,3700,3702.9,3705.84,3707.56,3708.11,3708.18,3707.32,3706.14,3701.64,3695.99,3682.15,3677.05,3676.14,3672.88,3671.97,3672.18,3672.22,3674.38,3676.86,3677.72,3678.96,3680.39,3679.81,3679.96,3681.31,3681.99,3682.66,3687.28,3690.75,3702.95,3707.21,3713.74,3718.36,3724.76,3732.61,3741.38,3751.1,3761.97,3771.69,3781.48,3790.86,3799.06,3803.05,3804.11,3801.81,3797.13,3791.85,3786.47,3780.37,3773.84,3772.45,3770.39,3769.23,3769.54,3770.57,3771.65,3772.96,3774.28,3776.89,3780.9,3786.71,3792.45,3797.22,3802.38,3801.18,3796.82,3791.49,3781.6,3769.3,3752.16,3734.6,3727.51,3711.88,3701.99,3694.37,3686.52,3682.33,3679.4,3676.02,3674.98,3672.37,3670.4,3669.32,3663.69,3660.65,3659.67,3662.44,3668.33,3676.58,3693.57,3696.97,3709.13,3719.19,3717.42,3719.05,3732.54,3729.76,3730.04,3732.72,3733.44,3736.84,3735.03,3734.9,3735,3732.41,3727.79,3723.01,3719.23,3716.07,3714.42,3713.69,3714.14,3714.36
4037.32,4028.75,4022.05,4012.82,4005.08,4000.71,3995.3,3992.3,3997.09,4001.56,4001.18,3998.84,3999.97,3999.59,4002.84,4002.34,4003.75,4005.18,4006.16,4006.95,4008.15,4008.32,4009.46,4009.74,4008.72,4006.48,4005.53,4004.44,4005.22,4003.13,3999.55,4001.89,3994.74,3988.49,3982.33,3978.92,3966.31,3957.2,3955.06,3948.43,3946.7,3946.57,3950.45,3953.94,3963.76,3968.72,3972.67,3978.94,3984.77,3992.74,3993.98,4003.84,4008.21,4011.62,4015.41,4020.08,4021.62,4020.17,4017.6,4016.29,4010.08,4002.94,3995.59,3987.1,3979.94,3974.09,3968.36,3963.94,3958.84,3953.74,3948.63,3946.77,3945.27,3944.91,3946.79,3949.07,3953.2,3960.02,3968.21,3975.52,3982.93,3991.25,3997.97,4004.11,4009.66,4014.37,4017.11,4019.63,4023.43,4024.12,4023.64,4022.96,4018.25,4009.33,3997.06,3989.64,3981.14,3969.26,3956.91,3946.31,3936.67,3931.6,3930.15,3930.63,3929.5,3926.85,3928.76,3930.34,3930.9,3932.45,3933.33,3936.58,3943.39,3949.35,3957.18,3962.74,3967.69,3973.14,3977.06,3980.33,3981.84,3981.16,3980.01,3978.58,3975.6,3975.05,3974.71,3973.9,3971.46,3969.08,3965.45,3962.11,3954.92,3950.86,3943.92,3939.05,3933.54,3928.94,3925.38,3921.96,3918.38,3918.74,3916.77,3916.27,3915.09,3914.07,3914.47,3919.99,3922.56,3924.66,3925.84,3927.91,3929.38,3929.09,3930.29,3928.57,3921.64,3917.25,3911.08,3904.82,3896.57,3887.08,3874.62,3865.9,3858.03,3853.7,3851.77,3849.62,3851.58,3852.09,3855.55,3863.9,3869.72,3876.53,3882.43,3887.49,3894.64,3902.9,3912.32,3919.91,3925.37,3928.03,3930.38,3930.95,3930.7,3927.92,3923.91,3917.28,3908.24,3900.88,3894.93,3888.17,3881.96,3875.25,3871.99,3869,3865.97,3871,3874.01,3877.84,3879.25,3880.59,3884.63,3888.6,3890.7,3895.8,3894.81,3894.25,3893.38,3890.39,3887.77,3883.92,3876.83,3869.22,3861.57,3854.67,3851.14,3847.17,3844.53,3842.02,3839.25,3836.38,3834.86,3833.27,3833.14,3830.92,3827.59,3824.54,3818.77,3810.8,3801.66,3788.81,3772.92,3757.06,3739.69,3722.54,3705.18,3686.61,3661.94,3629.32,3604.46,3510.17,3278.09,1463.83,534.341,773.851,2737.43,2639.49,2598.04,2586.42,2577.25,2577,2573.48,2569.53,2566.18,2563.08,2559.05,2555.39,2552.65,2550.96,2550.62,2554.59,2564.22,2589.56,2670.89,2770.33,2884.88,1039.06,3147.56,3300.29,3460.21,3620.55,3667.88,3678.95,3681.88,3689.06,3693.48,3695.44,3697.75,3700.39,3702.22,3704.25,3703.73,3702.52,3703.68,3705.11,3708.22,3711.03,3711.76,3711.97,3712.4,3711.14,3709.31,3704.7,3699.46,3689.86,3679.34,3675,3676.59,3672.19,3671.71,3671.52,3673.35,3674.69,3675.48,3675.84,3676.22,3674.83,3674.75,3675.34,3674.73,3675.1,3686.94,3690.55,3695.06,3699.58,3704.79,3710.1,3716.54,3724.14,3733.55,3743.15,3753.49,3763.88,3772.93,3781.67,3789.01,3792.04,3792.38,3789.55,3785.04,3779.44,3774.59,3769.19,3765.22,3762.42,3760.81,3760.87,3761.55,3763.92,3765.63,3767.32,3769.99,3772.82,3777.19,3783.38,3789.3,3794.42,3799.11,3795.88,3794.58,3789.42,3779.88,3767.77,3752.33,3736.39,3727.09,3715.23,3705.81,3698.33,3691.58,3687.16,3684.5,3681.17,3679.52,3677.59,3675.5,3674.07,3674.07,3668.36,3666.84,3675.34,3680.6,3679.8,3686.64,3704.87,3712.85,3707.16,3722.77,3717.35,3724.13,3733.12,3726.68,3728.07,3729.41,3729.87,3731.67,3733.02,3734.46,3732.03,3729.88,3726.75,3724.4,3722.38,3723.04,3722.03,3723.48,3724.03
4023.64,4016.49,4011.81,4004.88,3998.83,3995.5,3987.06,3988.41,3993.86,3998.74,3999.24,3996.88,3998.24,4004.3,4005.42,4007.97,4009.51,4005.83,4007.35,4008.27,4009.48,4009.4,4010.72,4010.35,4008.71,4007.39,4006.29,4003.93,4001.79,4001.21,3997.21,3992.73,3990.39,3983.94,3977.82,3971.46,3962.3,3955.96,3954.35,3952.02,3946,3946.63,3949.51,3957.36,3967.99,3971.89,3974.67,3977.79,3981.94,3984.99,3992.78,3997.58,4000.88,4003.5,4007.33,4010.76,4013.04,4012.24,4010.05,4009.59,4003.74,3997.79,3991.81,3985.02,3980.04,3974.31,3970.22,3966.7,3962.71,3958.16,3954.65,3952.47,3951.44,3951.36,3953.38,3955.19,3958.93,3965.5,3972.36,3978.2,3984.59,3991.44,3997.07,4001.82,4006.44,4010.42,4011.74,4012.43,4014.84,4014.33,4014.41,4013.36,4008.93,4001.98,3992.72,3986.68,3978.33,3967.62,3956.27,3946.31,3936.96,3932.29,3929.61,3928.03,3926.38,3923.69,3925.08,3926.11,3926.17,3926.53,3926.93,3929.92,3936.05,3941.58,3949.48,3955.23,3960.62,3966.54,3970.13,3973.89,3975.72,3975.3,3973.79,3972.83,3970.95,3971.47,3971.55,3971.35,3970.03,3968.77,3965.66,3963.77,3958.02,3955.08,3948.78,3943.61,3939.17,3934,3930.05,3926.72,3922.42,3921.44,3918.04,3915.75,3913.62,3912.04,3910.75,3915.01,3916.17,3918.15,3917.77,3919.84,3922.29,3922.93,3923.03,3914.52,3911.65,3911.23,3905.41,3899.29,3892.06,3882.08,3870.2,3861.94,3854.89,3850.65,3847.51,3845.29,3844.67,3843.75,3845.91,3852.47,3856.33,3861.71,3866.13,3870.72,3876.74,3884.97,3894.35,3901.94,3907.34,3910.75,3913.18,3914.49,3914.86,3913.55,3910.25,3904.59,3897.64,3891.64,3886.01,3881.25,3876.12,3869.37,3866.31,3863.04,3860.76,3864.78,3867.86,3871.51,3874.25,3876.18,3880.42,3884.58,3887.6,3892.33,3892.55,3892.38,3891.42,3889,3886.2,3882.26,3875.75,3868.1,3860.65,3853.03,3848.99,3844.66,3842.15,3839.51,3836.59,3835.38,3834.65,3835.39,3836.07,3835.26,3833.67,3832.62,3827.94,3821.02,3812.35,3799.35,3783.79,3767.98,3750.07,3731.88,3712.91,3694.81,3670.58,3638.93,3611.75,3534.59,3324.03,1474.76,534.67,779.367,2748.08,2647.86,2601.01,2586.11,2575.35,2574.35,2570.26,2566.06,2562.76,2559.74,2555.93,2552.03,2549.15,2547.17,2546.51,2549.98,2558.38,2578.92,2660.56,2759.63,2874.19,1456.25,3137.81,3286.85,3447.1,3613.43,3668.09,3684.37,3687.56,3692.67,3698.1,3699.54,3702.62,3706.29,3708.62,3710.42,3710.04,3709.14,3711.1,3712.5,3715.45,3718.01,3718.26,3718.03,3717.78,3716.72,3714.99,3710.36,3705.03,3696.98,3683.13,3679.05,3677.57,3677.58,3673.94,3673.26,3674.2,3675.14,3675.24,3675.13,3674.79,3672.47,3671.95,3671.48,3670.1,3677.27,3681.5,3683.89,3688,3692.47,3697.75,3701.85,3708.03,3716.46,3725.62,3734.91,3744.52,3754.43,3763.81,3771.88,3777.8,3780.79,3780.83,3777.11,3773,3768.21,3763.12,3758.14,3755.29,3753.23,3752.96,3754.19,3755.61,3758.23,3760.81,3763.4,3766.45,3770.25,3774.69,3779.74,3785.02,3789.5,3794.34,3792.66,3787.9,3782.22,3772.87,3762.34,3750.71,3733.19,3719.83,3714.78,3706.65,3699.91,3693.69,3690,3687.74,3684.42,3682.45,3680.6,3678.72,3677.29,3677.11,3676.7,3678.02,3680.7,3685.17,3680.91,3690.47,3698.17,3711.29,3713.25,3709.82,3718.7,3718.66,3720.43,3723.59,3722.03,3722.73,3724.01,3725.86,3728.32,3730.6,3730.34,3729.63,3728.73,3727.57,3727.31,3728.66,3729.05,3730.91,3731.02
4008.66,4005.17,4003.4,3999.15,3994.35,3984.07,3984.38,3986.4,3992.75,3997.49,3997.81,3995.95,4000.74,4003.84,4005.71,4007.91,4009.36,4011.09,4006.73,4007.48,4008.35,4008.33,4008.88,4008.39,4006.75,4004.88,4003.17,4000.67,3998.43,3994.91,3990.25,3985.25,3982.52,3978.52,3970.41,3966.11,3957.35,3954.75,3949.16,3947.15,3944.63,3946.65,3956.82,3962.53,3966.78,3970.15,3972.39,3973.91,3977.2,3978.59,3984.63,3987.67,3990.16,3991.88,3995.68,4001.96,4004.48,4005.16,4002.78,4000.12,3997.04,3992.95,3988.65,3983.41,3980.07,3977.09,3973.89,3971.44,3968.73,3965.34,3962.63,3960.95,3960.48,3960.6,3962.21,3963.6,3967.09,3971.99,3977.68,3982.58,3987.26,3992.39,3996.4,3999.91,4003.1,4004.81,4003.77,4003.58,4003.56,4002.5,4002.33,4001.04,3998.35,3994.51,3989.35,3985.44,3977.58,3967.8,3957.72,3948.27,3938.85,3934.03,3929.05,3924.13,3920.88,3917.97,3918.98,3920.02,3919.53,3919.9,3919.14,3921.44,3927.8,3934.21,3942.04,3947.82,3953.21,3959.22,3963.22,3967.67,3969.92,3969.11,3967.87,3967.38,3966.01,3967.18,3968.23,3969.21,3968.43,3967.59,3965.5,3964.29,3959.03,3956.86,3950.83,3946.2,3941.68,3936.85,3933.6,3929.32,3924.81,3923.2,3917.53,3915.01,3911.9,3909.55,3906.6,3909.38,3910.53,3911.13,3911.29,3912.86,3915.29,3908.25,3912.33,3912.62,3905.9,3903.41,3901.35,3896.15,3889.62,3881.14,3870.54,3863.05,3856.7,3852.71,3849.26,3845.84,3844.85,3843.21,3843.51,3847.39,3849.27,3852.54,3854.75,3857.99,3863.56,3870.18,3877.97,3885.03,3890.35,3894.27,3896.17,3898,3899.51,3898.79,3896.06,3891.58,3885.94,3880.51,3876.32,3872.14,3868.06,3862.06,3858.59,3855.16,3852.81,3856.46,3860.14,3864.13,3866.83,3870.24,3874.72,3879.6,3883,3888.11,3887.96,3888.27,3887.5,3885.39,3883.11,3879.08,3872.64,3865.29,3858.53,3851.31,3846.42,3840.87,3838.22,3835.81,3833.25,3833.61,3834.19,3835.54,3838.67,3840.19,3841.45,3841.08,3838.14,3831.76,3823.65,3810.35,3795.02,3778.96,3760.86,3742.19,3722.01,3702.61,3679.15,3646.26,3617.28,3557.02,3354.98,1850.39,629.326,1144.08,2748.2,2657.12,2604.87,2587.12,2574.71,2572.43,2567.89,2563.49,2560.33,2557,2553.28,2548.94,2545.81,2543.69,2542.9,2545.58,2553.18,2570.42,2651.1,2750.06,2863.51,1729.88,3122.75,3276.48,3434.32,3602.41,3671.69,3684.4,3693.81,3698.51,3702.18,3704.32,3707.9,3711.39,3714.23,3717.09,3717.39,3716.48,3718,3719.02,3722.22,3725.19,3725.14,3724.15,3723.9,3722.2,3721.13,3716.83,3711.36,3706.32,3696.92,3688.07,3683.14,3680.9,3679.72,3678.35,3678.34,3678.71,3677.36,3677.17,3675.48,3672.67,3670.73,3672,3669.68,3675.92,3676.25,3677.77,3681.14,3685.11,3689.31,3693.51,3699.32,3706.67,3715.7,3724.52,3734.47,3744.03,3753.05,3760.88,3766.69,3769.06,3768.44,3765.8,3761.47,3757.39,3753.84,3749.52,3747.36,3746.74,3747.3,3749.49,3751.43,3754.73,3757.91,3761.15,3764.43,3768.39,3772.43,3776.81,3781.09,3784.71,3788.31,3786.31,3780.66,3774.5,3765.01,3754.97,3743.87,3731.04,3720.93,3712.03,3704.2,3699.07,3693.63,3690.32,3688.25,3685.32,3683.49,3681.29,3678.82,3678.02,3677.4,3677.08,3678.34,3680.37,3684.01,3684.73,3687.63,3688.11,3699.7,3709.48,3710.65,3704.31,3709.78,3708.3,3711.01,3712.52,3714.08,3715.52,3718.22,3721.06,3724.03,3725.62,3726.71,3727.53,3728.14,3729.6,3732.29,3733.27,3735.56,3736
3999.74,3993.45,3997.5,3987.28,3984.15,3981.8,3983.07,3985.72,3991.47,3996.24,3996.64,3995.15,4000.19,4004.3,4005.97,4011.24,4015.76,4017.16,4011.41,4006.31,4006.99,4006.48,4007.14,4005.61,4002.85,4000.7,3998.87,3996.34,3993.65,3990.31,3986.11,3980.45,3977.92,3971.93,3971.55,3965.8,3957.15,3952,3949.41,3948.75,3946.63,3953.02,3957.3,3960.45,3963.71,3965.58,3967.36,3966.97,3967.94,3971.74,3972.52,3973.61,3974.52,3980.09,3982.43,3984.34,3986.64,3987.99,3987.52,3986.7,3985.48,3983.86,3982.48,3979.63,3979.25,3978.95,3977.12,3976.16,3974.74,3973.59,3971.9,3971.18,3971.15,3971.14,3971.93,3972.98,3975.58,3979.4,3983.39,3986.43,3988.95,3992.15,3995.49,3997.11,3997.57,3997.52,3995.16,3992.19,3992.11,3990.17,3988.92,3986.73,3984.83,3981.81,3979.46,3975.82,3969.96,3961.32,3951.95,3942.41,3935.14,3929.74,3925.32,3918.9,3914.87,3912.44,3912.68,3913.27,3913.03,3913.4,3912.56,3915,3921.03,3927.8,3936.72,3943.34,3948.05,3954.35,3958.47,3963.31,3965.92,3965.91,3964.65,3964.79,3964.32,3965.78,3967.76,3968.82,3969.04,3967.71,3966.23,3966.1,3962.04,3959.44,3953.55,3949.66,3944.91,3940.36,3936.06,3932.01,3926.81,3923.56,3917.35,3914.23,3910.28,3906.37,3902.33,3903.18,3903.08,3903.14,3902.67,3903.98,3906.59,3907.54,3908.15,3907.88,3903.49,3902.39,3898.15,3894.55,3888.94,3881.43,3872.64,3866.52,3861.86,3858.04,3854.42,3851.46,3848.87,3845.83,3844.38,3846.14,3845.06,3845.39,3845.72,3847.11,3850.92,3856.26,3863.05,3869.03,3874.09,3878.09,3880.85,3882.02,3883.63,3883.25,3882.09,3878.97,3874.52,3870.97,3867.04,3864.67,3860.97,3855.84,3852.63,3849.5,3846.66,3849.29,3852.77,3857.7,3860.48,3863.32,3868.19,3872.63,3874.97,3879.88,3880.16,3880.52,3880.93,3878.51,3876.1,3872.56,3866.81,3860.16,3854.14,3847.02,3842.18,3836.71,3834.06,3831.81,3830.53,3831.36,3833.52,3835.88,3840.94,3843.69,3846.59,3848.48,3846.34,3840.43,3832.64,3819.46,3804.38,3787.91,3769.49,3750.24,3729.1,3709.2,3685.16,3652.15,3621.54,3572.26,3373.3,1990.77,616.156,1129.36,2739.22,2664.51,2607.44,2588.24,2575.06,2571.97,2566.8,2562.31,2558.7,2555.59,2551.31,2546.81,2543.22,2540.76,2539.89,2542,2549.02,2564.94,2644.96,2743.36,2856,2046.28,3112.36,3264.45,3423.79,3587.87,3669.9,3687.05,3691.98,3697.97,3704.6,3707.69,3711.96,3716.5,3719.34,3723.06,3723.75,3723.53,3725.51,3726.6,3729.08,3731,3730.66,3728.83,3728.29,3727.32,3725.82,3722.08,3716.98,3712.14,3702.53,3695.83,3689.48,3686.07,3683.67,3682.58,3682.1,3681.74,3680.21,3679.66,3677.03,3674.12,3670.93,3671.29,3675.76,3673.7,3673.38,3674.4,3677.19,3679.64,3683.08,3687.9,3693.56,3700.67,3709.02,3717.78,3726.59,3735.44,3743.92,3751.27,3756.97,3758.97,3757.26,3754.86,3748.22,3747.53,3743.75,3740.58,3739.48,3739.24,3740.4,3743.16,3746.08,3749.44,3753.13,3757.18,3761.33,3765.1,3768.77,3773.06,3776.46,3779.51,3782.1,3779.1,3772.81,3765.77,3756.35,3746.57,3736.68,3724.46,3718.62,3708.04,3701.58,3696.91,3692.06,3689.55,3687.56,3685.12,3682.58,3680.7,3679.05,3677.33,3677.05,3676.9,3677.33,3678.67,3681.6,3683.8,3682.49,3690.04,3685.29,3697.01,3697.38,3696.19,3695.27,3696.12,3699.1,3701.22,3706.15,3704.85,3708.42,3711.72,3716.55,3718.97,3722.03,3724.71,3727.51,3729.7,3733.29,3735.73,3737.66,3738.48
3989.82,3989.3,3988.88,3986.59,3984.79,3983.04,3983.49,3985.79,3990.44,3994.88,3994.7,3993.4,3995.52,4002.48,4006.85,4008.84,4012.45,4013.56,4013.64,4007.07,4007.34,4000.6,4000.69,3999.39,3996.6,3994.79,3993.11,3990.87,3988.42,3985.03,3981.13,3975.46,3973.45,3968.18,3968.16,3963.21,3955.68,3956.01,3954.97,3951.58,3954.96,3956.32,3957.1,3959.59,3960.78,3961.59,3961.67,3958.9,3958.11,3960.12,3957.62,3957.1,3960.3,3959.32,3961.01,3962.76,3964.95,3967.11,3968.18,3968.79,3970.64,3971.93,3973.64,3974.01,3977.18,3979.6,3980.47,3981.08,3980.97,3981.03,3981.41,3981.11,3981.63,3982.16,3982.7,3982.9,3984.68,3987.18,3989.33,3989.89,3991.34,3992.82,3993.87,3993.44,3992.53,3990.92,3986.79,3982.48,3980.55,3978.83,3976.54,3974.26,3971.38,3968.65,3966.31,3964.08,3959.28,3951.73,3943.11,3934.82,3927.58,3923.17,3919.28,3913.36,3909.94,3907.39,3907.29,3907.99,3908.08,3908.53,3907.29,3910.24,3915.9,3922.55,3931.66,3938.97,3943.74,3950.1,3954.05,3959.86,3962.55,3963.14,3962.21,3963.28,3964.06,3965.77,3967.53,3969.29,3969.02,3969.23,3967.85,3968.89,3964.39,3962.69,3956.98,3952.53,3947.61,3942.56,3937.96,3933.53,3927.33,3923.09,3915.89,3911.91,3906.3,3901.43,3896.6,3896.06,3895.04,3894.2,3893.74,3894.81,3897.65,3898.9,3899.6,3901.49,3899.06,3898.87,3896.37,3894.54,3890.55,3883.85,3876.63,3872.64,3868.38,3866.11,3862.13,3858.1,3854.51,3852.05,3848.86,3847.37,3843.78,3841.29,3839.28,3839.48,3841.68,3846.46,3851.81,3857.02,3862.21,3865.82,3868.49,3870.16,3871.49,3871.75,3870.79,3868.62,3865.38,3862.52,3859.44,3857.26,3854.45,3849.45,3846.52,3842.8,3840.07,3841.25,3844.14,3848.38,3851.83,3854.59,3859.28,3863.11,3865.53,3869.75,3869.69,3869.89,3870.22,3867.89,3865.44,3862.43,3857.47,3852.21,3845.88,3839.8,3835.04,3830.14,3827.63,3825.55,3824.37,3826.96,3829.73,3833.57,3839.23,3843.59,3847.7,3850.79,3849.29,3844.11,3836.81,3823.76,3808.85,3791.91,3772.64,3752.82,3731.68,3710.88,3687.64,3653.23,3620.81,3575.93,3379.68,2349.08,1030.22,1452.77,2769.53,2670.66,2609.67,2589.13,2575.92,2571.86,2565.83,2560.91,2557.09,2553.64,2549.19,2544.31,2539.76,2537.04,2535.94,2537.68,2544.14,2560.37,2639.19,2736.26,2847.16,2495.99,3096.68,3249.07,3406.9,3571.79,3664.36,3684.15,3692.97,3699.34,3705.08,3708.76,3714.2,3718.7,3723.06,3727.56,3728.81,3728.59,3730.82,3732.06,3734.25,3735.46,3734.09,3732.04,3731.48,3729.99,3728.7,3725.49,3720.96,3716.35,3709.49,3703.94,3697.48,3691.93,3689.34,3688.12,3687.07,3686.07,3683.84,3682.48,3679.95,3676.35,3672.35,3677.07,3675.47,3672.23,3670.6,3670.87,3672.65,3674.88,3678.01,3681.35,3686.86,3693.45,3701.73,3709.87,3718.08,3727,3734.68,3741.53,3746.69,3748.55,3742.56,3742.96,3742.62,3739.88,3737.05,3734.8,3734.32,3735.01,3736.77,3740.12,3743.39,3747.16,3751.52,3755.86,3760.68,3763.92,3767.82,3771.21,3774.36,3776.27,3777.82,3773.91,3767.55,3760.3,3750.59,3740.75,3731.5,3722.76,3715.41,3704.93,3699.41,3695.85,3692.17,3689.23,3687.44,3684.91,3683.04,3681.15,3679.17,3677.76,3676.55,3676.18,3676.32,3676.99,3679.44,3680.57,3683.08,3674.39,3679.43,3684.22,3689.67,3687.55,3682.77,3684.12,3686.03,3688.2,3690.65,3692.56,3696.26,3700.29,3705.9,3709.6,3714.48,3719.94,3723.95,3728.01,3732.67,3738.17,3738.22,3737.59
3992.82,3992.07,3991.41,3988.91,3986.87,3984.91,3985.48,3987,3990.17,3993.08,3992.51,3991.15,3992.91,3995.82,4002.08,4003.9,4005.88,4005.75,4005.23,4001.98,4001.94,3991.48,3991.61,3990.7,3987.93,3986.23,3985.21,3982.78,3980.56,3977.55,3974.39,3969.27,3968.23,3963.72,3962.13,3960.45,3953.56,3955.04,3954.88,3954.57,3954.73,3955.81,3956.3,3957.82,3957.95,3956.43,3954.7,3950.98,3948.06,3943.78,3944.01,3944.52,3942,3939.51,3939.66,3940.38,3942.22,3944.8,3947.04,3950.37,3954.37,3958.71,3962.78,3966.13,3972.04,3976.74,3980.41,3982.49,3984.76,3986.4,3988.34,3989.67,3990.99,3991.4,3991.9,3991.41,3992.93,3994.6,3995.62,3994.51,3994.77,3994.62,3994.32,3992.78,3990.36,3987.14,3981.57,3975.85,3972.72,3969.76,3966.98,3963.76,3960.94,3958.34,3956.19,3954.67,3950.87,3944.2,3936.59,3928.62,3922.7,3918.51,3914.85,3908.78,3905.78,3903.95,3904.4,3904.5,3904.76,3905.36,3904.51,3907.01,3913.37,3920.38,3929.59,3936,3941.06,3948.3,3952.77,3958.33,3961.57,3963.2,3963.41,3964.6,3966.11,3968.91,3971.05,3972.98,3974.1,3973.81,3973.63,3975.06,3971.4,3969.29,3963.56,3957.72,3953.03,3947.15,3941.69,3936.04,3927.6,3922.2,3914.42,3908.97,3902.2,3897.16,3891.11,3889.38,3887.47,3886.05,3883.94,3885.77,3889.43,3890.85,3891.95,3894.93,3894.07,3895.67,3894.22,3893.77,3890.67,3885.64,3879.69,3876.92,3873.92,3871.68,3867.55,3863.29,3859.43,3856.13,3851.44,3847.9,3842.32,3838.31,3834.11,3832.54,3834.38,3837.87,3841.07,3846.04,3851.35,3855.93,3858.61,3860.3,3861.05,3861.31,3861.1,3859.74,3857.53,3855.1,3852.82,3850.74,3847.94,3843.55,3839.75,3836.63,3833,3833.59,3836.43,3840.55,3843.67,3846.47,3850.23,3853.79,3855.81,3859.39,3859.88,3860.21,3859.85,3857.4,3854.74,3852.45,3847.47,3843.21,3838.14,3831.77,3828.13,3823.42,3822,3820.61,3819.49,3822.19,3825.97,3831.5,3837.29,3842.87,3847.17,3850.3,3849.71,3845.22,3838.05,3824.3,3808.76,3791.67,3772.56,3751.6,3730.38,3709.25,3685.37,3651.3,3617.99,3574.22,3385.04,2560.06,1768.49,1373.84,2785.13,2681.21,2614.95,2591.3,2577.02,2571.19,2564.69,2559.71,2555.49,2551.47,2546.65,2541.09,2536.41,2533.44,2532.25,2533.4,2539.39,2556.59,2632.98,2729.19,2838.87,2496.83,3087.49,3234.03,3389.04,3552.19,3661.75,3683.32,3693.93,3698.88,3705.75,3710.35,3716.68,3722.5,3727.33,3732.15,3734.47,3734.45,3736.2,3737.33,3739.06,3739.9,3737.61,3735.47,3733.84,3732.25,3730.9,3727.25,3723.23,3718.69,3712.44,3707.08,3703.25,3695.16,3692.83,3690.86,3690.6,3689.13,3686.83,3685.26,3682.32,3678.16,3679.73,3680.51,3676.2,3672.13,3668.93,3668.61,3669.66,3670.53,3672.63,3675.19,3679.48,3685.68,3693.56,3701.31,3708.34,3715.51,3723.51,3729.39,3734.47,3730.85,3725.8,3732.27,3733.15,3732.01,3730.07,3728.99,3729.41,3730.7,3733.94,3737.92,3741.89,3745.94,3750.91,3756.06,3760.75,3764.56,3767.83,3771.03,3773.66,3775.21,3775.14,3770.67,3763.5,3755.36,3746.11,3736.44,3727.36,3719.13,3711.03,3702.54,3697.78,3694.5,3691.13,3688.74,3687.08,3684.62,3682.66,3680.59,3679.28,3677.36,3676.25,3675.81,3675.52,3675.36,3677.52,3677.49,3672.26,3673.28,3674.5,3681.02,3670.48,3670.94,3672.43,3672.77,3675.12,3677.66,3680.48,3682.97,3686.43,3690.8,3696.91,3701.86,3707.91,3714.56,3719.2,3724.49,3729.76,3741.25,3738.97,3734.92
3993.7,3994.2,3993.21,3991.99,3990.77,3987.77,3987.97,3988.98,3990.52,3991.66,3991.1,3989.23,3989.76,3989.34,3994.86,4000.39,3998.6,3997.81,3996.11,3994.75,3991.35,3989.48,3983.92,3980.21,3978.12,3977.19,3975.49,3973.46,3971.84,3969.65,3966.78,3961.75,3958.75,3957.36,3956.65,3951.38,3951.27,3950.69,3952.75,3953.11,3954.1,3955.29,3955.01,3955.87,3954.35,3952.55,3949.43,3944.54,3939.94,3934.24,3928.02,3931.33,3925.99,3922.33,3921.43,3920.46,3922.32,3925.7,3929.32,3934.37,3940.34,3946.27,3952.74,3958.79,3966.39,3972.91,3977.92,3982.17,3985.55,3989.18,3992.48,3995.06,3997.6,3998.46,3998.79,3998.27,3999.94,4000.53,4000.79,3998.35,3997.16,3995.97,3994.83,3991.85,3988.61,3984.36,3977.12,3969.38,3965.62,3961.77,3958.39,3955.15,3951.73,3948.44,3946.36,3945.67,3942.46,3936.1,3929.39,3922.53,3917.08,3913.7,3910.81,3905.54,3902.66,3902.13,3901.91,3902.7,3903.41,3904.25,3903.68,3906.6,3912.56,3919.97,3928.41,3935,3939.66,3947.46,3952.1,3958.48,3961.94,3963.88,3965.14,3967.1,3969.28,3972.5,3975.68,3979.05,3980.96,3981.53,3981.67,3983.86,3980.27,3978.11,3972.26,3967.16,3960.69,3953.57,3946.8,3940.44,3931.37,3923.58,3914.35,3907.35,3899.46,3892.62,3885.92,3882.31,3879.49,3877.47,3874.65,3876.31,3875.51,3881.56,3883.64,3887.62,3888.73,3891.71,3892.09,3892.71,3890.47,3886.67,3882.13,3880.5,3878.54,3876.54,3872.78,3868.56,3864.98,3861.67,3856.33,3851.09,3844.03,3838.62,3832.99,3831.23,3832.03,3833.88,3836.24,3840.57,3845.3,3850.33,3852.76,3854.04,3854.08,3854.59,3854.14,3853.23,3851.09,3848.62,3845.96,3843.47,3841.03,3837.24,3832.87,3828.93,3824.82,3824.33,3826.36,3830.26,3832.94,3835.76,3839.59,3841.91,3844.42,3847.12,3847.42,3847.13,3846.59,3843.86,3841.76,3839.52,3834.99,3831.28,3827.04,3821.54,3818.43,3814.16,3813.5,3812.36,3811.54,3814.92,3819.11,3824.69,3831,3836.28,3841.38,3844.3,3844.08,3840.24,3832.65,3819.1,3803.36,3786.16,3767.47,3746.75,3725.78,3704.59,3681.92,3647.88,3613.11,3570.95,3395.05,2788.77,1777.92,1077.17,2807.28,2695.05,2621.84,2593.42,2578.26,2569.58,2563.05,2557.5,2553.12,2549.03,2544.06,2537.85,2532.89,2529.55,2528.5,2529.34,2534.99,2552.32,2625.69,2720.65,2828.79,2735.68,3077.27,3217.93,3370.96,3531.57,3654.49,3678,3689.86,3696.45,3704.13,3709.81,3717.56,3724.53,3730.38,3735.71,3738.28,3739.05,3742.02,3742.62,3743.93,3744.32,3741.92,3739.18,3738.31,3736.01,3734.37,3731.09,3728.09,3723.56,3717.84,3712.71,3708.46,3702.78,3697.72,3696.05,3695.15,3694.03,3694.38,3689.5,3689.62,3687.26,3688.2,3683.64,3678.86,3673.28,3669.01,3667.59,3667.33,3668.03,3668.8,3670.69,3674.39,3679.1,3685.76,3692.5,3698.47,3704.82,3711.47,3717.58,3713.68,3716.23,3719.58,3724.53,3724.44,3724.82,3724.14,3723.89,3725.97,3728.15,3731.81,3736.68,3740.88,3745.26,3750.54,3756.57,3761.84,3766.18,3769.42,3771.28,3773.08,3773.64,3774.57,3768.73,3760,3751.94,3741.91,3732.84,3724.24,3715.68,3708.09,3700,3695.1,3691.92,3689.25,3687.49,3685.54,3683.12,3680.42,3678.53,3676.82,3675.53,3674.67,3673.94,3674.03,3673.87,3675.21,3666.14,3674.44,3674.5,3674.45,3674.51,3663.35,3663.39,3664.81,3672.19,3671.36,3672.13,3674.84,3677.43,3681.14,3685.47,3691.33,3696.69,3703.28,3709.98,3715.3,3721.41,3726.16,3738.4,3740.63,3739.27
3996.01,3996.63,3997.13,3996.73,3995.83,3994.04,3993.89,3993.91,3994.15,3994.3,3992.47,3989.67,3989.18,3987.77,3985.8,3986.82,3990.04,3990.84,3989.05,3983.75,3982.71,3981.04,3980.86,3970.62,3968.95,3968.19,3966.4,3964.78,3963.68,3961.51,3958.46,3953.63,3950.39,3950.15,3946.84,3945.15,3946.07,3946.23,3949.62,3950.32,3951.91,3952.7,3952.52,3952.95,3951.23,3948.1,3945.17,3939.88,3933.97,3927.55,3919.65,3921.48,3915.51,3910.66,3907.5,3906.26,3906.5,3909.78,3913.6,3919.27,3926.23,3934.06,3941.85,3949.69,3958.68,3966.36,3972.84,3978.43,3983.22,3988.04,3992.81,3996.77,4000.31,4002.13,4003.13,4003.08,4004.2,4004.5,4003.96,4001.73,3999.22,3997.63,3995.97,3991.79,3987.86,3982.16,3974.2,3965.21,3960.62,3955.94,3951.95,3947.32,3943.34,3940.39,3939.2,3938.05,3934.8,3929.46,3923.54,3917.26,3912.43,3909.36,3906.73,3902.47,3900.83,3901.27,3902.02,3902.46,3903.1,3904.96,3905.02,3908.57,3914.93,3921.34,3929.16,3935.46,3940.62,3948.01,3952.6,3959.34,3962.75,3965.28,3967.65,3970.31,3972.84,3977.5,3981.29,3985.33,3987.67,3989.22,3990.17,3992.34,3990.47,3988.22,3982.23,3976.04,3968.21,3960.05,3952.14,3944.2,3933.61,3924.86,3913.61,3905.06,3896.18,3887.95,3879.59,3874.11,3870.27,3867.41,3863.88,3865.65,3869.26,3871.14,3873.7,3878.82,3881.51,3885.26,3886.66,3889.58,3888.3,3885.33,3883.13,3882.15,3880.57,3879.53,3876.7,3873.07,3869.82,3866.77,3861.2,3855.39,3847.72,3841.32,3835.41,3832.51,3832.31,3833.44,3834.68,3838.57,3843.43,3848.07,3850.69,3850.52,3850.5,3849.9,3849.39,3848.06,3846.15,3843.29,3840.08,3837.63,3835.84,3832.05,3827.6,3823.29,3818.77,3817.53,3819.21,3821.81,3824.11,3825.77,3829.59,3831.67,3833.25,3835.2,3834.68,3833.94,3832.85,3830.19,3827.19,3825.21,3822.33,3818.12,3813.92,3809.46,3806.94,3803.47,3803.59,3802.84,3802.78,3805.51,3809.66,3815.63,3822.19,3827.47,3832.67,3835.87,3835.56,3832,3825.25,3812.16,3796.95,3780.82,3762.6,3743.22,3723.16,3701.69,3679.47,3647.28,3612.52,3574.12,3410.3,2788.63,1422.86,833.853,2817.83,2703.62,2624.33,2592.39,2576.88,2567.14,2561.11,2555.26,2550.83,2546.28,2540.58,2534.82,2529.47,2525.94,2524.39,2525.41,2530.88,2547.66,2615.91,2709.47,2816.23,2840.21,3058.93,3200.84,3352.24,3510.74,3645.99,3671.4,3684.66,3692.06,3701.64,3708.54,3717.2,3724.74,3731.29,3737.09,3740.64,3742.6,3745.44,3746.85,3748.11,3748.22,3745.28,3743.3,3741.85,3739.53,3738.42,3735.34,3732.33,3727.95,3722.82,3719.67,3715.57,3707.49,3702.46,3701.24,3699.98,3698.52,3696.23,3696.69,3696.06,3696.54,3692.06,3687.14,3681.1,3675.19,3670.36,3667.92,3666.09,3665.73,3665.56,3666.08,3668.34,3671.89,3678.48,3683.71,3688.71,3694.03,3699.96,3705.21,3701.46,3704.53,3714.77,3715.29,3716.26,3718.03,3719.1,3720.14,3723.22,3726.9,3731.53,3736.26,3740.39,3745.57,3751.19,3757.7,3764.27,3768.16,3771.39,3773.46,3774.5,3775.57,3775.09,3769.32,3760.89,3752.16,3741.89,3732.91,3723.45,3716.1,3708.2,3699.5,3694.58,3691.49,3689.15,3686.3,3684.73,3681.8,3679.4,3677.26,3675.47,3674.2,3673.32,3672.64,3672.75,3672.67,3673.76,3672.76,3672.05,3671.57,3670.96,3661.8,3659.53,3663.03,3663.92,3668.92,3666.13,3670.24,3672.96,3675.17,3678.93,3682.32,3687.32,3691.98,3698.31,3705.54,3710.36,3715.37,3720.35,3732.05,3734.27,3732.24
3998.18,4001.09,4001.48,4001.76,4002.11,4001.32,4000.33,4000.31,3998.84,3997.82,3995.67,3992.18,3989.82,3986.74,3984.38,3981.06,3982.98,3983.69,3980.67,3978.48,3976.73,3975.03,3974.67,3973.61,3963.9,3963.23,3961.38,3959.82,3958.42,3956.16,3952.52,3948.73,3945.43,3942.65,3942.5,3943.63,3942.71,3942.91,3946.98,3948.17,3950.11,3950.73,3950.34,3950.66,3948.07,3944.46,3941.57,3936.33,3930.37,3924.09,3920.54,3912.67,3908.81,3902.88,3898.61,3894.93,3894.61,3897.57,3900.57,3906.54,3914.79,3923.27,3931.54,3940.33,3950.91,3958.85,3965.34,3971.37,3977.9,3983.9,3989.41,3994.46,3999.17,4001.99,4003.52,4004.13,4005.01,4005.37,4005.25,4002,3999.37,3997.39,3995.47,3991.95,3987.1,3980.98,3972.61,3962.73,3957.35,3951.69,3947.6,3942.85,3939.2,3935.33,3934.34,3932.9,3929.78,3925.25,3920.28,3914.4,3910.11,3907.32,3905.54,3902.45,3901.43,3902.17,3903.57,3904.76,3905.56,3907.49,3907.87,3912.09,3917.41,3923.76,3931.27,3937.93,3942.75,3950.17,3955.2,3961.36,3964.84,3967.99,3970.51,3973.76,3976.9,3982.37,3987.26,3992.26,3994.9,3997.29,3998.68,4001.44,3999.73,3996.58,3991.06,3983.51,3974.39,3965.52,3956.92,3947.24,3935.49,3924.91,3912.85,3902.52,3892.22,3883.47,3873.81,3867.14,3862,3858.17,3854.89,3856.87,3859.66,3861.95,3865.23,3870.77,3875.07,3879.15,3881.63,3885.35,3885.61,3884.43,3883.21,3882.4,3882.24,3881.83,3879.15,3876.05,3873.82,3871.64,3866.12,3860.44,3851.91,3844.89,3838.88,3835.67,3834.78,3834.97,3835.55,3839.26,3843.78,3849.3,3851.21,3850.08,3849.47,3849.15,3848.42,3847.61,3844.86,3841.35,3838.08,3835.73,3833.09,3829.87,3825.74,3820.29,3815.26,3813.09,3813.52,3816.02,3817.2,3818.44,3821.35,3822.88,3824.03,3824.99,3824.65,3823.12,3821.77,3818.21,3815.46,3813.86,3807.9,3804.51,3803.28,3799.6,3796.75,3793.44,3793.58,3793.52,3792.68,3795.02,3798.68,3804.38,3809.96,3815.46,3820.42,3822.57,3822.68,3819.56,3813.69,3801.06,3786.83,3770.67,3753.79,3735.1,3716.19,3696.55,3675.57,3645,3611.92,3576.92,3433.18,2719.56,1319.42,719.422,2802.08,2708.16,2621.92,2588.18,2574.01,2563.52,2557.98,2552.61,2547.54,2542.84,2537.45,2531.25,2526,2522.19,2521.01,2521.46,2526.83,2542.35,2605.23,2698.09,2803.96,2887.55,3001.22,3183.79,3333.49,3491.53,3635.86,3662.77,3677.31,3685.7,3696.17,3704.25,3714.33,3722.61,3729.53,3735.97,3740.71,3742.55,3746.11,3747.98,3748.96,3749.33,3746.92,3744.94,3743.83,3741.76,3740.16,3736.69,3733.4,3730.32,3724.88,3721.18,3717.69,3711.9,3704.56,3702.67,3701.71,3700,3697.79,3695.33,3697.34,3698.16,3694,3688.62,3682.47,3675.44,3670.81,3666.85,3664.91,3663.59,3662.6,3662.12,3663.61,3666.34,3670.97,3675.78,3680.66,3682.22,3682.07,3684.87,3696.95,3703.18,3705.48,3707.7,3710.18,3713.6,3715.4,3717.83,3721.96,3726.58,3731.13,3736.36,3741.06,3746.2,3751.72,3759.25,3765.97,3770.36,3773.84,3775.87,3777.22,3778.33,3777.64,3772.34,3763.71,3755.16,3745.58,3735.55,3727.67,3716.75,3708.07,3699.68,3691.12,3690.49,3689.91,3687.49,3684.76,3681.61,3679.36,3676.93,3674.78,3673.25,3672.21,3671.52,3671.56,3671.61,3671.97,3671.09,3669.7,3660.13,3656.21,3655.81,3659.4,3660.03,3665.16,3661.45,3665.05,3672.18,3672.29,3674.28,3677.17,3680.12,3684.23,3687.94,3692.59,3699.11,3702.72,3707.67,3712.18,3722.72,3721.05,3724.07
3999.02,4004.52,4006.47,4007.88,4008.64,4007.94,4007.68,4007.43,4005.72,4003.18,3999.93,3995.82,3991.9,3987.95,3983.92,3979.86,3978.38,3977.83,3977.22,3974.28,3971.85,3970.97,3970.57,3966.46,3962.62,3959.27,3958.8,3956.79,3955.71,3953.25,3949.29,3945.49,3942.34,3938.72,3941.67,3943.46,3939.92,3941.39,3945.48,3947.06,3948.88,3949.1,3949.09,3949.4,3947.19,3944.04,3941.24,3937.17,3935.22,3932.16,3924.19,3916.4,3903.37,3900.03,3894.05,3889.05,3886.77,3888.77,3891.71,3897.05,3904.8,3913.15,3920.6,3929.12,3939.2,3947.3,3953.28,3959.46,3966.05,3972.02,3978.4,3985.24,3991.02,3994.76,3996.6,3997.93,3999.69,4000.21,4000.52,3998.41,3996.63,3994.2,3993.13,3989.86,3985.88,3980.18,3972.26,3962.5,3957.21,3951.96,3947.21,3942.71,3939.11,3935.31,3933.69,3932.52,3929.26,3925.52,3920.9,3914.77,3910.33,3908.26,3906.54,3903.48,3902.82,3904.64,3906.58,3908.07,3909.04,3911.14,3912.72,3916.57,3922.69,3926.28,3935.51,3941.31,3946.33,3954.7,3959.85,3964.76,3968.98,3971.75,3974.58,3978.99,3983.38,3989.28,3994.11,3999.37,4002.68,4005.56,4007.56,4010.44,4008.34,4005.13,3998.59,3990.62,3980.42,3970.39,3960.69,3949.6,3936.96,3923.95,3911.06,3899.7,3888.16,3878.56,3868.47,3860.76,3854.91,3850.4,3847.08,3850.11,3852.66,3855.45,3859.21,3867.1,3872.18,3876.79,3880.85,3884.85,3885.87,3885.55,3885.5,3885.05,3884.49,3884.96,3882.91,3880.08,3878.12,3876.64,3871.71,3866.53,3857.98,3850.72,3845.33,3841.19,3839.63,3839.27,3839.55,3842.29,3846.75,3851.67,3853.89,3852.6,3851.19,3850.22,3849.2,3848.8,3846.17,3841.76,3838.77,3835.92,3833.24,3830.19,3825.34,3819.47,3813.46,3810.1,3810.06,3811.4,3812.7,3812.65,3814.42,3815.77,3817.28,3817.34,3816.81,3815.18,3812.92,3807.62,3805.05,3802.56,3799.93,3796.67,3795.76,3791.8,3789.46,3786.37,3786.22,3784.94,3784.05,3785.3,3788.55,3792.78,3798.39,3802.53,3806.32,3808.39,3808.25,3805.41,3799.28,3788.26,3774,3759.29,3743.8,3726.5,3708.68,3690.76,3671.45,3643.2,3612.01,3582.64,3455.72,2955.51,1553.16,1168.96,2735.82,2709.13,2616.28,2582.3,2570.61,2559.58,2555.05,2550.06,2545,2540.18,2534.61,2528.44,2523.09,2519.29,2517.7,2518.39,2523.33,2537.73,2594.46,2686.41,2791.1,2896.75,2769.43,3167.45,3315.99,3472.89,3620.92,3650.39,3666.53,3676.46,3687.79,3697.07,3707.16,3716.55,3723.81,3730.98,3736.28,3738.95,3743.15,3745.54,3746.7,3747.23,3745.61,3743.59,3743.06,3740.68,3738.82,3735.45,3732.21,3728.48,3723.51,3717.6,3719.06,3713.4,3703.77,3702.52,3701.85,3700.44,3698.03,3701.32,3700.76,3699.24,3695.52,3690.24,3683.65,3677.18,3671.91,3668.13,3664.54,3662.51,3660.39,3659.32,3659.57,3661.95,3665.74,3669.88,3671,3669.52,3671.43,3681.33,3691.16,3694.43,3697.61,3700.79,3703.79,3707.82,3710.97,3714.21,3719.12,3724.32,3729.58,3735,3740.19,3745.63,3751.01,3758.83,3766.63,3771.79,3775.65,3777.27,3778.82,3781.05,3780.88,3776.22,3767.8,3759.17,3749.21,3740.58,3731.95,3723.69,3711.73,3699.72,3696.47,3695.77,3691.95,3688.1,3684.99,3681.74,3678.53,3675.95,3673.26,3672.38,3671.41,3670.64,3671.05,3671.38,3672.15,3671.26,3669.94,3666.58,3657.07,3662.73,3666.09,3661.66,3667.72,3670.86,3668.51,3673.55,3679.57,3678.32,3680.07,3681.99,3685.04,3687.67,3691.12,3695.99,3698.69,3702.41,3705.84,3716.36,3713.39,3716.09
3999.22,4005.55,4008.63,4011.95,4013.99,4014.13,4014.22,4013.57,4011.12,4007.71,4002.98,3998.31,3993.42,3987.64,3983.77,3977.88,3972.47,3971.51,3970.12,3966.71,3968.14,3967.15,3966.38,3965.34,3962.38,3960.08,3956.56,3955.08,3953.93,3951.88,3947.73,3943.76,3943.37,3943.91,3940.43,3942.4,3936.24,3938.52,3945,3947.34,3948.32,3948.89,3948.74,3949.07,3947.22,3944.88,3941.79,3940.03,3938.06,3932.24,3929.29,3921.02,3911.41,3903.76,3896.16,3890.28,3886.65,3887.3,3888.86,3893.06,3900.02,3907.68,3913.82,3921.91,3930.09,3936.65,3942.27,3947.29,3953.39,3959.27,3966.38,3974.18,3980.24,3984.59,3987.59,3990.21,3992.36,3993.72,3994.53,3993.17,3992.47,3991.12,3990.4,3987.9,3985.23,3979.65,3973.09,3964.42,3959.17,3953.78,3949,3944.42,3941.5,3937.8,3936.02,3934.04,3931.87,3927.23,3923.1,3917.52,3914.44,3911.32,3909.48,3906.91,3906.81,3908.68,3911.47,3912.52,3913.9,3916.16,3918.11,3922.69,3928.96,3934.98,3940.17,3945.65,3951.44,3959.64,3964.82,3970.91,3974.74,3977.85,3982.02,3986.77,3991.4,3997.24,4003.15,4008.56,4011.62,4015.23,4017.01,4019.72,4018.22,4013.89,4007.3,3998.4,3986.41,3976.48,3965.63,3953.45,3939.12,3925.16,3910.51,3899.23,3887.11,3876.9,3866.35,3858.53,3853.01,3848.14,3845.91,3848.98,3851.3,3854.61,3859.77,3867.46,3873.53,3878.24,3882.26,3886.63,3886.91,3886.82,3886.36,3886.47,3885.66,3885.98,3885.31,3883.24,3882.65,3881.99,3877.65,3872.91,3865.23,3858.46,3853.76,3849.13,3846.88,3846.71,3846.38,3849.31,3853.07,3857.86,3859.57,3857.59,3855.75,3854.35,3852.87,3852.23,3848.72,3844.06,3839.48,3835.87,3833.27,3830.36,3825.43,3818.81,3812.63,3809.02,3807.79,3808.83,3809.77,3809.06,3811.05,3813.37,3815.21,3814.94,3814.86,3809.87,3807.64,3801.48,3796.05,3791.08,3790.41,3794.61,3790.45,3786.94,3784.14,3781.14,3780.55,3778.48,3777.14,3777,3779.79,3783.16,3787.43,3790.64,3793.66,3795.45,3795.09,3791.59,3786,3775.53,3761.92,3748.22,3732.7,3716.84,3701.26,3684.19,3666.14,3641.34,3613.98,3589.94,3479.86,3257.47,2105.67,1478.9,2121.65,2709.55,2610.56,2575.92,2565.86,2555.3,2551.92,2547.5,2542.24,2537.55,2532.22,2526.06,2520.5,2516.76,2514.95,2515.46,2520.15,2533.73,2583.53,2674.3,2777.71,2891.01,2322.5,3149.99,3296.05,3452.25,3602.7,3637.05,3654.51,3666.22,3677.77,3687.59,3698.14,3708.44,3716.12,3723.1,3728.88,3732.8,3737.14,3739.87,3741.12,3742.16,3741.43,3739.8,3738.8,3736.97,3735.85,3731.77,3728.74,3725.61,3721.28,3717.9,3714,3713.75,3707.05,3701.22,3701.58,3700.32,3703.76,3707.31,3704.74,3700.98,3698.12,3693.23,3686.79,3679.81,3674.1,3669.64,3665.51,3662.8,3659.51,3657.25,3656.72,3657.5,3660.07,3663.09,3663.68,3658.85,3662.26,3678.13,3681.94,3685.21,3688.87,3692.43,3696.74,3701.91,3705.66,3709.48,3715.51,3718.66,3727.31,3732.02,3737.75,3742.95,3749.33,3757.72,3765.48,3771.99,3776.37,3779.27,3782,3784.35,3784.28,3780.33,3772.69,3764.36,3754.56,3745.11,3736.69,3722.49,3709.95,3700.32,3699.11,3697.5,3692.6,3687.93,3684.32,3680.91,3677.59,3674.2,3671.89,3670.9,3670.17,3669.64,3670.78,3671.46,3672.42,3672.17,3668.73,3668.7,3669.28,3669.09,3670.27,3669.8,3676.22,3671.81,3676.02,3680.93,3683.76,3693.69,3689,3687.3,3689.06,3690.21,3691.68,3694.82,3695.78,3698.74,3700.52,3704.14,3712.11,3708.57
3995.14,4002.81,4007.66,4012.83,4015.9,4017.42,4018.36,4018.3,4015.54,4011.24,4006.04,4000.72,3994.17,3989.17,3984.04,3977.27,3971.04,3969.68,3965.31,3965.11,3963.34,3965.79,3964.99,3963.73,3961,3962.25,3958.96,3955.62,3953.87,3950.41,3947.03,3943.44,3943.22,3945.6,3945.7,3943.87,3940.53,3943.32,3944.78,3946.48,3947.92,3948.86,3948.57,3949.76,3948.58,3946.36,3945.08,3943.93,3943.81,3939.02,3932.84,3926.13,3921.11,3912.8,3904.7,3898.59,3893.25,3892.79,3893.6,3895.76,3901,3906.43,3911.62,3917.29,3923.73,3929.03,3932.68,3936.49,3941.13,3946.59,3952.97,3960.77,3967.46,3972.67,3976.52,3979.26,3981.82,3984.14,3986,3986.36,3985.87,3985.86,3986.24,3985.97,3984.05,3979.89,3974.39,3966.81,3962.32,3957.69,3953.67,3948.57,3945.49,3941.48,3940.04,3937.82,3934.7,3930.51,3926.1,3920.48,3917.34,3914.12,3911.38,3909.12,3909.14,3911.99,3914.88,3916.4,3916.96,3920.15,3922.51,3927.98,3934.07,3940.07,3945.41,3950.32,3955.99,3964.85,3969.97,3976.2,3981.18,3985.09,3989.51,3995.09,4000.15,4007.56,4013.57,4019.01,4021.87,4025.16,4027.94,4030.33,4028.54,4023.84,4016.59,4006.53,3994.31,3982.83,3971,3958.54,3943.35,3928.4,3913.38,3901.1,3888.19,3877.81,3867.36,3858.73,3852.97,3848.41,3846.46,3850.08,3852.87,3856.09,3861.57,3869.6,3876.1,3880.63,3884.6,3889.22,3888.77,3889.42,3889.11,3888.28,3886.47,3886.78,3885.71,3884.87,3884.72,3884.39,3881.04,3876.75,3870.35,3864.7,3859.65,3855.68,3852.97,3851.69,3851.47,3854.63,3858.37,3862.78,3864.09,3862.43,3860.42,3859.73,3858.01,3856.73,3852.9,3847.6,3842.93,3838.5,3836.49,3832.89,3827.51,3820.97,3814.08,3810.37,3808.3,3810.19,3810.81,3811.06,3812.82,3815.27,3817.93,3817.2,3817.33,3815.19,3804.28,3803.1,3797.38,3794.13,3797.63,3793.03,3788.46,3784.02,3781.63,3777.91,3776.75,3774.33,3772.32,3771.07,3772.68,3775.84,3778.51,3781.17,3782.59,3783.37,3782.91,3779.27,3773.76,3763.32,3750.33,3736.69,3723.33,3708.6,3694.08,3679.02,3663,3641.18,3618.55,3599.11,3507.68,3309.97,1510.08,651.765,985.28,2686.82,2603.52,2569.12,2560.55,2550.38,2548.3,2544.53,2539.68,2534.86,2529.67,2523.92,2518.34,2514.78,2513.15,2513.46,2517.26,2530.09,2572.46,2661.67,2763.97,2876.15,1707.75,3131.01,3275.03,3428.87,3581.28,3622.77,3642.25,3654.44,3667.35,3677.49,3688.5,3698.61,3707.13,3715.03,3720.97,3725.04,3730.13,3733.14,3735.04,3736.8,3736.33,3735.5,3734.01,3731.77,3730.74,3726.4,3723.29,3720,3716.24,3712.77,3709.32,3710.14,3708.63,3700.77,3699.49,3703.8,3708.03,3707.44,3705.73,3702.8,3700.37,3696.34,3690.06,3683.59,3677.8,3673.22,3667.76,3663.77,3659.63,3656.48,3654.85,3654.99,3655.49,3652.33,3649.3,3654.3,3665.4,3669.36,3672.67,3676.1,3679.81,3684.35,3689.48,3694.17,3699.03,3703.84,3706.96,3713.73,3722.49,3727.7,3733.22,3738.88,3744.88,3753.8,3762.16,3769.31,3774.81,3778.67,3782.07,3785.86,3786.82,3783.77,3776.86,3768.6,3759.1,3748.93,3740.47,3726.37,3709.64,3708.67,3703.59,3698.92,3692.38,3687.8,3683.61,3679.32,3675.6,3672.68,3670.03,3668.96,3668.25,3668.24,3669.72,3671.38,3672.56,3670.52,3667.63,3674.05,3675.74,3676.69,3678.75,3682.41,3684.03,3680.09,3685.63,3691.03,3694.03,3697.51,3706.01,3703.09,3701.04,3700.14,3697.56,3695.56,3697.55,3696.27,3696.62,3702.23,3701,3702.88
3989.89,3998.36,4004.32,4011.26,4015.17,4017.81,4019.27,4020.36,4017.4,4013,4007.66,4001.74,3994.84,3989.55,3984.29,3977.62,3976.74,3966.92,3965.45,3962.24,3963.87,3966.06,3964.49,3964.26,3965.1,3965.82,3965.98,3965.41,3960.86,3951.8,3946.84,3943.88,3949.19,3949.08,3945.36,3942.84,3942.94,3943.63,3944.97,3946.82,3948.76,3949.2,3949.49,3950.37,3950.93,3950.5,3950.48,3950.82,3952.74,3949.38,3944.89,3938.77,3934.26,3926.24,3917.92,3911.29,3905.17,3903.47,3902.19,3902.65,3906.7,3909.81,3912.5,3915.72,3918.55,3921.77,3923.6,3925.74,3928.79,3933.06,3938.71,3946.86,3953.52,3958.7,3963.45,3966.22,3969.41,3973.03,3976.02,3977.07,3978.4,3980.09,3981.74,3982.11,3982.26,3979.47,3974.82,3968.9,3964.99,3960.47,3956.82,3951.92,3949.13,3945.49,3943.32,3940.12,3937.5,3933.33,3929.04,3923.92,3920.81,3917.57,3914.95,3912.97,3914.26,3917.11,3919.98,3921.09,3922.32,3925.55,3929.19,3934.32,3939.91,3945.5,3950.86,3954.61,3959.88,3968.52,3974.11,3981.22,3985.3,3989.08,3993.95,4000.12,4005.8,4013.44,4020.27,4024.96,4027.55,4031.33,4034.19,4036.2,4034.97,4029.85,4022.75,4011.93,3999.06,3988.2,3976.16,3962.85,3948.03,3931.45,3916.8,3903.94,3891.42,3881.83,3871.2,3862.87,3857.04,3852.98,3851.44,3855.82,3857.62,3861.68,3867.55,3874.65,3881.37,3886.27,3890.5,3893.51,3893.91,3894.46,3894.01,3892.38,3890.54,3890.32,3889.52,3888.25,3888.13,3888.24,3884.46,3880.92,3874.98,3869.54,3865.22,3859.98,3856.84,3854.89,3854.34,3857.76,3860.78,3865.08,3866.7,3864.88,3864.44,3863.66,3861.9,3861.57,3856.8,3850.68,3847.36,3842.86,3839.88,3837.08,3831.07,3823.89,3817.37,3813.85,3812.23,3813.8,3814.78,3815.33,3817.64,3820.5,3824.97,3825.08,3825.4,3820.84,3814.3,3804.9,3803.63,3807.41,3802.18,3796.39,3791.13,3785.86,3782.54,3778.56,3776.49,3772.66,3770.44,3768.49,3768.54,3770.5,3772.09,3773.4,3774.78,3774.86,3773.28,3769.52,3763.69,3753.78,3742.28,3729.66,3717.06,3703.15,3689.55,3675.9,3662.78,3644.22,3624.5,3608.47,3536.2,3332.53,846.604,224.718,457.436,2616.11,2598.31,2562.6,2554.23,2545.66,2544.9,2541.65,2536.9,2532.56,2527.96,2522.7,2517.09,2513.75,2511.82,2512.27,2515.53,2526.79,2561.54,2648.74,2748.83,2858.76,1297.01,3109.04,3249.72,3401.17,3553.86,3608.04,3629.02,3643.1,3655.44,3665.87,3677.92,3687.98,3697.46,3705.62,3711.84,3716.88,3722.15,3725.22,3727.65,3729.42,3729.93,3729.54,3728.1,3726.02,3724.95,3721.51,3718.48,3715.87,3711.76,3709.12,3708.13,3706.57,3703.68,3706.57,3702.8,3707.79,3707.89,3708.08,3706.93,3704.68,3702.74,3699.1,3692.71,3686.35,3681.28,3676,3669.55,3664.91,3660.07,3656.11,3653.42,3652.65,3646.79,3642.5,3646.62,3656.35,3657.91,3661.97,3664.74,3668.4,3672.71,3677.25,3682.57,3688.4,3693.42,3696.24,3702.68,3710.23,3719.32,3724.51,3730.51,3735.87,3742.21,3751.12,3760.26,3768.34,3773.62,3778.31,3782.72,3786.6,3788.56,3785.92,3780.29,3771.99,3762.27,3752.97,3740.91,3726.97,3716.58,3705.86,3706.56,3700.88,3694.49,3688.74,3684.35,3679.46,3675.45,3671.97,3669.34,3668.49,3667.96,3668.17,3669.31,3670.95,3673.26,3665.48,3672.36,3676.74,3678.99,3680.72,3684.36,3680.16,3688.36,3691.58,3693.99,3702.84,3705.67,3706.24,3708.86,3713.86,3710,3707.55,3703.15,3696.66,3694.53,3694.42,3693.98,3698.98,3700.23,3696.18
