3586.18,3603.25,3617.26,3627.15,3634.54,3637.5,3640.16,3640.19,3639.31,3640.59,3641.83,3641.67,3641.8,3642.23,3642.66,3642.28,3642.49,3642.22,3645.28,3649.57,3653.71,3653.47,3648.58,3642.92,3633.23,3619.23,3594.55,3534.98,3446.31,3330.17,3241.07,3092.77,2910.24,2478.07,1932.07,1253.41,772.038,479.517,275.782,174.254,86.675,46.399,36.305,22.558,11.027,3.999,3.347,0,1.062,1.062,1.06,1.06,2.053,2.05,0.99,2.041,2.041,0.987,0.987,4.609,3.622,6.513,3.622,3.622,6.541,10.231,13.686,21.343,28.67,42.504,129.704,289.925,656.656,1285.05,2050.93,2662.75,3102.07,3318.51,3463.61,3544.99,3573.23,3586.51,3598.82,3613.19,3620.96,3646.4,3652.08,3660.54,3670.74,3678.54,3685.62,3690.63,3695.22,3698.7,3701.17,3701.82,3702.18,3703.75,3705.37,3704.4,3704.69,3701.68,3693.57,3680.08,3665.81,3647.7,3599.27,3513.05,3330.78,3170.28,2916.77,2691.94,2493.38,2340.45,2185.48,2064.56,1846.14,1642.9,1524.45,1295.56,1116.42,978.972,871.266,823.828,751.152,761.318,769.511,857.977,943.061,962.019,1077.64,1120.45,1252.91,1402.48,1496,1533.51,1498.99,1464.37,1433.21,1372.81,1381.7,1433.78,1441,1546.42,1771.39,2119.22,2515.31,2946.5,3214.08,3451.26,3554.26,3584.74,3599.07,3602.8,3608,3612.77,3618.72,3626.97,3633.65,3641.47,3650.89,3657.91,3663.41,3668.44,3671.93,3673.41,3674.6,3674.96,3675.65,3672.49,3668.85,3662.67,3652.61,3641.51,3629.09,3613.19,3580.87,3542.28,3492.62,3419.69,3306.2,3204.38,3079.23,2961.86,2889.12,2780.49,2647.9,2456.41,2291.4,2085.86,1896.06,1661.98,1436.17,1241.67,1069.01,943.911,866.568,817.271,755.358,699.248,679.033,659.703,612.377,570.396,554.55,563.573,525.06,556.233,554.773,614.682,653.031,727.533,790.484,859.771,916.933,1013.74,1136.76,1341.56,1540.28,1748.19,2017.74,2291.88,2531.76,2745.09,2928.81,3082.72,3234.76,3367.14,3465.05,3493.72,3506.42,3520.15,3526.43,3534.24,3542.76,3551.17,3559.96,3567,3572.25,3576.65,3579.36,3582.09,3585.14,3586.86,3587.63,3585.47,3582.48,3579.6,3575.17,3570.73,3565.05,3556.32,3545.21,3531.93,3517.54,3502.58,3486.37,3466.21,3441.72,3424.28,3382.1,3343.88,3265.37,3158.01,3118.09,3055.72,2996.29,2935.48,2871.19,2886.02,2878.17,2837.57,2811.43,2780.78,2790.2,2767.13,2746.24,2760.33,2698.59,2644.73,2652,2556.58,2470.14,2445.17,2374.5,2379.64,2468.24,2593.02,2716.66,2868.99,3009.91,3161.68,3302.14,3397.48,3425.01,3489.2,3542.01,3551.7,3575.94,3568.99,3582.97,3575.63,3584.18,3579.61,3578.16,3571.87,3564.54,3557.98,3548.14,3536.96,3523.14,3508.93,3490.27,3462.92,3431.38,3396.09,3350.95,3292.41,3240.54,3198.7,3141.98,3081.65,3042.31,2990.66,2929.36,2895.85,2400.15,1131.66,60.47,0,298.897,1780.07,1689.68,1781.98,1829.83,1862.58,1920.09,1946.6,1962.37,1974.3,1967.84,1962.12,1958.21,1954.36,1948.82,1944.57,1942.19,1938.67,1934.44,1926.29,1924.21,1901.35,1847.38,1788.01,1896.83,1737.49,1475.89,1555.74,1478.92,1292.69,971.569,976.731,934.639,896.649,837.279,789.048,722.429,593.545,393.492,261.872,193.481,149.754,109.33,74.483,62.935,60.515,45.84,46.819,65.352,109.539,139.121,238.736,502.874,912.939,1340.68,1954.58,2457.18,2878.93,3106.97,3293.52,3373.98,3511.61,3554.16,3576.17,3580.84,3587.47,3587.47,3589.34,3592.66,3596.72,3602,3608.4,3614.36,3620.31,3627.16,3634,3638.25,3641.53,3642.14,3640.61,3638.07
3613.71,3632.01,3647.6,3657.66,3664.27,3667.82,3668.45,3667.13,3665.22,3664.2,3663.82,3661.76,3659.23,3657.89,3656.69,3654.92,3653,3652.56,3654.2,3659.03,3663.17,3664.55,3663.07,3659.85,3656.11,3643.82,3636.33,3594.08,3557.29,3499.65,3446.21,3354.77,3237.67,3112.74,2951.1,2629.76,2228.65,1823.29,1390.31,1042.51,716.576,532.582,373.484,279.186,205.422,141.039,93.176,64.016,56.757,61.185,46.154,44.549,56.867,63.644,77.139,82.106,81.945,102.415,111.067,97.359,98.388,105.575,91.474,78.509,81.647,78.854,112.371,132.462,161.74,226.103,409.429,751.282,1240.49,1867.57,2586.12,3092.38,3326.9,3475.54,3546.03,3614.52,3630.91,3639.22,3644.81,3650.86,3656,3661.46,3665.89,3672.97,3681.97,3689.48,3695.49,3700.53,3705.12,3708.35,3711.26,3712.23,3709.13,3707.98,3705.76,3705.61,3706.19,3700.11,3700.81,3687.25,3669.68,3655.14,3589.91,3449.62,3195.99,2705.34,2187.67,1676.64,1358.11,1089.49,874.624,768.807,658.806,575.496,512.334,441.049,325.745,301.539,261.947,241.696,203.657,200.923,203.499,208.435,259.686,304.549,363.577,422.021,466.373,540.814,549.388,530.715,479.8,519.515,532.67,559.686,548.14,540.074,557.718,606.455,715.084,960.332,1312.89,1800.05,2388.99,2975.61,3387.66,3559.37,3589.13,3600.97,3611.64,3631.9,3638.47,3646.24,3652.04,3659.95,3669.01,3675.94,3681.41,3684.22,3686.73,3687.15,3687.18,3685.9,3685.47,3680.03,3674.61,3666.3,3655.03,3642.46,3629.41,3608.6,3580.11,3549.63,3513.09,3420.55,3309.04,3183.8,3060.17,2903.83,2752.52,2657.62,2487.27,2310.11,2155.37,1977.4,1799.13,1606.82,1370.6,1225.78,1021.31,868.939,796.132,743.105,692.078,635.457,594.151,555.974,536.963,499.185,458.084,424.962,415.39,428.271,461.046,492.027,539.549,620.298,688.543,739.65,819.958,910.784,1067.35,1241.93,1448.74,1656.85,1887.88,2156.28,2396.14,2613.3,2821.76,2972.01,3127.69,3297.77,3408.49,3483.66,3503.64,3515.1,3531.26,3540.93,3551.21,3561.41,3571.99,3580.53,3586.89,3592.13,3595.57,3599.17,3601.81,3603.91,3604.37,3602.77,3599.56,3596.23,3591.7,3587.02,3581.29,3572.35,3561.58,3549.08,3535.91,3520.91,3505.14,3486.46,3466.77,3447.49,3406.8,3330.68,3272.29,3196.28,3105.46,3038.31,3012.67,2957.07,2936.22,2905.14,2878.85,2842.99,2832.07,2801.36,2789.93,2746.49,2737.9,2708.12,2694.92,2619.23,2605.77,2552.35,2474.79,2469.21,2441.56,2465.27,2507.14,2613.7,2747.56,2935.8,3082,3217.77,3330.04,3438.15,3444.49,3539.57,3557.07,3591.25,3605.33,3602.98,3606.17,3605.95,3608.62,3604.6,3604.05,3598.59,3592.71,3587.74,3580.14,3570.55,3558.99,3547.18,3531.93,3509.2,3483.54,3454.99,3420.11,3381.74,3334.56,3297.6,3251.52,3203.78,3163.87,3120.97,3087.89,3055.75,2758.02,1083.26,35.469,0,319.457,1703.87,1575.72,1695.04,1747.61,1812.52,1909.35,1930.87,1963.61,1972.28,1966.86,1960.51,1955.87,1951.27,1945.31,1940.66,1938.19,1934.87,1930.67,1925.03,1919.7,1903,1843.79,1796.78,1889.27,1739.58,1513.69,1468.46,1379.84,1152.09,868.449,862.927,815.594,779.895,734.298,694.896,637.049,547.186,374.697,246.167,185.728,140.173,107.72,86.136,73.893,62.375,47.378,41.891,47.77,99.694,214.345,399.372,827.67,1318.83,1890.07,2514.5,2992.88,3284.61,3431.76,3501.49,3552.76,3585.24,3603.52,3609.31,3610.74,3610.72,3611.25,3612.95,3615.26,3618.36,3623.61,3628.89,3633.92,3638.06,3644.04,3649.26,3653.15,3655.88,3655.87,3653.64,3650.85
3632,3651.67,3671.53,3682.43,3689.33,3692.77,3691.76,3690.15,3686.95,3684.55,3682.43,3678.7,3674.89,3671.64,3668.9,3665.78,3663.64,3662.11,3663.53,3667.5,3673.04,3675.86,3676.69,3675.64,3672.54,3665.1,3656.43,3637.54,3597.05,3562.29,3504.87,3465.79,3359.44,3308.74,3140.38,2985.3,2804.6,2513.97,2243.95,1931.88,1661.85,1360.72,1128.6,949.766,793.972,681.249,583.691,504.807,431.389,386.2,365.898,382.529,381.198,401.944,423.105,462.053,497.204,530.496,548.901,509.686,471.08,419.624,411.991,371.029,378.66,433.143,492.064,608.336,772.907,967.599,1259.55,1655.05,2228.36,2704.85,3198.92,3451.21,3559.59,3605.99,3638.8,3648.22,3652.45,3663.13,3668.5,3672.02,3676.22,3679.46,3682.56,3688.49,3696,3702.57,3707.82,3712.08,3716.66,3719.8,3722.56,3723.74,3725.39,3727.88,3730.06,3730.73,3731.52,3730.17,3724.2,3716.03,3706.34,3697.21,3682.87,3660.15,3641.13,3569.02,3496.82,3385.05,3227.22,3106.01,2979.73,2887.88,2744.96,2555.22,2294.97,2012.03,1683.56,1543.09,1402.8,1247.79,1172.73,1168.87,1144.39,1256.19,1363.56,1503.39,1716.16,1885.58,1988.55,1952.47,1914.7,1828.26,1753.62,1774.59,1842.65,1803.72,1803.75,1743.71,1775.16,1768.96,1912.8,2215.62,2495.31,2936.03,3234.65,3502.02,3583.43,3606.84,3622.98,3628.27,3641.93,3650.47,3659.55,3665.32,3674.11,3681.24,3688.5,3694.82,3698.43,3699.84,3700.68,3699.36,3698.03,3694.98,3692.85,3686.57,3679.23,3670.78,3658.2,3645.28,3632.12,3611.73,3578.91,3530.12,3446.9,3333.82,3121.27,2893.27,2695.13,2405.98,2162.35,1970.92,1810.09,1654.35,1542.96,1420.13,1333.36,1234.88,1121.7,960.579,828.165,676.321,546.394,491.467,470.395,443.843,399.826,351.299,290.124,265.142,278.43,250.48,221.057,229.93,258.19,293.03,342.227,409.379,479.943,512.239,595.206,683.687,866.643,1058.76,1232.9,1455.37,1664.08,1848.79,2028.11,2253.86,2401.63,2607.72,2879.75,3083.5,3270.84,3379.99,3458.35,3508.51,3530.89,3550.35,3562.76,3574.24,3586.16,3595.73,3603.17,3609.01,3612.88,3616.45,3619.19,3620.53,3621.03,3618.84,3615.18,3611.26,3605.45,3600.37,3594.2,3584.66,3574.31,3562.36,3550.06,3535.75,3521.71,3508.02,3481.77,3449.49,3412.97,3351.78,3311.95,3235.01,3190.59,3107.58,3070.38,3008.48,2973.29,2955.47,2912.87,2911.39,2868.33,2830.87,2790.63,2761.8,2748.93,2717.15,2670.75,2629.37,2583.62,2545.17,2527.02,2538.08,2564.5,2569.57,2626.1,2765.8,2878.67,3047.96,3184.46,3292.22,3397.03,3472.95,3494.31,3546.42,3581.28,3602.9,3615.92,3611.59,3626.45,3618.62,3621.96,3621.65,3617.87,3613.72,3608.93,3604.7,3598.94,3591.19,3582.09,3573.13,3561.54,3543.49,3523.52,3499.77,3471.88,3441.15,3408.22,3372.41,3332.24,3295.72,3266.52,3238.68,3216.01,3184.45,3011.69,901.303,40.408,0,375.429,1520.3,1455.43,1564.2,1649.87,1741.79,1858.91,1915.17,1962.65,1974.5,1966.28,1959.08,1953.94,1948.84,1942.2,1937.17,1934.71,1931.58,1927.54,1924.22,1919.6,1901.39,1854.34,1775.47,1882.6,1717.77,1575.56,1419.52,1312.53,1088.02,835.788,835.108,781.313,745.097,725.199,677.603,605.838,502.937,353.357,247.284,190.735,155.865,140.878,107.571,85.012,70.444,41.618,45.033,64.934,114.392,218.846,571.356,1114.92,1669.11,2338.15,2818.79,3244.69,3439.69,3528.69,3569.33,3588.64,3613.76,3624.28,3626.82,3629.87,3630.33,3631.43,3633.64,3635.25,3637.9,3641.99,3646.46,3650.17,3653.97,3658.68,3662.37,3665.82,3667.1,3667.26,3664.11,3660.55
3639.46,3663.94,3688.29,3700.08,3707.41,3710.1,3710.08,3707.34,3704.52,3702.03,3698.87,3693.89,3688.77,3685.24,3681.69,3677.96,3675,3673.46,3674.76,3678.62,3684.15,3688.14,3691.12,3690.86,3689.28,3679.33,3675.1,3656.16,3629.44,3616.01,3555.68,3510.64,3435.07,3351.05,3226.2,3108.54,2940.43,2735.06,2570.26,2343.47,2095.49,1892.98,1657.74,1539.35,1395.01,1294.01,1238.1,1203.67,1146.76,1121.76,1066.63,996.258,972.418,985.103,976.345,951.002,948.688,937.351,936.459,884.393,843.746,790.194,718.183,706.206,693.356,749.204,819.179,995.158,1146.44,1469.03,1733.94,2140.1,2512.05,2967.63,3334.71,3493.9,3620.51,3646.53,3665.13,3674.36,3680.93,3687.25,3690.73,3693.2,3696.06,3699.38,3701.27,3706.2,3712.99,3719.36,3723.6,3727.54,3732.38,3735.19,3737.37,3739.34,3740.24,3743.73,3746.5,3747.3,3748.24,3747,3742.56,3734.91,3726.32,3718.4,3709.53,3694.18,3686.78,3663.91,3648.2,3612.71,3587.78,3537.39,3493.91,3436.15,3372.88,3318.28,3230.58,3111.85,2956.83,2805.26,2656.5,2577,2487.8,2481.1,2521.19,2601.21,2697.86,2818.13,2964.99,3013.75,2996.24,2948.84,2948.29,2913.07,2871.99,2901.52,2896.47,2854.52,2881.56,2915.69,2918,2937.56,3015.57,3140.79,3313.71,3478.66,3578.69,3635.15,3654.47,3663.72,3668.25,3680.93,3686.08,3689.77,3692.05,3695.52,3698.29,3703.87,3709.49,3714.56,3716.57,3715.93,3715.14,3711.78,3708.16,3704.49,3700.52,3693.54,3685.15,3675.29,3663.83,3650.35,3637.44,3618.29,3470,3141.2,2483.88,1716.3,1024.13,587.853,291.682,166.254,72.082,34.924,31.534,24.852,14.101,10.376,16.776,10.327,7.608,3.898,3.922,3.258,3.241,0,0.89,1.876,1.878,4.992,6.049,5.055,7.116,7.193,5.213,5.216,3.168,3.166,6.551,4.546,7.93,14.529,24.544,30.845,59.319,82.132,111.507,147.971,168.337,181.78,206.235,289.948,230.756,311.417,642.522,1178.69,1841.83,2311.94,2709.97,3066.95,3393.96,3533.69,3579.75,3592.7,3605.68,3615.7,3623.31,3629.13,3632.44,3635.44,3638.04,3638.88,3637.9,3635.06,3630.79,3625.26,3618.59,3612.67,3606.05,3596.3,3585.42,3573.65,3561.84,3548.99,3535.68,3524.05,3499.49,3478.44,3428.48,3389.6,3337,3306.38,3241.74,3196.36,3112,3062.65,3005.39,2945.6,2908.33,2879.29,2859.39,2812.33,2731.57,2709.62,2674.1,2632.26,2613.23,2578.49,2559.99,2559.3,2574.79,2628.16,2635.24,2673.6,2737.33,2837.27,2959.62,3081.4,3249.29,3333.51,3407.19,3468.32,3514.9,3563.64,3592.81,3621,3638.18,3618.18,3629.78,3630.42,3630.35,3627.46,3624.35,3620.61,3616.82,3613.64,3609.89,3603.63,3596.48,3590.2,3581.81,3568.71,3552.84,3535.35,3513.2,3489.29,3463.64,3435.51,3405.74,3373.97,3352.46,3330.74,3314.44,3289.8,3109.35,1172.37,44.373,2.799,434.449,1347.57,1379.75,1486.51,1595.9,1644.18,1777.64,1881.13,1949.68,1974.79,1966.11,1958.55,1952.77,1947.19,1940.08,1934.87,1932.4,1929.46,1925.26,1922.1,1917.92,1909.8,1853.66,1783.02,1871.94,1676.64,1590.17,1412.57,1378.54,1113.58,845.829,814.804,811.454,773.366,724.104,700.155,621.414,540.105,375.13,271.752,217.633,175.898,145.51,129.068,97.891,68.93,57.48,64.845,102.352,172.817,311.732,686.839,1395.84,2003.14,2639.79,3033.36,3388.02,3516.17,3583.08,3592.48,3620.27,3632.87,3637.4,3640.74,3644.79,3646.87,3648.51,3650.25,3651.66,3653.94,3657.72,3661.67,3664.22,3667.13,3670.08,3672.91,3675.14,3676.34,3675.1,3672.09,3668.17
3641.41,3679.31,3696.45,3712.13,3719.05,3722.68,3723.15,3721.45,3718.41,3715.98,3713.55,3708.02,3703.03,3699.32,3695.05,3691.17,3688.48,3685.78,3687.44,3692.28,3697.5,3702.21,3706.45,3707.98,3707.28,3697.91,3686.15,3678.9,3655.57,3628.05,3595.88,3547.75,3521.36,3428.25,3339.29,3226.91,3069.37,2884.45,2728.6,2602.71,2463.38,2332.6,2172.07,2063.44,1933.39,1905.48,1878.5,1874.93,1814.15,1809.6,1784.92,1753.26,1641.8,1617.19,1490.68,1408.25,1357.94,1263.94,1173.49,1130.9,1106.77,1050.28,1037.66,1043.31,1063.89,1125.95,1253.09,1449.08,1769.43,2190.49,2532.1,2878.3,3237.48,3439.63,3575.76,3622.15,3655.77,3672.04,3683.85,3694.86,3701.48,3707.67,3712,3713.89,3716.34,3718.96,3720.87,3725.37,3731.81,3738,3742.58,3746.38,3750.78,3753.68,3755.85,3757.51,3759.04,3761.08,3764.57,3766.25,3767,3767.24,3763.31,3756.68,3748.35,3740.81,3728.54,3718.22,3707.43,3675.03,3659.9,3647.96,3606.01,3577.03,3527.38,3463.83,3395.76,3400.82,3353.05,3303.41,3286.46,3263.38,3243.36,3219.43,3257.08,3241.01,3267.63,3285.4,3289.17,3270.6,3276.84,3300.02,3309.71,3322.78,3330.83,3334.17,3342.54,3375.13,3344.19,3349.85,3370.11,3387.09,3410.67,3429.15,3476.86,3527.88,3573.09,3620.15,3660.97,3693.86,3702.89,3708.16,3712.55,3716.81,3720.76,3722.69,3722.44,3722.58,3723.63,3726.74,3730.87,3734.2,3734.82,3732.79,3729.7,3725.02,3720.29,3715.73,3710.95,3702.09,3693.01,3683.02,3672.06,3659.45,3643.08,3624.21,3538.93,3096.45,2281.17,1177.45,536.373,222.2,103.019,36.909,17.341,13.964,10.401,3.258,0,0,0,0,0,0,0,0,0,0,0.89,1.879,3.997,4.992,8.013,7.88,9.023,8.166,6.184,6.191,4.138,2.009,3.164,1.16,1.16,1.162,1.162,1.164,0,0,0,0,0,0,0,3.71,6.884,10.422,44.822,151.822,430.505,945.324,1505.62,2218.24,2929.96,3439.8,3600.08,3622.73,3633.71,3642.19,3649.06,3653.28,3656,3656.76,3658.23,3658.16,3656.18,3652.01,3645.74,3638.43,3630.72,3622.47,3615.07,3605.61,3594.54,3582.86,3571.47,3559.64,3547.94,3536.93,3521.42,3501.16,3477.83,3438.32,3382.52,3362.95,3297.86,3219.95,3173.32,3111.59,3051.56,2996.78,2966.96,2926.65,2820.54,2782.75,2715.62,2663.9,2622.82,2581,2536.45,2548.74,2548.46,2557.51,2584.49,2674.52,2741.21,2771.1,2865.32,2982.77,3084.44,3173.38,3298.11,3396.05,3445.45,3516.31,3562.17,3608.8,3619.03,3627.06,3643.33,3642.38,3642.61,3639.12,3636.15,3633.09,3629.84,3626.2,3623.29,3620.44,3617.85,3613.7,3608.87,3604.56,3598.34,3588.04,3576.8,3563.91,3548.16,3529.22,3509.43,3486.8,3463.68,3441.3,3423.11,3405.45,3393.23,3371.07,3197.7,1824.57,70.322,6.359,559.163,1073.77,1337.43,1424.03,1510.22,1557.53,1711.88,1829.26,1931.49,1975.61,1966.68,1958.8,1952.72,1946.7,1939.29,1933.64,1931.22,1928.25,1924.38,1920.95,1914.91,1905.42,1868.79,1790.95,1878.14,1709.16,1628.13,1499.06,1521.54,1286.27,959.642,969.336,945.824,905.004,904.631,846.505,763.506,658.971,477.881,323.239,254.33,211.77,175.608,155.397,129.093,98.033,106.975,112.001,170.275,269.598,494.288,892.14,1430.74,2219.94,2748.57,3148.22,3411.57,3535.58,3583.93,3616.51,3633.39,3639.76,3644.29,3648.46,3653.37,3656.56,3659.4,3661.43,3663.52,3665.57,3669.01,3672.53,3674.93,3676.65,3678.7,3681.12,3681.87,3682.67,3681.23,3678.14,3673.65
3647.66,3674.39,3703.15,3718.52,3725.02,3729.81,3731.32,3729.66,3728.3,3726.87,3724.58,3720.57,3715.12,3712.1,3707.81,3703.52,3701.32,3699.69,3700.78,3705.75,3711.26,3716.39,3721.41,3723.3,3719.49,3716.45,3713.35,3694.69,3671.46,3651.26,3610.12,3548.83,3505.77,3463.47,3348.3,3194.32,3042.25,2875.86,2789.7,2647.83,2515.11,2401.74,2292.99,2277.39,2199.46,2142.53,2101.79,2102.94,2050.38,2021.36,1962.31,1921.8,1842.86,1746.16,1660.27,1599.67,1473.26,1388.17,1308.32,1221.03,1183.23,1100.86,1094.96,1111.43,1153.7,1222.34,1351.25,1565.02,1880.53,2255.72,2587.72,2941.6,3260.08,3428.97,3573.19,3624.91,3663.82,3688.79,3703.81,3712.02,3719.01,3725.88,3730.52,3732.76,3736.1,3737.66,3739.66,3743.86,3749.62,3755.48,3760,3763.38,3767.57,3770.24,3773.11,3774.93,3775.77,3777.72,3779.56,3780.07,3781.95,3781.29,3778.07,3773.07,3766.45,3759.65,3753.42,3743.57,3726.59,3711.72,3696.06,3668.62,3628.81,3574.17,3531.9,3469.18,3395.96,3356.71,3312.92,3298.33,3282.93,3312.25,3300.86,3303.25,3305.42,3309.33,3323.62,3338.64,3302.94,3277.23,3286.93,3284.45,3290.03,3301.71,3346,3362.67,3370.41,3382.04,3387.17,3405.98,3419.72,3430.52,3463.16,3485.79,3539.25,3576.24,3624.97,3676.61,3702.03,3723.11,3737.16,3743.72,3747.51,3752.24,3754.79,3754.94,3753.16,3750,3748.93,3749.79,3751.49,3753.94,3752.76,3748.59,3744.98,3739.06,3733.18,3727.87,3720.82,3711.57,3702.25,3692.54,3683.11,3672.12,3659.81,3647.39,3623.48,3523.13,3279.47,2664.81,1685.2,864.458,357.655,147.651,64.134,10.091,0,0,0,0,0,0,0,0,0,0,0,0,0,0.984,4,4.994,6.96,5.968,7.11,7.972,7.036,5.891,2.862,3.754,3.756,1.999,1.158,1.16,1.16,0,0,0,0,0,0,0,0,0,0,0,0,0,7.266,43.169,198.938,899.88,2189.63,3238.45,3597.37,3649.74,3656.18,3665.1,3673.24,3679.28,3679.85,3680.32,3680.07,3678.54,3674.75,3668.73,3660.92,3651.91,3642.77,3633.28,3624.14,3614.81,3602.79,3591.72,3581.07,3569.37,3558.81,3548.81,3534.46,3519.94,3502.63,3478.66,3462.63,3428.17,3384.08,3361.86,3308.14,3235.37,3173.89,3116.5,3091.62,3033.95,2988.51,2855.93,2750.52,2657.37,2504.95,2432.7,2368.5,2314.02,2330.96,2364.65,2412.87,2496.59,2587.86,2695.93,2849.82,2981.55,3149.33,3236.5,3345.56,3404.77,3480.31,3541.18,3591.59,3618.14,3650.56,3655.71,3657.99,3649.08,3651.2,3650.98,3647.01,3642.74,3639.53,3635.84,3632.55,3630.44,3628.9,3625.57,3622.67,3620.26,3615.49,3607.08,3598.67,3588.6,3577.28,3563.64,3547.81,3529.17,3510.8,3493.61,3478.65,3464.18,3453.92,3437.52,3258.41,1979.46,95.718,14.673,443.007,897.866,1280.87,1396.97,1503.29,1519.45,1623.4,1789.42,1897.04,1976.73,1967.24,1959.2,1952.61,1946.29,1939.03,1932.92,1930.34,1927.35,1923.41,1919.86,1915.96,1906.9,1864.97,1817.85,1884.16,1724.53,1658.27,1612.32,1650.12,1487.33,1135.88,1136.8,1136.76,1083.2,1039.35,984.212,889.447,762.727,553.982,373.462,294.425,225.283,185.52,161.488,137.233,121.846,127.964,166.412,226.883,367.985,618.415,953.21,1404.74,2040.3,2745.16,3134.58,3400.28,3523.03,3566.42,3616.57,3624.76,3638.39,3643.41,3648.59,3654.71,3660.13,3665.18,3668.63,3670.93,3673.71,3677.64,3681.12,3683.36,3684.84,3686.09,3686.82,3687.37,3687.55,3686,3682.51,3677.06
3640.81,3678.42,3699.91,3719.09,3726.2,3731.85,3734.72,3735.36,3735.05,3734.31,3734.06,3731.27,3727.08,3724.43,3720.69,3717.53,3715.3,3714.31,3715.94,3720.95,3726.32,3731.29,3735.69,3737.44,3733.74,3734.08,3723.2,3707.65,3688.24,3667.26,3621.89,3569.53,3531.26,3465.54,3366.49,3217.58,3070.58,2926.7,2726.12,2619.85,2526.65,2474.8,2412.63,2412.8,2368.47,2297.65,2252.49,2271.07,2208.78,2137.04,2092.7,2046.54,1982.46,1895.79,1800.64,1729.77,1592.37,1483.01,1388.07,1293.48,1226.32,1165.8,1144.46,1142.5,1182.74,1280.53,1417.14,1624.99,1921.72,2263.8,2599.78,2915.87,3209.23,3411.95,3531.2,3599.91,3670.44,3695.98,3716.24,3725.16,3732.97,3740.56,3745.88,3748.66,3752.21,3753.77,3756.12,3759.57,3765.84,3771.63,3776.34,3779.33,3782.97,3785.96,3788.37,3790.43,3791.98,3793.26,3795.05,3795.96,3797.79,3798.88,3796.85,3792.42,3785.43,3779.92,3773.59,3764.19,3751.53,3731,3717.5,3688.04,3633.2,3575.83,3510.75,3463.09,3406.67,3373.04,3322.22,3290.62,3292.01,3330.84,3330.59,3343.47,3340.82,3326.38,3307.42,3338.84,3306.98,3307.72,3279.58,3290.18,3279.99,3306.48,3340.01,3323.95,3348.3,3361.99,3355.62,3351.09,3364.7,3392.5,3442.97,3483.4,3539.97,3597.39,3651.85,3687.84,3719.87,3747.27,3763.96,3772.64,3777.63,3782.24,3784.26,3784.44,3781.31,3776.19,3773.87,3773.16,3772.87,3773.54,3771.06,3765.72,3761.15,3754.85,3747.95,3742.72,3735.06,3725.86,3716.8,3707.98,3700.06,3691,3680.83,3666.29,3644.98,3589.88,3490.76,3346.07,3010.8,2422.28,1794.62,1156.07,712.945,407.252,226.634,99.541,35.043,22.072,2.919,2.919,2.905,0,0,0,0,0,0,0.984,3.098,4.088,5.071,5.057,7.038,7.11,6.171,6.957,6.938,3.86,2.896,2.053,1.149,1.153,0,0,0,0,0,0,0,0,0,0,0,0,0,0,18.018,57.512,317.783,1084.99,2182.34,3254.45,3642.06,3672.24,3677.83,3690.21,3695.21,3706.69,3705.81,3704.3,3702.14,3698.3,3692.79,3685.45,3675.68,3665.4,3654.22,3636.05,3630.63,3620.48,3608.62,3597.8,3586.99,3576.34,3566.35,3554.03,3545.39,3524.73,3509.59,3479.21,3444.88,3393.61,3335.06,3268.81,3173.22,3044.84,2933.5,2756.84,2627.77,2542.86,2341.62,2135.91,1921.9,1793.06,1560.73,1353.74,1228.33,1208.27,1184.51,1289.58,1399.84,1532.34,1729.38,1914.31,2174.47,2406.84,2560.16,2735.27,2823.61,2894.66,3024.46,3183.48,3382.83,3491.57,3576.33,3623.79,3640.22,3663.46,3675.93,3669.37,3663.98,3658.31,3653.72,3649.71,3647.01,3644.62,3642.75,3641.72,3640.07,3638.8,3635.62,3629.13,3621.98,3614.38,3605.48,3594.83,3581.05,3566.45,3550.05,3536.41,3523.31,3510.77,3498.9,3482.85,3288.5,1754.66,72.466,2.905,378.044,871.592,1221.28,1324.76,1461.92,1503.34,1581.15,1717.16,1858.77,1968.03,1968.33,1960.06,1953.38,1946.55,1939.35,1932.92,1930.15,1927.32,1923.43,1919.67,1915.96,1911.27,1869.64,1832,1884.81,1738.46,1696.41,1647.19,1718.45,1634.68,1363.14,1350.32,1317.42,1280.81,1218.26,1132.99,1016.21,860.741,630.263,437.016,327.272,255.648,216.142,177.491,147.115,142.466,162.027,238.728,321.298,457.933,690.431,1005.58,1362.06,1832.39,2467.1,3073.42,3388.52,3498.07,3555.53,3606.45,3626.48,3634.93,3641.17,3648.35,3656.74,3664.55,3671.44,3677.1,3680.59,3683.26,3687.83,3691.77,3693.38,3694.61,3694.39,3693.55,3693.14,3692.54,3690.03,3684.85,3678.78
3620.65,3666.64,3695.7,3709.46,3721.72,3727.84,3733.28,3736.05,3737.8,3739.32,3740.14,3739.58,3737.7,3735.4,3733.19,3731.12,3729.87,3728.55,3730.48,3735.57,3740.21,3744.41,3748.86,3750.2,3749.53,3746.24,3738.32,3715.72,3699.9,3689.34,3634.77,3578.48,3538.19,3479.15,3364.45,3177.02,2995.39,2867.74,2709.96,2614.71,2515.49,2442.6,2384.16,2362.37,2366.92,2318.5,2304.11,2293.16,2248.91,2158.39,2083.27,2040.43,1943.45,1859.93,1755.44,1682.21,1566.32,1476.52,1367.56,1277.23,1195.23,1145.52,1105.01,1085.24,1098.99,1160.19,1286.85,1478.13,1691.48,2016.79,2355.45,2733.48,3079.02,3333.56,3494.14,3566.73,3661.93,3697.15,3717.75,3735.63,3743.78,3751.55,3757.55,3761.24,3765.38,3767.56,3770.36,3774.67,3780.05,3786.35,3790.86,3794.05,3798.09,3801.13,3803.93,3806.23,3806.93,3808.74,3809.81,3810.21,3812.54,3812.89,3812.37,3809.67,3802.91,3796.8,3790.99,3781.88,3772.88,3757.15,3736.55,3699.52,3637.31,3571.15,3516.25,3469.32,3410.57,3376.34,3307.23,3306.55,3282.27,3301.22,3316.1,3329.45,3313.91,3308.01,3278.74,3282.7,3275.5,3262.52,3289.07,3295.83,3289.31,3308.07,3293.44,3347.67,3332.27,3335.22,3328.1,3323,3320.42,3360.92,3397.04,3457.05,3536.37,3589.07,3653.2,3702.31,3743.69,3760.75,3787.67,3797.81,3803.68,3809.01,3811.14,3810.93,3806.27,3799.03,3796.48,3794.3,3792.28,3791.81,3788.04,3782.43,3777.24,3770.57,3764.27,3758.8,3750.09,3742.1,3733.54,3726.19,3721.08,3713.47,3705.39,3692,3667.72,3656.33,3609.84,3542.22,3442.02,3278.91,3083.58,2872.11,2679.33,2482.25,2264.28,2080.03,1900.11,1745.87,1634.31,1530.66,1374.77,1246.02,1184.28,1106.46,955.116,763.323,616.908,455.247,301.185,194.312,125.884,83.713,67.021,55.537,49.187,50.586,61.411,72.96,105.364,149.783,186.104,246.412,309.478,379.823,465.61,496.226,454.35,437.367,394.881,430.702,369.146,584.988,336.68,504.4,977.67,1482.5,2109.52,2482.95,3182.42,3553.9,3701.04,3732.07,3742.23,3741.19,3738.49,3737.3,3735.61,3733.68,3730.47,3726.42,3721.76,3716.79,3709.38,3700.24,3688.98,3672.95,3661.4,3635.01,3624.71,3613.95,3602.24,3595.25,3584.84,3578.59,3570.02,3558.83,3543.8,3528.63,3477.69,3427.78,3376.59,3265.29,3209.33,3083.09,2992.43,2830.37,2725.4,2475.89,2281.5,2023.85,1802.99,1442.35,1145.24,882.526,727.55,518.949,432.957,391.956,441.152,474.777,535.865,642.384,827.064,1008.59,1352.19,1690.56,1935.42,2124.67,2143.96,2146.02,2167.38,2367.61,2742.4,3075.98,3311.48,3502.82,3600,3662.29,3684.25,3687.61,3683.72,3680.7,3675.05,3670.48,3666.87,3664.86,3663.64,3662.79,3662.72,3663.13,3661.44,3655.39,3648.8,3641.48,3634.14,3624.21,3612.25,3597.58,3582.31,3569.42,3557.58,3545.68,3538.03,3512.56,3251.41,1398.09,45.057,0,381.175,874.504,1194.59,1269.66,1421.75,1474.35,1550.33,1662.72,1836.42,1967.62,1969.96,1961.8,1954.47,1947.62,1940.21,1933.71,1930.72,1927.96,1923.96,1920.05,1916.2,1912.15,1882.12,1825.43,1892.88,1755.82,1694.79,1565.28,1773.82,1722.67,1506.64,1532.08,1488.73,1428.26,1356.9,1265.09,1102.52,943.305,706.02,489.317,358.859,260.782,208.865,188.016,157.171,171.55,184.952,302.098,422.605,538.576,683.73,1000.08,1298.09,1789.35,2309.41,2847.15,3321.34,3504.6,3564.72,3602.4,3620.94,3631.53,3640.93,3649.86,3661.08,3671.06,3680.27,3686.87,3690.88,3694.01,3698.66,3701.68,3703.76,3703.76,3702.18,3699.78,3698.02,3696.3,3691.86,3685.55,3678.28
3614.22,3652.3,3677.95,3700.29,3710,3720.09,3728.13,3733.29,3738.38,3741.65,3744.3,3745.61,3745.32,3745.53,3744.95,3743.38,3742.91,3742.67,3743.99,3748.85,3753.46,3756.5,3759.69,3760.45,3758.03,3751.44,3750.41,3731.58,3705.62,3702.48,3670.21,3614.17,3583.2,3525.86,3372.91,3226.02,3052.64,2922.42,2757.33,2639.11,2551.47,2481.44,2422.76,2495.53,2468.14,2472.66,2433.13,2382.2,2294.21,2144.97,2107.01,2058.43,1965.85,1799.95,1658.9,1516.39,1415.52,1302.64,1214.3,1146.81,1056.56,986.628,907.567,893.007,883.642,898.56,1033.58,1177.17,1327.58,1634.49,1995.57,2400.67,2870.15,3192.39,3372.59,3523.96,3620.54,3676.62,3720.66,3739.34,3751.93,3761.24,3767.36,3771.76,3776.75,3779.66,3783.61,3787.83,3793.27,3800.16,3804.75,3808.59,3812.63,3815.21,3818.18,3820.23,3821.54,3823.65,3824.1,3824.27,3825.74,3825.78,3825.06,3822.65,3815.77,3810.84,3804.68,3796.56,3787.42,3772.88,3752.08,3699.75,3634.39,3560.33,3476.57,3414.68,3369.61,3321.05,3284.58,3271.29,3268.2,3277.16,3256.37,3255.02,3253.46,3237.75,3201.77,3210,3217.43,3171.29,3229.75,3232.8,3247.92,3231.7,3243.29,3283.05,3273.32,3276.83,3254.5,3286.67,3266.74,3308.57,3363.84,3437.45,3509.15,3566.71,3654.67,3715.5,3758.21,3787.92,3807.83,3818.67,3825.63,3831.02,3833.11,3831.56,3826.96,3819.25,3816.27,3811.77,3809.43,3808.42,3804.32,3797.74,3792.59,3785.37,3779.54,3775.26,3767.94,3760.96,3753.74,3747.39,3743.6,3735.9,3728.68,3719.18,3694.82,3674.96,3621.05,3564.3,3496.05,3369.42,3156.25,2971.75,2788.83,2630.85,2445.9,2247.02,2089.62,1946.76,1856.33,1692.05,1571.18,1441.51,1322.3,1188.92,1084.42,932.96,852.57,717.6,525.704,393.303,279.065,224.172,191.484,148.835,152.04,150.283,152.998,225.686,268.012,342.014,420.974,525.457,588.13,677.232,786.763,860.269,971.839,1058.07,1217.07,1386.69,1504.8,1708.86,1655.05,2008.06,2706.27,3263.47,3559.32,3693.49,3730.23,3764.1,3775.77,3778.5,3777.61,3774.08,3769.05,3766.43,3763.67,3759.43,3754.85,3748.72,3742.19,3735.2,3726.25,3716.1,3703.22,3689.78,3677.07,3664.82,3653.99,3643.12,3631.07,3620.38,3610.26,3600.79,3593.18,3586.13,3577.24,3571.58,3562.05,3552.12,3536.11,3514.67,3493.18,3464.19,3453.79,3416.46,3363.74,3313.95,3157.02,3014.13,2779.34,2556.89,2369.61,2199.04,2066.76,2004.35,1957.23,2032.27,2132.95,2340.05,2583.5,2838.18,3037.3,3195.45,3353.35,3440.26,3546.61,3560.31,3587.82,3638.85,3665.74,3682.93,3715.04,3707.79,3723.87,3743.12,3739.92,3739.6,3731.58,3722.23,3713.19,3704.12,3701.3,3696.2,3692.08,3689.65,3688.83,3688.36,3689.46,3690.98,3689.51,3684.32,3676.6,3669.31,3661.12,3650.84,3638.17,3622.89,3606.94,3593.79,3582.77,3571.34,3564.34,3539.57,2948.73,798.745,20.807,0,291.188,1055.52,1170.44,1246.94,1317.55,1340.56,1448.69,1580.12,1790.66,1959.75,1972.27,1964.27,1956.61,1949.41,1941.77,1935.24,1932.09,1929.15,1925.17,1920.84,1917.06,1913.35,1881.6,1837.79,1893.41,1801.6,1725.19,1732.57,1848.77,1789.42,1566.61,1562.5,1534.07,1490.39,1392.74,1299.16,1167.86,1008.99,744.452,498.543,348.523,245.772,176.291,158.375,136.151,141.934,172.577,288.655,404.176,518.478,597.424,705.441,971.584,1333.32,1846.55,2468.02,2988.46,3427.56,3559.02,3595.46,3616.25,3633.27,3645.25,3657.69,3670.95,3683.11,3693.75,3701.71,3705.73,3709.25,3713.73,3716.31,3716.81,3715.13,3712.03,3707.5,3703.21,3699.03,3693.45,3685.41,3676.22
3609.33,3639.76,3662.52,3682.08,3697.19,3710.24,3722.26,3730.35,3738.08,3744.73,3750.19,3753,3755.1,3756.72,3757.28,3757.19,3757.89,3758.35,3759.53,3764.02,3766.81,3769.3,3771.67,3770.89,3767.84,3763.77,3754.91,3747.34,3727.87,3699.93,3670.31,3646.91,3618.46,3564.61,3461.67,3281.42,3065.73,2920.36,2816.1,2752.95,2663.65,2626.99,2589.24,2586.78,2592.54,2577.73,2523.79,2454.46,2327.77,2264.14,2132.65,2000.18,1874.88,1716.34,1559.53,1405.21,1256.11,1084.09,970.991,881.274,807.425,743.185,658.494,646.47,599.941,633.442,725.557,881.059,1073.32,1376.24,1731.25,2217.68,2658.84,3031.44,3300.17,3434.23,3557.8,3641.84,3708.28,3739.01,3757.49,3767.34,3775.27,3781.29,3786.56,3790.15,3794.68,3799.97,3805.6,3812.49,3817.62,3821.33,3825.42,3827.86,3830.65,3833.82,3835.18,3836.18,3835.74,3835.46,3836.63,3835.93,3834.66,3831.76,3825.3,3820.54,3814.3,3807.24,3798.04,3786.78,3765.81,3729.6,3663.47,3594.76,3520.24,3463.21,3407.55,3357.54,3314.92,3262.81,3241.86,3233.87,3224.67,3219.67,3222.75,3202.27,3191.25,3193.93,3212.41,3212.58,3220.98,3231.75,3228.88,3196.88,3257.39,3270.12,3246.31,3244.53,3265.59,3273.45,3288.57,3335.06,3382.34,3452.25,3513.83,3600.9,3647.68,3718.56,3762.51,3799.16,3823.5,3834.56,3841.08,3846.05,3848.53,3847.49,3842.41,3834.6,3831.43,3826.22,3823.39,3821.93,3817.73,3811.83,3807.19,3800.66,3794.98,3791.94,3785.29,3778.58,3772.4,3766.59,3763.42,3756.04,3748.72,3737.85,3711.89,3681.18,3614.53,3574.14,3496.15,3368.32,3219.05,3051.78,2823,2610.87,2425.79,2253.78,2118.91,1917.94,1781.22,1639.68,1501.8,1386.98,1296.9,1178.56,1028.78,906.924,823.523,714.738,591.811,477.795,377.145,281.923,229.634,218.825,192.913,189.005,243.082,293.591,324.171,375.183,433.866,472.68,525.771,588.846,670.627,754.702,845.459,967.075,1092.18,1331.21,1522.25,1805.08,1987.93,2399.17,3046.2,3431.85,3691.45,3751.41,3777.27,3790.35,3799.93,3803.28,3803.38,3798.84,3793.8,3790.42,3786.35,3781.05,3775.34,3768,3761.08,3752.48,3741.79,3730.92,3717.67,3703.1,3690.12,3676.02,3665.49,3654.51,3642.27,3631.46,3621.16,3612.39,3605.68,3599.24,3591.61,3576.28,3572.48,3552.87,3540.33,3505.97,3473.92,3444.94,3425.85,3395.85,3352.46,3302.68,3251.38,3172.91,3087.49,3067.9,3003.81,2998.07,2986.31,2931.34,3016.87,3079.25,3253.72,3322.93,3397.66,3461.26,3509.88,3561.02,3588.03,3634.54,3666.4,3687.48,3713,3733.67,3754.34,3773.95,3785.5,3792.11,3804.16,3800.6,3793.71,3784.82,3774.75,3763.95,3752.58,3742.41,3734.68,3727.32,3722.66,3719.92,3718.74,3719.33,3721.05,3722.11,3721.28,3714.93,3706.28,3698.35,3688.98,3677.17,3662.84,3646.23,3628.57,3614.29,3603.89,3592.89,3586.44,3558.77,2233.93,321.711,9.462,0,252.831,1119.64,1193.03,1241.31,1297.04,1337.81,1457.78,1589.69,1776.33,1954.26,1975.16,1967.27,1959.39,1951.92,1944.32,1937.8,1934.6,1931.36,1927.13,1922.42,1914.52,1912.98,1883.16,1862.23,1903.64,1830.34,1737.2,1804.45,1864.74,1842.71,1620.22,1611.04,1607.34,1574.22,1496.18,1377.79,1241.38,1064.66,784.231,518.324,351.105,231.031,168.567,144.327,144.597,169.069,208.049,316.791,425.273,528.171,609.818,689.379,818.604,1101.81,1518.92,2198.47,2767.88,3212.08,3528.03,3599.72,3625.68,3642.83,3657.21,3670.97,3686.36,3700.09,3711.88,3720.61,3725.28,3727.37,3731.05,3732.75,3731.65,3727.67,3722.56,3716.2,3709.49,3702.87,3695.81,3685.53,3675.81
3584.2,3620.74,3650.74,3668.11,3685.17,3701.44,3716.02,3728.1,3738.37,3747.41,3755.78,3760.62,3764.32,3768.64,3770.79,3772.32,3773.93,3774.77,3776.57,3781.07,3782.94,3784.01,3785.4,3783.44,3780.05,3774.65,3769.57,3761.18,3746.5,3725.61,3703.76,3684.2,3645.27,3567.55,3496.89,3356.48,3185.36,3063.59,2969.6,2885.66,2849.05,2779.19,2711.47,2641.39,2644.91,2623.95,2569.39,2540.09,2445,2333.23,2216.6,2040.1,1872.78,1669.63,1487.48,1294.24,1119.9,937.844,790.634,664.548,597.02,532.974,484.448,433.575,432.714,500.724,565.236,665.012,839.123,1128.08,1535.83,1988.28,2460.1,2845.97,3197.43,3337.16,3456.8,3582.4,3658.06,3729.19,3755.57,3771.01,3780.28,3788.11,3795.1,3798.81,3804.61,3810.1,3816.49,3822.82,3828.6,3832.85,3835.62,3838.64,3841.5,3843.93,3844.43,3846.12,3845.59,3844.19,3845.1,3844.17,3842.16,3839.22,3833.4,3828.57,3822.35,3815.82,3806.97,3794.9,3767.84,3741.72,3678.01,3618.86,3552.66,3463.97,3433.99,3361.7,3309.99,3298,3282.59,3257.57,3239.85,3224.56,3246.8,3219.12,3209.67,3185.02,3190.78,3186.99,3184.75,3175.75,3195.58,3189.15,3197.24,3215.74,3213.86,3203.21,3206.58,3153.66,3164.05,3240.71,3275.27,3375.42,3469.33,3531.73,3632.53,3706.56,3757.47,3809.17,3832.96,3844.7,3851,3856.28,3857.43,3856.65,3851.36,3844.84,3841.79,3837.06,3834.39,3833.65,3830.08,3824.51,3821.15,3816.23,3812.34,3809.1,3803.47,3798.24,3792.35,3788.04,3785.45,3777.79,3769.46,3758.42,3734.44,3706.29,3655.91,3608.36,3519.56,3377.91,3219.98,3110.08,2847.03,2627.37,2415.8,2296.75,2138.69,1941.93,1771.21,1643.81,1510.94,1397.01,1312.65,1199.74,1053.57,934.988,837.231,739.455,651.889,559.105,487.874,396.567,354.263,326.7,301.539,323.35,344.56,380.754,390.242,416.393,437.076,479.76,536.498,595.339,680.697,765.789,834.687,974.033,1125.04,1344.75,1577.58,1914.47,2299.51,2701.75,3191.38,3546.16,3728.14,3763.07,3790.11,3805.58,3816.27,3822.23,3823.54,3819.26,3814.54,3811.32,3806.48,3801.69,3795.07,3786.67,3778.97,3769.38,3759.17,3746.62,3732.36,3715.94,3702.59,3688.07,3676.98,3665.96,3652.42,3641.3,3630.76,3621.89,3614.56,3601.14,3594.96,3576.72,3570.22,3555.93,3534.87,3489.84,3451.97,3410.92,3372.29,3340.11,3304.58,3282.31,3266.3,3195.5,3194.28,3135.66,3107.48,3136.34,3182.48,3197.93,3258.45,3333.29,3402,3432.32,3482.35,3540.43,3566.59,3587.75,3630.79,3668.35,3690.54,3714.61,3740.9,3782.11,3801.58,3823.36,3831.98,3835.31,3841.46,3839.16,3836.28,3827.42,3816.43,3803.99,3791.97,3779.68,3769.84,3762.15,3756.86,3753.02,3752.12,3752.75,3754.5,3755.8,3754.9,3747.39,3736.9,3727.57,3716.71,3702.24,3685.85,3666.71,3647.09,3631.01,3620,3609.74,3603.62,3564.93,1254.76,108.779,3.158,0,188.662,1140.79,1239.23,1260.32,1302.85,1303.86,1426.19,1616.72,1787.98,1960.67,1978.33,1970.62,1962.68,1955,1947.22,1941,1937.39,1933.83,1929.51,1924.36,1918.31,1916.73,1883.03,1871.42,1904.5,1842.8,1741.89,1825.88,1880.47,1867.01,1640.86,1628.88,1614.31,1603.76,1519.22,1419.54,1285.06,1121.7,814.148,525.882,327.503,189.931,150.018,151.551,143.11,176.021,212.805,329.317,410.136,508.746,636.87,687.785,794.129,945.102,1329.23,1931.66,2633.6,3126.01,3447.81,3615.41,3640.6,3658.99,3675.86,3691.72,3707.02,3722.46,3734.78,3743.4,3747.55,3750,3752.02,3751.76,3748.5,3742.52,3735.08,3725.84,3717.03,3708.43,3698.94,3688.45,3676.92
3583,3610.97,3641.64,3662.97,3679.45,3698.38,3714.91,3730.06,3742.61,3754.53,3764.77,3771.1,3777.17,3782.72,3786.42,3788.7,3791.47,3793.89,3796.31,3799.73,3801.09,3801.36,3801.35,3798.99,3795.66,3789.68,3784.11,3776.22,3764.96,3752.95,3736.04,3712.69,3691.46,3650.13,3586.76,3463.17,3371.51,3277.9,3247.63,3137.79,3136.03,3111.59,3067.14,2977.65,2931.59,2872,2828.58,2727.38,2674.19,2598.7,2473.89,2325.2,2119.34,1908.98,1744.86,1558.1,1346.83,1152.51,984.245,846.534,705.465,634.132,570.133,562.649,572.023,592.911,700.4,816.52,1025.34,1350.5,1755.56,2226.78,2622.06,2962.9,3242.21,3392.91,3501.69,3586.16,3678.59,3737.67,3763.67,3777.22,3787,3795.77,3803.6,3808.51,3814.51,3820.63,3826.29,3832.99,3838.73,3843.09,3845.82,3848.89,3851.23,3853.04,3853.77,3855.19,3853.89,3852.2,3852,3851.01,3847.77,3844.41,3839.26,3834.1,3827.21,3819.81,3811.42,3799.47,3774.83,3733.03,3679.52,3624.94,3564.88,3537.15,3477.92,3432.71,3395.38,3370,3323.15,3321.58,3305.5,3289.16,3280.77,3257.35,3226.07,3190.41,3192.95,3191.75,3218.11,3205.5,3207.53,3161.63,3151.39,3133.1,3089.5,3097.54,3074.05,3075.76,3052.49,3113.38,3185.02,3276.13,3361.48,3456.06,3579.53,3693.19,3757.05,3805.07,3837.06,3847.82,3853.93,3858.76,3861.16,3861.4,3857.9,3851.5,3849.26,3845.56,3844.38,3844.72,3841.93,3837.82,3835.82,3831.19,3828.44,3826.29,3820.84,3816.32,3810.81,3805.88,3802.64,3795.1,3786.06,3774.21,3749.26,3731.44,3672.91,3612.16,3516.14,3392.72,3220.48,3037.39,2800.33,2651.78,2467.85,2278.22,2131.38,1927.58,1781.04,1636.51,1508.64,1391.56,1305.92,1202.98,1042.31,926.289,849.806,752.529,670.761,586.32,529.794,454.161,422.384,404.462,392.547,394.702,408.537,420.923,415.892,437.04,443.327,486.247,550.079,609.237,690.741,773.253,849.636,966.922,1130.06,1371.57,1652.49,1990.49,2447.24,2845.3,3302.55,3616.18,3750.59,3771.11,3799.1,3815.55,3827.85,3835.6,3839.04,3835.56,3831.22,3829.32,3824.78,3820.55,3813.45,3804.24,3795.52,3785.7,3773.62,3761.46,3745.8,3729.5,3714.39,3699.14,3687.77,3676.35,3662.07,3650.46,3638.81,3629.47,3615.92,3587.36,3582.08,3564.23,3528.24,3505.87,3491.01,3459.33,3412.05,3346.93,3322.77,3309.06,3284.29,3260.54,3191.86,3137.21,3126.73,3110.24,3124.31,3138.68,3184.98,3250.64,3301.06,3360.92,3433.9,3467.29,3507.53,3537.83,3579.09,3607.33,3650.75,3681.19,3701.75,3744.34,3772.22,3804.26,3829.65,3851.73,3862.61,3870.81,3877.64,3876.39,3871.25,3863.82,3853.82,3841.08,3827.45,3815.67,3807.17,3799.29,3794.65,3791.39,3790.08,3790.55,3792.34,3793.3,3790.79,3781.26,3768.79,3757.28,3743.43,3726.04,3707.14,3685.36,3663.38,3644.68,3632.46,3622.03,3614.68,3568.31,619.202,32.342,0,0,116.015,1144.85,1238.64,1272.25,1329.37,1355.69,1449.46,1669.36,1821.13,1966.73,1980.75,1973.44,1965.45,1957.51,1949.74,1943.44,1939.8,1935.99,1931.46,1926.12,1910.18,1912.52,1880.73,1868.73,1903.25,1808.79,1738.55,1792.28,1878.75,1859.63,1625,1602.74,1611.38,1576.77,1508.39,1415.62,1289.11,1111.37,792.133,486.29,272.59,162.34,135.287,158.409,151.291,172.173,199.623,288.341,378.158,492.844,576.311,675.682,791.838,889.774,1093.16,1703.08,2459.52,3069.96,3402.55,3611.95,3658.8,3685.94,3702.89,3718.18,3734.23,3749.45,3761.96,3769.58,3773.51,3774.78,3774.43,3772.27,3766.74,3758.35,3748.81,3737.03,3726.38,3716.3,3705.79,3694.53,3682.27
3548.16,3609.04,3630.7,3649.65,3679.38,3699.81,3719.39,3734.59,3749.84,3763.08,3774.55,3783.38,3790.21,3796.64,3801.61,3805.15,3808.97,3811.37,3814.44,3817.53,3818.74,3818,3817.3,3815.57,3810.73,3805.79,3800.72,3792.97,3783.23,3773.34,3760.83,3742.9,3722.76,3690.15,3626.2,3550.2,3498.9,3409.67,3348.35,3322.01,3296.25,3290.04,3255.42,3198.22,3195.62,3130.45,3073.16,2990.9,2926.55,2856.7,2748.7,2622.59,2450.56,2258.44,2052.29,1855,1699.16,1468.79,1278.97,1098.28,920.251,786.028,724.229,711.354,728.471,759.185,892.1,1064.54,1305.97,1635.24,2035.49,2488.24,2824.99,3061.96,3364.64,3459.41,3551.67,3602.81,3686.62,3743.09,3770.37,3785.03,3795.83,3805.84,3814.49,3819.58,3825.38,3831.87,3837.96,3844.31,3849.17,3853.94,3857.2,3860.15,3862.35,3864.86,3865.36,3866.38,3865.53,3863.07,3862.05,3860.68,3856.56,3852.65,3846.39,3840.5,3832.19,3823.65,3815.43,3798.13,3779.93,3744.05,3716.8,3677.31,3624.32,3554.08,3500.15,3436.08,3414.3,3390.09,3364.74,3333.37,3301.24,3276.09,3278.57,3245.32,3228.89,3206.4,3197.32,3185.43,3188.18,3161.01,3145.39,3089.08,3016,3014.21,2971.09,2945.38,2954.68,2956.47,2956.87,2955.21,3002.15,3052.3,3171.11,3307.59,3461.34,3582.44,3708.33,3795.06,3831.16,3846.95,3853.42,3859.82,3863.16,3864.29,3862.7,3857.45,3857.31,3854.73,3854.73,3855.22,3854,3851.62,3849.44,3846.2,3844.11,3842.81,3837.12,3833.24,3827.03,3820.83,3816.28,3807.44,3797.18,3780.99,3755.88,3723.29,3656.51,3593.94,3525.51,3378.12,3148.24,2970.87,2730.27,2546.46,2382.39,2194.23,2066.21,1898.28,1744.19,1589.66,1437.97,1351.73,1273.29,1163.13,1011.38,902.457,837.601,779.097,683.828,628.708,543.247,476.858,451.223,432.615,437.885,416.208,423.272,424.368,419.884,441.3,461.895,471.679,535.895,593.611,660.076,758.143,831.443,935.435,1094.54,1366.85,1663.33,2040.22,2486.39,2959.01,3407.16,3654.45,3767.17,3787.84,3811.69,3827.9,3840.09,3848.36,3850.74,3848.09,3845.33,3842.77,3839.59,3835.41,3828.22,3818.45,3809.42,3798.68,3787.16,3774.45,3758.34,3741.23,3725.91,3710.6,3698.76,3686.36,3672,3658.69,3646.09,3632.95,3607.97,3589.82,3559.77,3537.75,3519.45,3482.27,3441.24,3394.97,3362.04,3292.02,3280.13,3278.71,3202.84,3151.04,3148.78,3139.65,3135.6,3118.32,3169.44,3193.79,3252.05,3284.67,3334.27,3416.62,3461.65,3482.84,3499.7,3534.25,3580.14,3621.57,3661.87,3685.2,3714.44,3758.1,3780.34,3821.75,3841.24,3868.93,3880.49,3891.62,3900.08,3900.41,3898.35,3892.54,3883.55,3873.72,3861.94,3851.57,3844.51,3838.25,3834.76,3831.32,3830.02,3830.51,3831.2,3831.24,3827.82,3816.69,3801.89,3786.88,3769.45,3749.12,3726.63,3701.88,3676.86,3655.59,3640.38,3629.23,3620.68,3587.33,466.713,23.985,0,0,104.3,1116.05,1218.37,1311.8,1367.72,1441.71,1519.06,1725.58,1850.17,1974.44,1983.34,1976.19,1968.18,1959.95,1952.32,1946.53,1942.73,1938.44,1933.92,1928.08,1906.12,1919.8,1868.52,1863.6,1901.32,1805.26,1664.62,1747.45,1856,1821.63,1543.96,1545.53,1552.16,1536.19,1452.57,1369.28,1250.92,1040.03,703.324,405.024,240.196,164.548,138.561,178.562,168.884,176.641,213.596,298.907,367.594,468.139,584.266,703.165,891.582,1040.85,1239.28,1748.53,2489.97,3153.28,3521.14,3653.18,3699.39,3720.81,3737.25,3751.2,3767.22,3780.89,3791.82,3798.42,3801.46,3801.4,3799.18,3794.5,3786.53,3776.3,3764.54,3751.1,3739.05,3726.83,3714.9,3702.05,3688.93
3485.96,3559.97,3597.19,3633.34,3650.8,3691.88,3722.16,3740.11,3755.97,3770.81,3783.37,3793.54,3802.42,3810.56,3815.97,3820.18,3824.16,3827.69,3830.9,3833.6,3834.7,3834.26,3832.89,3830.15,3827.32,3822.86,3817.87,3811.61,3803.8,3794.96,3784.45,3772.1,3749.97,3726.16,3685.26,3623.49,3577.52,3534.97,3508.07,3464,3438.33,3390.41,3340.76,3297.29,3271.71,3242.15,3185.82,3137.24,3102.96,3021.49,2938.73,2854.03,2736.43,2590.2,2402.11,2190.11,2077.75,1882.13,1763.59,1563.34,1360.22,1181.02,1037,989.829,1009.68,1098.1,1216.55,1421.96,1670.22,1991.58,2318.21,2728.87,3007.14,3238.97,3418.78,3552.34,3616.18,3671.65,3716.05,3759.31,3778.57,3797.35,3808.74,3818.94,3826.92,3832.06,3836.99,3843.17,3849.68,3855.74,3860.48,3865.39,3868.26,3871.36,3874.76,3877.6,3877.66,3879.55,3878.64,3876.2,3874.75,3871.71,3868.01,3862.96,3856.76,3851.16,3841.38,3832.25,3821.67,3804.42,3785.16,3761.66,3735.17,3701.29,3657.45,3606.38,3542.68,3500.38,3475.62,3457.05,3444.1,3410.7,3367.88,3334,3293.25,3254.27,3253.87,3265.98,3255.42,3222.28,3243.6,3185.56,3146.84,3072.04,3004.47,2942.6,2862.93,2836.32,2840.54,2866.47,2820.55,2850.95,2847.03,2888.55,2956.92,3140.1,3323.73,3509.07,3645.7,3779.06,3827.23,3845.04,3853.29,3861.12,3866.42,3868.84,3869.47,3866.55,3866.85,3866.38,3866.49,3868.29,3867.26,3865.01,3863.64,3860,3857.62,3856.58,3850.82,3846.13,3839.18,3831.19,3825.66,3814.28,3803.05,3789.63,3759.83,3711.65,3659.48,3572.97,3390.77,3143.67,2930.24,2603.14,2351.87,2098.82,1916.49,1746.51,1623.69,1459.45,1336.42,1217.11,1114.24,1013.09,939.869,876.222,793.077,734.273,695.453,658.348,610.097,596.142,579.323,504.24,470.388,451.129,404.587,384.12,411.382,396.064,386.887,404.992,416.485,426.744,415.376,432.664,469.868,493.206,522.299,570.596,698.925,959.578,1242.55,1723.2,2041.38,2558.44,3116.28,3545.3,3693.94,3790.22,3819.41,3837.4,3848.24,3856.18,3858.07,3855.57,3853.81,3851.99,3848.78,3846.26,3839.38,3828.87,3819.76,3809.75,3798.64,3786.2,3770.41,3752.76,3736.74,3721.64,3708.45,3695.2,3679.48,3665.56,3647.35,3622.65,3586.13,3557.97,3521.09,3507.23,3484.57,3455.51,3411.56,3354.12,3308.19,3252.03,3220,3189.2,3187.24,3124.48,3126.54,3092.95,3130.27,3179.23,3188.2,3241.78,3263.18,3287.86,3381.69,3385.45,3439.94,3470.46,3492.6,3532.98,3563.44,3626.5,3659.36,3698,3725.49,3765.36,3793.73,3827.7,3858.71,3882.93,3898.76,3905.96,3915.46,3918.3,3918.01,3915.26,3910.47,3903.07,3894.4,3886.44,3881.56,3877.19,3874.02,3871.88,3870.43,3870.14,3869.85,3868.68,3863.62,3850.33,3832.66,3815.18,3793.8,3770.31,3744.32,3716.72,3688.67,3663.89,3645.81,3633.54,3623.46,3592.34,738.744,13.372,0,0,118.17,1058.53,1174.25,1317.2,1412.08,1529.83,1642.16,1808.9,1877.78,1973.05,1984.77,1978.23,1970.7,1962.54,1955.03,1949.48,1945.76,1941.16,1936.41,1928.31,1892.6,1915.43,1853.94,1837.29,1901.36,1784.31,1623.34,1801.67,1838.22,1775.76,1411.93,1441.51,1478.37,1426.95,1346.42,1242.89,1132.98,913.995,588.412,346.273,184.908,146.284,129.51,153.428,143.701,160.858,197.225,255.081,312.213,439.405,538.891,724.878,933.081,1217.19,1508.18,2002.18,2671.9,3282.45,3611.76,3707.8,3744.35,3760.3,3775.29,3787.35,3800.91,3813.34,3822.49,3827.35,3828.44,3826.25,3821.9,3815.16,3804.67,3792.25,3779.07,3764.91,3751.42,3738.11,3724.29,3710.35,3696.99
3423.62,3476.86,3538.94,3605.07,3634.56,3672.42,3714.88,3740.43,3761.5,3777.57,3791.43,3802.93,3812.5,3821.41,3828.34,3833.1,3837.69,3841.75,3845.19,3848.38,3849.26,3848.53,3847.49,3845.84,3842.55,3839.35,3835.55,3830.29,3823.88,3816.57,3808.22,3797.35,3781.22,3762.79,3734.48,3701.69,3634.07,3618.93,3582.22,3539.63,3509.09,3467.49,3424.84,3370.11,3319.6,3291.71,3261.2,3203.52,3163.23,3121.18,3067.47,3008.22,2937.83,2809.33,2701.38,2602.1,2501.39,2394.53,2308.82,2202.63,2052.21,1860.71,1769.01,1717.66,1736.24,1825.1,1925.68,2082.71,2228.43,2478.47,2768.52,3015.12,3231,3404.63,3518.16,3590.89,3646.87,3694.86,3741.27,3776.31,3796.84,3811.77,3823.32,3832.46,3840.26,3845.54,3849.76,3856.11,3861.44,3867.67,3871.64,3877.61,3881.31,3884.47,3888.01,3890.68,3892.27,3893.98,3893.46,3891.83,3889.91,3887.27,3883.03,3878.45,3872.29,3866.04,3855.68,3845.82,3833.04,3818.66,3798.19,3773.82,3743.16,3706.79,3665.78,3628.13,3587.81,3556.97,3547.76,3512.48,3473.48,3452.09,3415.74,3395.1,3359.94,3347.94,3321.68,3309.68,3318.87,3344.08,3333.44,3298.84,3244.24,3181.96,3119.35,3101.55,3032.07,3027.47,2943.77,2912.95,2880.85,2917.93,2930.27,2959.17,2984.74,3105.54,3358.45,3551.97,3668.74,3788.43,3826.63,3846.09,3856.44,3866.18,3873.19,3878,3879.34,3877.53,3879.1,3879.13,3879.36,3881.56,3880.83,3879.42,3877.51,3873.95,3870.67,3869.11,3862.51,3858.15,3848.37,3839.27,3831.21,3818.72,3801.35,3785.96,3732.74,3682.37,3559.89,3377.69,3143.22,2876.73,2453.56,2061.11,1742.78,1423.52,1237.68,1030.73,914.619,861.363,806.969,714.308,638.726,549.27,514.66,465.607,460.325,428.977,410.523,417.134,458.483,441.669,466.087,504.427,478.69,450.49,395.319,354.713,332.592,291.036,280.295,289.881,256.536,205.503,203.509,212.805,226.866,229.818,235.284,275.243,357.99,481.9,652.674,1048.47,1248.94,1703.56,2350.24,2932.43,3488.93,3729.09,3813.52,3844.98,3854.41,3861.62,3862.24,3859.77,3859.95,3859.24,3857.16,3855.58,3847.88,3838.45,3829.65,3819.18,3808.66,3797.16,3781.22,3762.74,3745.65,3729.4,3715.73,3700.71,3684.04,3665.31,3637.9,3619.43,3592.72,3548.46,3513.94,3503.86,3471.9,3417.78,3362.21,3328.58,3228.45,3216.73,3193.36,3182.84,3145.61,3113.54,3109.4,3103.68,3132.67,3110.95,3149.36,3221.43,3273.23,3320.01,3378.87,3394.14,3423.6,3434.31,3471.54,3513.36,3558.73,3597.17,3651.69,3700.92,3732.7,3764.34,3803.87,3833.22,3856.61,3883.5,3899.06,3910.27,3916.36,3921.06,3924.37,3925.47,3923.25,3920.01,3914.86,3910.39,3909.03,3907.12,3906.48,3905.26,3904.56,3904.64,3903.37,3901.38,3894.95,3880.12,3859.99,3839.42,3815.89,3789.09,3760.25,3729.58,3699.1,3670.09,3649.3,3635.21,3620.44,3595,1820.66,94.963,0,0,221.499,846.459,1191.27,1356.12,1450.1,1615.02,1708.18,1871.53,1884.85,1976.81,1985.59,1979.76,1972.94,1965.03,1957.95,1953.11,1949.3,1944.19,1939.46,1931.48,1887.4,1920.67,1852.72,1827.66,1897.23,1791.3,1531.64,1803.39,1780.23,1682.8,1333.21,1309.54,1370.87,1279.91,1206.2,1107.74,976.996,800.452,514.201,247.588,155.828,127.278,131.127,142.478,145.925,169.277,176.336,248.419,316.329,401.878,497.313,696.144,911.225,1193.9,1580.24,2081.28,2783.96,3311.22,3622.14,3758.26,3787.84,3802.28,3815.18,3825.52,3836.95,3846.85,3853.06,3855.86,3855.17,3850.76,3844.67,3834.57,3822.33,3808.09,3794.27,3778.74,3764.2,3750.29,3735.42,3721.5,3707.89
3355.75,3422.43,3469.18,3553.73,3612.27,3648.84,3702.58,3742.77,3764.68,3781.03,3795.92,3809.06,3819.89,3830.13,3837.63,3843.62,3848.63,3853.14,3856.66,3860.29,3862.06,3862.2,3861.2,3859.57,3857.77,3855.07,3853.26,3849.6,3844.96,3839.43,3832.96,3824.53,3813.4,3797.21,3778.13,3754.14,3714.81,3679.64,3644.21,3611.01,3571.15,3534.95,3486.37,3414.84,3358.55,3297.09,3269.03,3199.21,3179.95,3106.94,3071.67,3049.71,3011.28,2916.54,2840.43,2739.93,2666.9,2613.73,2525.49,2480.41,2387.82,2309.13,2284.38,2202.03,2261.78,2274.89,2351.18,2454.78,2651.02,2818.28,3029.1,3212.35,3357.64,3486.71,3549.32,3615.2,3656.23,3715.51,3747.41,3787.23,3812.27,3827.38,3838.78,3847.82,3855.29,3860.65,3864.18,3869.76,3874.72,3880.2,3884.22,3890.14,3894.35,3898.01,3902.27,3905.69,3907.32,3909.89,3909.72,3908.14,3906.18,3903.84,3900.31,3895.09,3889.8,3883.15,3872.1,3861.05,3848.11,3832.84,3811.57,3784,3762.94,3723.51,3696.88,3661.3,3647.98,3607.58,3578.64,3555.34,3537.76,3496.57,3484.25,3448.55,3428.7,3405.9,3389.73,3391.33,3393.6,3366.06,3367.14,3378.4,3378.36,3356.66,3311.06,3303.57,3259.78,3208.86,3198.86,3129.65,3073.32,3094.13,3098.21,3120.61,3145.21,3312.19,3504.9,3633.77,3742.25,3797.18,3830.08,3851.3,3863.2,3875.46,3883.02,3888.95,3892.04,3890.68,3892.32,3893.25,3894.87,3897.28,3896.34,3895.07,3892.26,3888.52,3885.68,3882.38,3875.72,3869.72,3859.84,3848.8,3838.62,3820.44,3801.26,3773.06,3716.05,3581.89,3337.48,2984.22,2580.48,2092.72,1595.62,1126.14,840.622,640.926,499.945,403.467,303.736,271.423,252.875,206.393,157.177,124.008,124.622,110.106,101.262,97.793,114.527,146.935,162.227,162.977,197.565,226.334,251.209,247.517,215.047,172.949,94.951,76.033,40.693,37.927,35.324,28.542,28.258,31.316,26.652,25.269,40.05,49.486,60.63,113.12,164.894,292.663,401.718,709.219,1287.97,2005.53,2904.34,3546.53,3798.48,3855.55,3863.07,3869.2,3869.6,3866.98,3868.56,3868.38,3867.03,3865.53,3858.38,3848.29,3839.72,3829.42,3818.65,3807.22,3790.78,3771.2,3752.89,3736.14,3721.26,3704.06,3686.01,3664.65,3638.36,3623.1,3593.68,3541.68,3515.91,3475.14,3456.81,3420.15,3348.33,3295.24,3216.63,3156.76,3158.09,3157.21,3133.26,3071.61,3075.42,3082.41,3130.55,3129.77,3195.87,3260.13,3303.82,3336.82,3370.41,3419.93,3418.22,3438.3,3462.1,3519.36,3550.62,3585.24,3641.67,3690.76,3717.75,3767.06,3800.23,3833.25,3855.29,3873.7,3889.51,3900.06,3907.24,3912.51,3918.57,3922,3923.77,3924.31,3924.07,3924.69,3926.41,3928.32,3930.18,3931.25,3931.07,3931.54,3929.89,3926.51,3919.11,3902.33,3881.15,3857.81,3832.14,3802.79,3771.68,3738.58,3705.29,3674.6,3651.54,3637,3623.97,3611.82,3005.81,318.623,3.519,0,214.047,593.844,1158.11,1314.07,1514.68,1700.34,1766.96,1898.46,1906.97,1981.59,1985.22,1980.19,1974.38,1967.06,1960.71,1956.42,1952.5,1947.04,1942.12,1935.74,1906.6,1925.79,1877.96,1859.85,1903.73,1811.32,1555.31,1790.35,1634.36,1566.3,1234.92,1236.81,1295.72,1217.4,1161.37,1035.71,905.62,711.022,481.275,269.335,176.565,143.149,147.088,165.524,173.239,227.482,280.29,373.863,521.864,644.641,821.06,1109.8,1475.14,1825.7,2322,2866.08,3410.01,3685.72,3771.71,3815.8,3831.67,3844.06,3853.27,3861.92,3870.55,3877.74,3880.66,3880.8,3877.31,3871.57,3862.68,3850.44,3836.27,3820.88,3806.47,3790.52,3775.69,3760.89,3746,3732.2,3718.91
3248.56,3328.12,3423.67,3494.26,3591.06,3631.46,3690.54,3731.26,3762.94,3779.37,3798.39,3811.38,3823.34,3835.15,3843.36,3849.91,3855.95,3861.1,3865.59,3870,3872.46,3873.07,3873.14,3872.42,3871.63,3870.87,3870.42,3868.33,3865.85,3862.31,3858.13,3850.85,3842.28,3831.52,3814.69,3792.03,3767.57,3718.79,3705.18,3669.35,3619.15,3561.32,3491.43,3411.33,3383.09,3299.1,3267.38,3213.32,3149.98,3127.03,3103.77,3049.23,2993.19,2930.44,2844.64,2809.74,2745.99,2692.99,2623.99,2590.57,2538.61,2518.34,2461.08,2443.7,2485.17,2504.69,2539.6,2597.84,2701.16,2840.16,3022.7,3220.99,3356.43,3456.31,3535.53,3571.74,3643.8,3694.95,3763.16,3792.96,3823.01,3838.51,3851.26,3860.92,3868.22,3873.86,3878.01,3882.96,3888.03,3893.07,3897.77,3903.14,3907.88,3912.49,3917.29,3920.6,3922.93,3925.67,3925.77,3924.9,3923.4,3921.3,3917.95,3913.13,3907.94,3901.62,3890.51,3878.87,3865.08,3849.26,3824.96,3806.81,3778.91,3754.48,3716.75,3688.81,3662.19,3633.02,3611.12,3578.52,3549.43,3520.02,3513.54,3483.72,3455.17,3426.86,3419.01,3416.11,3402.9,3400.25,3416.79,3413.86,3421.67,3407.98,3405.06,3402.53,3389.32,3350.25,3347.12,3268.41,3192.86,3167.76,3153.69,3239.63,3288.63,3377.67,3547.67,3671.77,3758.02,3810.28,3840.7,3862.77,3875.95,3888.59,3897.32,3903.81,3907.36,3906.29,3907.71,3908.98,3910.39,3912.31,3912.66,3910.66,3907.7,3903.35,3899.36,3896.51,3889.6,3883.2,3871.81,3859.68,3848.44,3832.69,3810.88,3769.6,3700.27,3531.39,3255.63,2821.52,2347.47,1765.21,1217.04,794.073,566.067,371.023,253.679,210.118,175.325,143.149,114.797,75.1,63.306,53.853,46.65,34.959,38.49,45.874,51.849,76.939,97.561,123.765,133.691,165.459,184.149,207.864,183.909,109.657,77.688,49.787,27.234,30.335,20.124,17.841,9.337,13.819,11.84,15.148,14.715,21.285,32.82,47.636,54.781,103.588,153.463,338.366,789.154,1493.95,2493.17,3409.64,3802.41,3868.42,3874.49,3880,3878.82,3878.05,3879.95,3879.9,3878.78,3877.87,3869.52,3860.34,3851.55,3841.25,3829.74,3818.81,3800.69,3780.4,3759.67,3741.44,3724.74,3705.98,3686.19,3663.5,3639.35,3607.72,3592.8,3546.34,3512.28,3496.72,3443.11,3422.06,3372.35,3267.59,3234.71,3178.88,3179.26,3156.16,3128.54,3086.44,3067.63,3121.2,3148.45,3176.97,3253.6,3296.58,3355.9,3389.77,3387.5,3422.73,3443.31,3458.26,3470.24,3524.15,3546.01,3608.12,3652.35,3678.45,3727.82,3756.73,3793.03,3821.31,3842.35,3860.53,3875.04,3885.52,3892.94,3899.79,3907.05,3912.74,3917.27,3921.11,3925.61,3930.64,3936.5,3942.2,3945.9,3948.26,3949.21,3949.88,3948.11,3944.2,3934.84,3918.34,3894.85,3871.73,3843.88,3813.32,3780.87,3747.73,3712.81,3681.31,3657.74,3643.59,3630.57,3618.84,3512.11,551.439,61.971,9.484,189.755,469.018,1114.09,1294.04,1531.39,1738.79,1843.47,1925.05,1918.54,1981.61,1984.16,1979.65,1974.71,1968.75,1963.05,1959.2,1955.4,1949.41,1944.42,1936.17,1912.13,1926.61,1891.34,1884.21,1904.79,1831.33,1619.1,1799.77,1532.17,1472.85,1129.39,1089.65,1155.43,1132.96,1021.3,910.047,794.432,627.316,452.83,265.156,181.511,169.628,167.738,183.527,187.867,257.355,337.831,467.954,611.634,786.479,987.812,1349.11,1770.05,2173.19,2660.09,3255.45,3640.44,3783.26,3837.36,3861.46,3872.57,3881.44,3889.17,3895.99,3901.46,3905.25,3906.16,3903.63,3898.21,3889.59,3878.56,3865.03,3848.98,3833.24,3818.03,3801.45,3786.29,3771.31,3756.46,3743.69,3731.76
3122.63,3199.4,3269.32,3369.77,3476.68,3570.94,3657.66,3713.53,3752.34,3779.3,3798.54,3812.48,3825.54,3836.77,3846.45,3853.34,3860.64,3866.35,3871.4,3876.5,3881.25,3882.59,3883.41,3883.36,3884.22,3885.41,3886.33,3885.63,3884.56,3882.78,3880.08,3875.6,3868.65,3859.9,3848.58,3834.41,3802.34,3776.31,3751.54,3705.77,3677.48,3627.2,3563.57,3478.28,3408.74,3339.12,3256.26,3231.94,3162.98,3130.66,3095.93,3066.89,2995.89,2948.65,2889.23,2805.77,2753.51,2739.68,2660.82,2657.21,2628.88,2591.58,2580.91,2581.65,2624.59,2653.18,2678.94,2723.76,2811.8,2968.26,3133.33,3249.73,3381.84,3446.71,3499.71,3579.16,3621.92,3697.67,3737.5,3790.09,3825.08,3845.96,3859.66,3870.06,3877.89,3884.27,3888.73,3894.05,3899.66,3904.48,3909.57,3915.08,3920.27,3925.98,3930.93,3934.87,3938.03,3941,3942.41,3941.62,3940.05,3938.99,3935.75,3931.41,3927.46,3921.15,3910.71,3898.33,3883.91,3868.32,3844.13,3829.98,3802.75,3770.38,3740.92,3703.24,3684.82,3656.18,3628.51,3593.02,3562.84,3533.33,3504.17,3503.14,3479.61,3475.85,3448.47,3429.47,3445.03,3426.46,3445.59,3467.44,3453.12,3461.66,3474.81,3490.82,3500.36,3519.87,3510.99,3449.15,3467.23,3456.53,3462.53,3514.62,3542.29,3610.8,3688.62,3740.74,3783.74,3830.85,3854.51,3878.9,3892.86,3906.26,3915.42,3922.22,3925.5,3923.92,3925.09,3926.89,3928.27,3930.51,3930.16,3927.88,3924.11,3919.13,3914.54,3911.14,3903.26,3896.26,3885.06,3871.68,3860.04,3843.28,3817.41,3794.56,3704.98,3560.8,3288.62,2894.5,2457.89,1857.72,1319.47,890.819,595.841,408.421,272.716,221.304,174.161,138.765,116.746,86.942,60.557,43.241,39.689,39.207,42.233,49.503,46.043,73.439,122.776,152.355,203.81,204.591,237.463,242.528,197.745,151.073,99.064,53.239,32.085,30.706,20.781,24.519,21.52,17.124,16.8,23.232,22.379,22.379,18.714,32.801,59.881,120.558,144.357,301.956,804.245,1560.04,2649.42,3500.93,3837.9,3885.58,3889.47,3893.44,3892.57,3891.34,3892.64,3893.31,3891.94,3890.66,3882.34,3872.47,3862.98,3851.95,3840.17,3829.08,3810.32,3788.55,3766.51,3747.18,3727.76,3707.84,3686.64,3658.58,3633.53,3612.04,3572.14,3542.22,3522.4,3502.31,3460.78,3406.05,3358.63,3292.47,3270.91,3214.15,3175.2,3126.88,3066.4,3049.78,3075.96,3086.28,3139.88,3227.46,3296.52,3356.28,3395.65,3408.82,3413.48,3472.18,3489.25,3496.29,3505.8,3532.09,3568.48,3604.34,3643.85,3681.89,3716.61,3751.47,3779.06,3807.1,3827.39,3844.97,3858.93,3869.79,3877.42,3884.78,3893.68,3901.14,3908.3,3916.27,3924.29,3932.99,3942.24,3950.27,3956.56,3960.47,3962.76,3963.36,3961.36,3956.68,3947.91,3929.87,3906.47,3882.19,3853.93,3823.08,3790.87,3758.11,3724.3,3692.74,3669.74,3656.51,3643.43,3631.8,3557.79,875.979,155.905,6.079,292.767,370.309,1032.41,1324.3,1609.25,1800.72,1868.62,1940.88,1937.45,1980.79,1981.99,1978.28,1974.53,1969.58,1964.93,1961.5,1957.55,1951.3,1946.35,1939.67,1923.37,1927.22,1887.11,1872.07,1901.8,1828.21,1548.05,1731.07,1472.74,1430.06,1127.04,1020.28,1063.76,1032.96,993.526,903.12,822.632,677.784,489.015,286.349,218.212,195.149,193.443,215.138,219.002,301.586,413.483,582.256,719.318,961.251,1242.86,1575.11,1981.02,2425.26,2975.98,3535.76,3771.38,3844.07,3882.36,3897.17,3906.19,3914.26,3920.1,3924.29,3927.33,3927.6,3925.15,3920.65,3913.56,3903.23,3890.78,3875.5,3858.18,3841.75,3826.48,3809.92,3795.36,3780.48,3766.74,3755.28,3745.07
3020.45,3094.24,3206.16,3328.72,3416.72,3511.14,3603.29,3682.23,3745.11,3772.35,3793.99,3807.51,3821.18,3833.68,3844.28,3852.93,3861.11,3868.48,3875.8,3880.96,3886.65,3889.74,3892.02,3893.35,3894.98,3897.5,3899.61,3900.64,3900.87,3901.49,3899.68,3896.42,3891.49,3884.1,3874.25,3861.85,3834.64,3809.27,3773.16,3744.64,3696.9,3651.88,3578.85,3506.15,3442.24,3355.9,3289.16,3199.74,3166.87,3115.21,3070.17,3021.72,2980.72,2920.77,2875.63,2800.38,2765.63,2760.78,2685.62,2681.76,2668.65,2640.32,2625.8,2605.67,2638.47,2645.7,2632.67,2701.99,2807.98,2944.85,3114.03,3218.92,3336.2,3424.97,3484.66,3539.51,3627.03,3692.57,3730.82,3784.21,3824.18,3849.14,3863.65,3875.37,3883.64,3890.26,3896.89,3902.64,3908.05,3912.73,3919.04,3926.03,3931.75,3938.73,3943.68,3948.87,3951.72,3955.4,3956.85,3957.89,3956.48,3955.26,3953.45,3949.34,3946.48,3940.09,3929.53,3917.38,3901.91,3886.55,3866.4,3848.71,3832.47,3803.23,3759.38,3720.82,3693.24,3656.15,3636.23,3596.85,3563.85,3549.24,3515.88,3495.04,3486.86,3476.07,3441.45,3440.04,3420.8,3423.99,3410.05,3449.54,3459.02,3465.58,3453.51,3488.83,3513.05,3472.2,3498.75,3499.33,3494.76,3525.01,3496.93,3542.15,3593.06,3646.4,3707.9,3753.56,3805.58,3843.99,3874.17,3895.76,3910.73,3925.49,3935.27,3941.66,3945.64,3944.32,3944.36,3945.44,3946.41,3947.97,3947.29,3944.8,3940.48,3935.06,3929.69,3925.41,3916.74,3909.53,3897.36,3883.84,3872.99,3856.78,3834.17,3815.03,3756.28,3607.43,3433.94,3102.22,2630.32,2169.5,1623.25,1122.47,777.424,520.237,369.558,280.21,231.319,192.393,152.29,134.734,114.19,96.217,81.861,67.438,71.127,81.563,109.814,184.36,227.755,267.657,306.377,337.066,369.991,326.417,276.738,209.309,174.302,119.505,77.821,70.26,41.734,25.491,24.492,25.556,24.238,27.613,26.623,33.276,38.392,40.624,92.079,157.527,177.165,414.141,1034.05,1936.79,3046.66,3733.66,3890.17,3907.4,3907.93,3909.85,3908.19,3907,3907.8,3907.12,3905.06,3902.98,3894.93,3884.86,3874.33,3863.14,3851.24,3838.59,3820.01,3797.75,3774.73,3753.44,3733.28,3711.63,3688.24,3666.09,3635.39,3612.95,3583.65,3549.2,3541.74,3515.14,3478.57,3417.65,3374.26,3308.5,3280.88,3167.14,3151.91,3094.6,3034.13,3050.02,3009.71,3049.11,3156.84,3241.07,3303.93,3375.16,3405.16,3424.53,3463.25,3487.03,3483.05,3462.02,3490.03,3534.94,3567.19,3601.79,3648.14,3674.67,3700.45,3734.65,3762.07,3786.69,3815.08,3832.84,3848.14,3859.23,3867.23,3875.64,3885.96,3895.11,3903.08,3913.78,3925.19,3936.2,3947.84,3958.29,3965.99,3970.98,3973.5,3974.83,3972.06,3967.28,3958.14,3940.48,3917.51,3892.89,3864.16,3833.98,3802.81,3770,3737.86,3707.29,3685.15,3671.9,3658.88,3647.64,3587.28,1293.62,305.287,2.989,513.831,403.073,925.489,1342.49,1666.82,1849.48,1908.8,1954.87,1942.14,1977.68,1979.36,1976.45,1973.43,1969.61,1965.81,1962.66,1958.96,1952.33,1947.43,1940.75,1922.27,1927.19,1882.81,1855.78,1902.74,1810.42,1423.53,1635.84,1488.44,1413.23,1168.2,1058.68,1096.55,1075.45,1024.46,960.055,885.225,746.532,534.662,298.789,209.418,198.912,193.844,222.992,248.466,355.678,518.19,712.333,903.07,1134.38,1397.43,1756.09,2252.62,2762.98,3351.4,3711.62,3848.84,3900.82,3917.89,3927.93,3935.47,3942.11,3945.94,3948.63,3948.73,3946.25,3941.82,3934.79,3924.86,3913.52,3899.14,3882.86,3865.05,3847.73,3831.71,3815.46,3800.96,3787.09,3774.66,3763.65,3755.77
2916.97,3051.53,3161.96,3255.55,3350.62,3462.8,3552.07,3638.92,3715.81,3755.22,3779.83,3800.29,3814.8,3827.97,3840.52,3850.66,3860.8,3869.27,3876.9,3884.82,3891.91,3896.19,3899.42,3901.89,3904.56,3907.42,3911.09,3913.17,3913.73,3914.63,3914.19,3912.44,3907.97,3901.98,3893.56,3881.53,3852,3822.86,3801.37,3753.75,3725.26,3668.69,3589.68,3545.16,3471.7,3362.47,3263.23,3195.7,3143.49,3068.84,3021.76,2966.75,2944.65,2888.67,2829.97,2822.89,2810.79,2776.58,2726.85,2670.95,2665.57,2634.19,2620.51,2560.16,2576.74,2563.74,2575.33,2599.53,2734.04,2857.64,3007.66,3174.21,3290.49,3387.02,3462.88,3519.82,3612.68,3666.75,3715.92,3771.55,3815.84,3848.64,3863.88,3876.32,3885.64,3893.75,3900.66,3908.14,3915,3920.7,3927.31,3934.99,3943.15,3950.48,3956.19,3960.87,3964.63,3968.13,3970.8,3972.34,3971.4,3970.7,3969.23,3966.3,3963.21,3957.65,3947.47,3934.39,3918.39,3902.48,3886.47,3868.24,3847.78,3825.97,3780.1,3738.54,3705.55,3649.44,3629.28,3557.04,3552.86,3517.77,3465.23,3469.59,3448.92,3426.87,3417.34,3407.26,3401.61,3380.32,3395.75,3415,3395.91,3419.05,3456.83,3448.59,3479.66,3491.18,3485.59,3473.04,3461.82,3498.89,3520.6,3555.45,3571.25,3613.93,3692.53,3735.07,3791.85,3851.93,3883.63,3907.72,3925.26,3940.77,3951.82,3959.08,3963.89,3961.58,3961.94,3963.24,3963.98,3965.34,3964.22,3961.23,3956.36,3950.51,3943.43,3938.97,3930.65,3922.45,3910.51,3897.37,3886.24,3870.51,3852.34,3829.48,3786.72,3729.79,3641.18,3488.88,3327.28,3024.08,2582.93,2095.31,1744.99,1361.71,1075.46,792.765,621.997,512.093,454.981,354.794,306.591,258.692,256.27,274.261,295.81,330.529,434.818,562.462,685.86,783.414,927.829,937.559,891.606,856.144,721.757,657.789,611.199,487.838,384.637,313.23,194.96,113.926,83.884,68.787,79.261,72.663,74.559,94.605,148.525,218.94,293.243,481.675,650.057,1118.58,1968.15,3015.82,3713.58,3892.14,3931.65,3932.99,3930.8,3929.92,3926.82,3925.2,3924.87,3923.34,3920.26,3917.19,3907.99,3898.08,3886.8,3875.86,3862.74,3849.83,3831.75,3808.75,3785.16,3762.7,3740.98,3718.44,3694.28,3671.5,3638.57,3614.8,3587.94,3572.02,3559.73,3530.04,3504.97,3466.33,3448.01,3388.71,3336.23,3268.39,3235.33,3171.9,3115.26,3096.81,3102.56,3160.45,3239.42,3326.39,3403.56,3445.64,3469.97,3485.67,3504.32,3491.49,3509.41,3517.1,3533.51,3549.3,3582.74,3619.22,3653.14,3682.21,3720.11,3740.42,3775.92,3799.57,3821.39,3839.92,3855.8,3865.71,3873.3,3882.12,3891.35,3900.62,3909.2,3920.52,3931.66,3943.52,3956.59,3967.13,3975.32,3980.55,3983.07,3983.7,3981.51,3976.77,3967.99,3950.14,3927.26,3903.31,3875.21,3845.85,3815.58,3783.33,3752.58,3723.12,3701.18,3688.77,3674.99,3664.46,3605.96,1346.43,389.124,5.719,542.503,470.381,911.661,1305.39,1658.72,1856.47,1919.35,1955.28,1945.11,1976.38,1976.49,1973.82,1971.64,1968.94,1966,1963.11,1959.34,1952.51,1947.38,1938.73,1923.93,1926.23,1884.89,1849.95,1900.37,1808.24,1403.05,1576.21,1639.61,1572.43,1289.92,1125.27,1163.56,1121.87,1070.37,1059.46,988.616,864.461,583.778,340.496,226.027,171.821,198.945,233.13,262.729,380.791,528.921,753.411,977.832,1175.31,1447.35,1791.87,2320.05,2933.02,3525.02,3815.9,3904.53,3933.42,3944.82,3953.83,3960.9,3966.25,3968.48,3969.15,3966.98,3962.23,3954.71,3945.73,3934.89,3922.07,3906.04,3888.1,3869.89,3852.16,3835.74,3819.2,3804.76,3791,3778.5,3768.18,3750.11
2965.88,3049.4,3112.54,3211.1,3330.23,3445.25,3548.12,3634.76,3705.11,3746.93,3771.99,3788.82,3806.38,3821.96,3834.64,3847.3,3859.7,3870.41,3879.4,3888.52,3897.35,3903.74,3908.39,3911.6,3914.87,3918.9,3922.48,3924.67,3926.32,3927.43,3927.17,3924.85,3921.47,3915.77,3907.31,3895.74,3866.18,3848.92,3832.63,3788.62,3735.99,3684.33,3604.97,3544.19,3471.96,3352.84,3264.48,3153.55,3101.66,3039.39,3000.45,2951.47,2932.35,2876.61,2834.96,2807.43,2787.75,2792.85,2734.82,2719.87,2623.43,2585.6,2520.4,2466.02,2345.15,2355.47,2329.59,2379.95,2450.65,2575.44,2769.19,3012.13,3173.97,3308.98,3404.21,3519.64,3604.01,3672.56,3709.16,3766.09,3809.21,3839.13,3859.66,3874.06,3884.04,3893.46,3902.91,3911.22,3919.43,3926.2,3933.69,3942.81,3951.38,3959.43,3965.79,3970.83,3974.99,3979.1,3981.68,3983.68,3983.94,3983.62,3982.08,3979.52,3976.79,3971.48,3961.89,3948.28,3932.03,3915.98,3895.75,3877.65,3856.73,3838.01,3788.51,3750.4,3713.77,3661.28,3637.54,3593.25,3539.28,3501.23,3478.48,3449.83,3445.21,3399.92,3364.46,3378.92,3359.49,3363.48,3369.58,3389.85,3389.41,3404.89,3433.06,3454.07,3473.14,3480.93,3501.12,3447.6,3459.49,3469.42,3483.8,3523.99,3567.13,3617.16,3684.1,3740.65,3779.43,3849.51,3891.17,3916.13,3935.27,3952.09,3963.95,3973.09,3977.53,3976.86,3976.55,3977.94,3978.99,3980.13,3979.01,3974.7,3969.68,3963.63,3957.09,3952.32,3943.82,3935.51,3923.53,3910.29,3899.54,3884.17,3866.82,3848.2,3816.95,3786.73,3712.51,3678.89,3574.04,3395.06,3160.39,2895.37,2636.88,2285.03,2013.91,1726.71,1521.69,1366.53,1255.45,1195.99,1079.91,1056.63,1028.51,1024.83,1088.93,1253.47,1417.66,1567.29,1713.23,1808.86,1839.68,1836.26,1840.65,1773.62,1692.16,1555.83,1520.18,1446.71,1338.99,1092.17,879.175,686.803,553.049,486.319,440.749,481.488,572.505,638.112,818.512,1044.88,1268.5,1849.12,2180.84,2898.4,3531.42,3856.88,3957.42,3970.25,3967.33,3962.59,3957.84,3954.51,3949.85,3946.2,3944.58,3941.88,3937.2,3932.26,3922.73,3911.67,3900.29,3888.12,3875.27,3862.7,3843.93,3821.91,3798,3775.23,3752.19,3729.08,3704.25,3680.2,3650.95,3632.84,3605.15,3582.08,3585.76,3569.84,3561.77,3538.06,3500.36,3469.3,3425.4,3346.54,3303.74,3279.27,3272.3,3246.24,3295.29,3349.4,3379.6,3443.14,3508.84,3539.79,3535.31,3555.45,3553.7,3573.05,3583.34,3583.74,3573.16,3603.56,3626.08,3656.57,3686.26,3717.49,3744.93,3772.39,3795.73,3819.88,3840.47,3859.19,3874.9,3882.86,3890.26,3898.27,3906.76,3914.5,3921.79,3932.12,3943,3954.72,3967.06,3978.09,3985.98,3990.2,3992.24,3992.5,3989.72,3984.61,3975.61,3958.98,3937.86,3915.08,3888.56,3860.07,3831.52,3801.09,3770.76,3741.79,3720.4,3707.65,3695.16,3684.42,3626.08,771.23,112.709,6.571,330.498,669.78,1045.89,1285.38,1623.25,1840.7,1933.22,1956.56,1950.6,1973.8,1973.86,1971.32,1969.35,1967.58,1965.4,1962.54,1958.73,1951.85,1946.4,1939.56,1924.78,1924.5,1890.12,1870.19,1895.54,1816.73,1461.67,1600.91,1678.1,1635.17,1366.2,1184.56,1207.31,1190.17,1143.72,1119.11,1032.1,886.499,625.009,359.147,243.85,168.568,186.432,228.129,315.601,414.833,550.552,765.575,930.648,1179.4,1417.63,1867.56,2399.95,3072.59,3623.17,3879,3938.59,3961.27,3972.9,3979.62,3985.53,3988.54,3989.86,3987.9,3983.62,3976.91,3967.58,3956.35,3943.54,3929.58,3912.85,3894.77,3874.93,3856.66,3839.15,3822.47,3807.77,3793.01,3780.71,3762.61,3749.28
2995.81,3029.87,3173.85,3271.1,3380.03,3465.3,3561.29,3642.58,3704.74,3743,3764.34,3783.99,3799.08,3815.14,3831.39,3844.68,3859.15,3872,3883.47,3894.38,3904.49,3912.63,3917.97,3922.7,3926.51,3930.65,3934.88,3937.29,3938.74,3939.22,3938.63,3936.53,3932.34,3926.61,3917.15,3905.97,3879.23,3858.55,3841.09,3808.45,3774.99,3716.15,3629.33,3549.84,3473.5,3404.45,3293.48,3184.82,3122.5,3044.37,3027.7,2980.29,2922.73,2885.51,2818.62,2781.88,2790.76,2768.86,2729.73,2736.26,2651.5,2537.36,2446.81,2323.15,2251.98,2265.74,2225.41,2200.9,2296.45,2399.47,2576.28,2798.92,3072.55,3224.65,3369.95,3483.92,3590.32,3663.73,3717.32,3768.22,3796.8,3827.65,3849.71,3865.25,3878.7,3890.2,3901.16,3911.78,3921.91,3929.81,3938.77,3947.75,3956.52,3965.86,3973.01,3978.49,3982.21,3986.07,3989.27,3991.81,3992.25,3992.65,3990.75,3988.23,3986.64,3981.85,3972.67,3960.78,3944.2,3927.5,3911.24,3889.12,3867.82,3840.82,3813.85,3774.34,3741,3698.7,3654.04,3596.04,3563.21,3531.04,3481.96,3450.78,3396.33,3368.11,3358.54,3350.73,3352.77,3345.88,3359.28,3353.27,3368.02,3377.87,3393.76,3418.56,3447.98,3452.33,3456.61,3471.29,3455.2,3445.09,3468.72,3501.4,3537.21,3574.79,3654.98,3715.47,3789.32,3854.04,3892.66,3918.55,3939.38,3957.72,3970.94,3979.68,3987.01,3986.14,3986.86,3988.87,3989.73,3991.6,3990.68,3986.51,3981.43,3975.7,3969.25,3965.27,3956.15,3947.41,3935.88,3922.99,3912.65,3897.43,3879.32,3859.47,3832.15,3785.88,3740.26,3695.09,3583.26,3412.8,3193.74,3059.21,2834.27,2597.23,2321.01,2075.94,1897.23,1791.41,1704.29,1605.5,1564.15,1573.43,1566.18,1539.2,1664.74,1765.92,1796.05,1898.7,1965.06,1979.13,1985.78,1978.69,2009.06,1983.94,1960.83,1925.06,1909.06,1867.51,1792.01,1682.71,1572.5,1438.74,1314.79,1180.3,1028.33,1088.68,1255.68,1439.8,1703.12,2112.35,2526.75,3126.81,3446.24,3735.76,3943.93,3994.02,4006.5,4003.9,3998.09,3992.25,3985.43,3980.59,3974.65,3970.3,3966.5,3961.58,3955.51,3949.49,3939.32,3926.47,3914.5,3902.4,3889.27,3875.64,3857.77,3836.61,3812.99,3789.5,3766.12,3742.86,3717.8,3689.25,3659.19,3629.78,3601.3,3578.2,3561.92,3562.58,3532.45,3522.98,3491.23,3466.14,3438.35,3389.55,3342.18,3319.7,3355.48,3381.51,3441.19,3454.56,3487.12,3531.47,3566.62,3593.49,3607.26,3599.71,3614.63,3623.64,3619.07,3614.77,3627.65,3648.73,3678.53,3699.79,3730.76,3755.72,3788.39,3811.61,3834.93,3857.15,3876.54,3893.12,3906.42,3913.65,3918.73,3925.03,3931.47,3936.43,3941.64,3949.81,3959.22,3970.06,3981.21,3990.9,3997.12,4001.05,4002.31,4001.72,3998.1,3992.99,3984.78,3968.87,3948.31,3927.45,3902.45,3876.41,3849.75,3821.06,3793.07,3765.91,3744.77,3732.81,3721.09,3710.59,3606.67,355.277,17.291,0,152.638,785.548,1179.52,1287.64,1649.01,1833.31,1937.21,1958.36,1948.15,1971.06,1970.59,1968.03,1966.24,1965.01,1963.37,1960.91,1956.8,1949.94,1944.5,1935.64,1915.14,1922.48,1878.62,1858.43,1897.38,1824.68,1532.3,1611.3,1708.46,1683.22,1458.87,1223.84,1250.37,1279.73,1213.17,1132.95,1019.27,887.216,649.628,361.988,232.824,179.61,187.452,201.353,271.683,369.807,505.464,689.904,946.064,1083.82,1438.22,1874.77,2506.03,3315.1,3782.58,3936.36,3973.97,3986.57,3995.2,4001.17,4005.5,4007.23,4006.21,4003.18,3996.83,3987.87,3976.52,3963.95,3949.61,3934.18,3916.88,3897.66,3877.15,3857.92,3839.31,3822.17,3805.95,3790.86,3773.79,3756.31,3737.36
3059.06,3125.35,3210.8,3304.75,3401.46,3494.8,3570.32,3663.3,3707.98,3742.21,3761.72,3777.47,3796.27,3812.34,3828.54,3844.6,3859.99,3874.59,3888.33,3901.1,3912.62,3921.34,3928.74,3933.27,3938.21,3942.93,3946.95,3949.13,3949.62,3950.02,3948.4,3945.63,3940.42,3933.25,3923.28,3911.27,3892.12,3868.12,3849.97,3818.27,3781.62,3725.87,3656.58,3610.62,3520.18,3440.08,3343.02,3258.92,3192.9,3129.29,3064.15,3004.2,2955.76,2920.32,2845.29,2823.22,2790.85,2751.24,2773.09,2730.37,2677.18,2576.4,2431.13,2318.36,2200,2089.34,2019.27,2029.95,2104.23,2263.39,2414.11,2621.81,2893.03,3135.01,3308.36,3424.61,3520.84,3609.95,3686.99,3749.75,3776.44,3807.2,3835.76,3854.77,3870.52,3884.65,3898.1,3911.49,3923.68,3934.51,3944.64,3955.18,3964.53,3973.41,3980.92,3985.99,3990.55,3993.77,3997.03,3999.96,4000.91,4000.32,3998.44,3996.54,3994.65,3989.35,3980.71,3969.22,3952.76,3936.58,3919.39,3897.58,3875.7,3848.42,3816.66,3786.83,3754.44,3714.95,3656.12,3612.12,3566.98,3537.81,3465.97,3430.73,3420.03,3387.81,3367.02,3367.4,3335.52,3339.27,3332.78,3337.4,3354.35,3343.41,3395.6,3428.52,3437.88,3421.8,3405.71,3398.19,3403.73,3380.58,3378.61,3419,3453.34,3520.14,3584.45,3680.42,3763.8,3844.65,3886.46,3917.36,3938.3,3957.66,3972.3,3982.69,3990.33,3990.34,3992.22,3995.05,3997,3999.08,3998.89,3995.16,3990.92,3986.21,3980.12,3975.92,3967.09,3958.63,3947.12,3933.86,3924.03,3908.18,3888.53,3860.25,3831.58,3796.74,3742.99,3673.11,3603.93,3452.11,3299.69,3112.26,2923.38,2686.67,2437.73,2204.66,2074.15,1913.48,1849.19,1807.37,1768.79,1776.29,1821.22,1811.15,1835.94,1887.89,1902.4,1969.23,2022.87,2015.95,2002.2,2001.74,2054.03,2071.44,2055.55,2017.69,1992.31,1965.38,1916.48,1857.01,1842.43,1797.76,1749.57,1711.73,1692.74,1767.46,1909.66,2093.83,2389.92,2714.94,3098.46,3565.41,3817.02,3955.83,4016.17,4033.26,4031.99,4028.48,4023.74,4018.78,4010.34,4003.41,3997.26,3990.69,3985.49,3978.59,3971.1,3963.55,3952.41,3940.34,3927.51,3914.58,3901.05,3887.38,3870.23,3849.92,3826.82,3802.9,3779.9,3756.81,3731.2,3706.55,3670.02,3644.6,3613.94,3590.86,3570.84,3548.45,3508.68,3511.57,3485.7,3494.99,3450.19,3419.65,3432.64,3455.74,3469.49,3509.93,3542.81,3536.86,3573.84,3584.1,3601.56,3617.84,3610.53,3606.61,3613.65,3628.93,3647.69,3650.41,3649.43,3688.59,3721.8,3754,3779.49,3807.65,3836.83,3861.5,3887.53,3907.95,3926.81,3940.55,3950.03,3954.96,3957.43,3960.62,3964.2,3966.58,3968.8,3973.94,3981.36,3989.38,3998.45,4005.94,4010.9,4013.35,4013.58,4012.28,4008.59,4002.88,3994.77,3979.61,3960.46,3941.04,3918.99,3894.92,3870.45,3843.56,3817.91,3793.01,3773.53,3761.8,3750.42,3741.11,3570.92,142.667,6.842,0,78.865,852.255,1181.07,1255.26,1611.22,1825.27,1932.7,1957.35,1944.59,1969.04,1968.2,1965.13,1962.9,1962.22,1960.93,1958.37,1954.05,1947.39,1941.7,1932.89,1899.31,1918.33,1885.98,1870.21,1897.77,1846.66,1667.78,1675.95,1732.48,1709.97,1557.33,1274.3,1302.68,1326.87,1257.74,1162.18,1020.66,910.973,652.901,379.723,248.291,205.451,228.922,266.342,387.491,498.282,682.309,875.694,1081.86,1354.26,1715.07,2291.78,2974.08,3594.93,3921.53,3986.16,4000.47,4009.28,4017.01,4021.38,4023.32,4023.17,4020.68,4015.01,4007.09,3996.81,3984.15,3969.64,3954.37,3938.13,3919.72,3899.36,3878.58,3858.49,3838.44,3820.11,3803.3,3783.77,3765.44,3752.03,3735.35
3095.25,3163.09,3269.48,3341.27,3421.22,3495.98,3612.57,3666.95,3693.74,3728.45,3751.71,3766.6,3795.9,3812.6,3828.9,3846.22,3862.82,3878.23,3894,3908.47,3921.33,3931.84,3939.45,3946.24,3951.59,3956.73,3960.74,3962.53,3962.78,3961.86,3960.12,3955.65,3950.11,3942.23,3931.22,3917.64,3902.05,3882.21,3864.68,3832.18,3787.57,3751.85,3685.92,3649.85,3565.62,3503.51,3419.14,3357.78,3261.51,3224.6,3159.43,3101.91,3042.59,2984.22,2940.31,2877.21,2831.17,2826.69,2852.28,2819.98,2749.47,2704.11,2604.26,2498.03,2382.49,2349.19,2279.27,2251.07,2321.48,2405.69,2595.3,2781.71,3004.28,3166.63,3326.2,3435.29,3525.49,3616.45,3676.82,3720,3758.75,3792.37,3819.63,3845.56,3865.75,3883.01,3899.21,3915.59,3929.29,3942.04,3953.21,3964.08,3973.95,3982.94,3990.45,3995.28,4000.06,4003.1,4006.19,4008.21,4009.49,4009.06,4006.82,4003.99,4000.76,3996.58,3987.45,3976.22,3960.31,3942.99,3925.6,3902.27,3875.72,3847.2,3818.54,3783.31,3760.79,3717.18,3658.03,3621.08,3584.93,3522.46,3491.79,3472.47,3425.95,3384.14,3344.39,3303.32,3333.91,3311.43,3315.16,3329.21,3356.24,3397.51,3398.04,3372.44,3359.92,3389.3,3363.08,3341.97,3348.4,3320.75,3332.57,3341.08,3390.6,3441.24,3524.58,3634.76,3717.4,3811.87,3878,3909.56,3931.69,3951.65,3968.62,3979.55,3989.03,3990.23,3993.2,3998.17,4000.74,4004.49,4004.58,4001.02,3997.64,3993.77,3988.08,3984.19,3975.47,3966.59,3954.77,3941.96,3930,3913.93,3893.15,3871.21,3837.99,3797.98,3732.2,3659.67,3557.76,3433.25,3270.89,3154.37,2982.13,2740.72,2521.09,2282.95,2095.24,1993.45,1931.85,1831.47,1800.87,1811.78,1865.73,1880.79,1897.18,1935.19,1943.29,2001.72,2039.22,2020.52,2016.74,2010.32,2056.37,2063.47,2055.87,2037.09,2004.79,1989.06,1960.52,1874.52,1871.99,1850.51,1824.9,1814.49,1862.82,1960.97,2079.23,2271.08,2527.85,2887.66,3231.7,3680.72,3885.1,4000.65,4030.33,4045.35,4047.15,4046.19,4043.86,4039.67,4030.77,4023.4,4016.73,4009.2,4002.82,3994.21,3984.85,3976.11,3965.68,3952.8,3939.66,3926.6,3912.67,3898.51,3881.68,3862.09,3839.93,3815.86,3793.32,3769.17,3740.92,3717.38,3677.78,3645.17,3635.76,3589,3573.9,3539.76,3525.63,3516.09,3517,3522.32,3471.81,3456.75,3471.06,3509.54,3529.16,3534.55,3565.09,3563.55,3570.85,3581.97,3585.54,3630.84,3617.72,3628.15,3637.82,3645.02,3656.21,3673.76,3697.26,3728.89,3752.92,3785.71,3815.46,3848.76,3897.4,3922.51,3945.39,3966.5,3983.59,3995.54,4003.9,4006.14,4006.2,4007.42,4007.19,4005.71,4004.83,4006.77,4009.52,4014.36,4021.08,4025.04,4027.46,4028.96,4026.81,4024.62,4020.51,4014.76,4007.18,3992.22,3974.93,3956.64,3935.86,3913.88,3891.48,3866.83,3842.66,3819.63,3800.38,3790.74,3780.32,3771.37,3254.87,93.226,0,0,34.093,895.915,1158.69,1215.38,1549.17,1788.32,1925.35,1945.76,1949.99,1965.78,1966.03,1962.44,1959.84,1959,1957.9,1955.19,1950.75,1944.32,1936.18,1929.27,1898.09,1917.46,1891.5,1867.62,1898.05,1853.12,1735.22,1739.15,1652.98,1667.54,1584.16,1275.67,1341.39,1325.72,1218.85,1133.68,977.774,836.881,595.705,372.97,235.755,239.82,304.736,418.488,588.646,721.365,966.013,1215.84,1539.98,1972.21,2435.43,2972.11,3566.57,3886.98,3998.75,4016.05,4023.49,4030.13,4034.72,4037.04,4037.94,4036.09,4031.24,4023.99,4013.82,4003.17,3988.61,3972.51,3956.13,3938.82,3919.34,3898.33,3877.52,3856.01,3836.71,3816.93,3798.83,3778.26,3755.75,3742.51,3736.86
3218.22,3280.05,3330.9,3365.73,3463.37,3549.59,3619.78,3659.55,3687.18,3717.24,3738.59,3753.63,3788.82,3812.43,3828.84,3845.3,3863.65,3881.16,3898.21,3914.73,3929.33,3941.1,3950.71,3958.09,3964.4,3969.47,3973.93,3975.81,3975.53,3974.42,3971.62,3966.5,3960.15,3951.65,3939.67,3925.27,3909.3,3892.37,3871.98,3839.29,3803.64,3766.23,3723.94,3681.41,3628.15,3560.07,3495.51,3414.92,3356.73,3287.08,3234.74,3180.3,3126.65,3083.25,3039.7,3002.89,2949.34,2966.94,2928.04,2891.03,2866.37,2814.21,2682.23,2631.6,2538.09,2434.24,2462.79,2437.26,2498.93,2589.44,2720.02,2934,3092.03,3225.98,3296.62,3412.68,3515.87,3577.11,3671.8,3714.21,3745.03,3777.96,3812.4,3838.99,3862.44,3883.6,3902.38,3920.79,3937.44,3951.65,3964.38,3975.13,3984.5,3993.86,4001.44,4006.76,4010.84,4013.98,4017.2,4019.29,4020.34,4019.53,4017.15,4014.06,4010.49,4005.9,3997.12,3985.15,3969.49,3952.23,3933.15,3912.72,3885.13,3855.32,3817.69,3783.88,3763.38,3718.79,3670.72,3647.35,3605.02,3520.7,3479.47,3468.36,3422.16,3357.13,3375.39,3356.04,3336.9,3337.46,3345.75,3372.25,3361.17,3401.02,3376.75,3398.62,3339.08,3373.35,3371.49,3359.55,3342.2,3336.14,3296.93,3264.19,3298.68,3335.55,3409.45,3527.34,3634.28,3775.66,3859.92,3896.91,3920.18,3941.82,3958.43,3971.52,3981.82,3985.28,3991.17,3998.07,4001.7,4006.31,4007.48,4005.71,4002.21,3998.91,3993.58,3989.67,3982.17,3971.94,3960.09,3946.07,3932.65,3915.24,3893.11,3870.21,3833.18,3790.26,3737.2,3657.21,3559.74,3417.72,3217.01,3093.97,2903.73,2700.84,2480.67,2217.9,2093.38,1994.9,1972.75,1852.93,1841.03,1848.6,1903.12,1908,1921.1,1960.76,1958.56,1990.18,2011.16,2018.38,2019.52,2027.15,2066.52,2058.24,2053.87,2019.21,1990.74,1990.5,1982.83,1908.69,1917.41,1912.06,1874.16,1877.69,1962.39,2043.23,2191.64,2350.29,2589.02,2981.27,3360.46,3728.06,3921.21,4004.93,4044.78,4052.76,4056.62,4057.33,4056.95,4053.09,4044.42,4036.9,4029.97,4023.86,4015.66,4007.46,3997.67,3987.45,3977.41,3964.76,3951.45,3938.42,3923.17,3908.38,3892.88,3874.03,3851.9,3827.69,3804.82,3777.85,3756.46,3721.22,3675.93,3642.82,3611.63,3587.69,3553.76,3529.67,3516.26,3505.27,3499.8,3503.85,3475.03,3460.93,3470.16,3521.52,3494.58,3545.58,3564.67,3525.8,3551.19,3564.66,3562.81,3580.61,3599.96,3597.77,3627.08,3645.83,3660.53,3679.4,3705.11,3756.26,3782.04,3836.46,3873.18,3905.41,3939.62,3971.16,3995.51,4017.39,4035.41,4048.16,4055.91,4058.3,4058.21,4058.05,4056.85,4052.66,4048.14,4046.4,4045.81,4047.19,4049.27,4050.79,4050.1,4048.42,4045.13,4041.48,4036.74,4030.37,4021.89,4007.11,3989.98,3973.84,3953.84,3933.55,3912.23,3889.15,3866,3843.21,3825.75,3816.44,3806.64,3798.4,2802.42,79.348,0,0,21.304,861.066,1112.45,1139.65,1493.47,1769.78,1901.06,1945.18,1948.39,1967.3,1964.85,1960.55,1956.89,1955.7,1954.53,1951.78,1946.86,1941.16,1934.88,1925.94,1898.9,1913.01,1899.77,1870.26,1898.34,1856.46,1757.49,1750.18,1429.26,1446.79,1529.27,1247.59,1261.71,1184.89,1111.49,979.374,874.821,714.058,516.985,274.01,234.825,283.686,497.9,695.459,1087.99,1403.36,1745.45,2279.86,2729.97,3126.88,3452.79,3767.16,3959,4009.45,4032.94,4038.28,4043.58,4047.67,4050.4,4051.06,4050.44,4046.48,4039.92,4030.05,4019.12,4006.55,3991.14,3974.62,3956.91,3938.81,3919.66,3898.66,3877.4,3856.21,3835.81,3815.16,3796.51,3777.05,3757.79,3744.49,3735.09
3229.21,3283.56,3321.69,3374.14,3422.96,3489.23,3582.93,3633.08,3657.93,3663.38,3695.02,3744.35,3761.48,3805.93,3822.45,3846.5,3864.16,3882.86,3900.34,3918.24,3934.42,3947.37,3958.26,3967.2,3973.83,3980.21,3984.39,3986.31,3986.31,3984.81,3980.66,3975.37,3967.66,3958.21,3946.13,3931.63,3914.99,3898.28,3877.93,3854.92,3819.79,3783.87,3738.17,3704,3656.08,3587.71,3521.54,3467.42,3424.97,3323.89,3266.65,3198.72,3142.15,3114.13,3072.83,3038.17,3022.71,3000.03,2966.91,2945.46,2933.08,2909.79,2821.45,2796.76,2733.83,2652.46,2606.04,2572.03,2643.27,2702.97,2827.58,2998.98,3164.37,3258.68,3352.21,3435.52,3518.93,3591.11,3661.53,3698.97,3731.51,3773.77,3811.4,3841.24,3867.58,3890.82,3911.7,3930.58,3948.54,3964.28,3977.73,3988.19,3997.49,4006.38,4014.41,4019.74,4024.21,4027.23,4030.35,4032.38,4033.17,4033.27,4030.26,4026.56,4024.07,4019.12,4010.03,3998.73,3983.42,3965.19,3945.91,3923.56,3898.8,3868.25,3832.21,3797.84,3771.08,3728.26,3700.98,3673.27,3617.02,3559.93,3523.36,3470.53,3439.09,3401.08,3363.37,3358.04,3366.29,3366,3386.37,3366.1,3351.69,3366.64,3386.42,3360.84,3343.54,3357.78,3376.02,3311.85,3333.42,3317.42,3299.81,3254.64,3236.24,3273.94,3335.92,3423.95,3559.71,3713.98,3844.94,3881.68,3906.8,3929.41,3947.44,3962.19,3973.81,3980.13,3988.17,3996.88,4002.26,4007.72,4010.08,4008.92,4006.47,4003.73,3999.33,3995.41,3987.59,3976.62,3964.32,3948.34,3934.09,3913.43,3890.19,3865.71,3836.58,3784.27,3728.27,3608.27,3516.21,3337.48,3103.58,2820.32,2509.14,2305.12,2093.85,1862.33,1749.58,1754.15,1736.7,1746.41,1780.87,1834.91,1885.37,1907.08,1913,1956.61,1926.28,1914.58,1934.11,1906.42,1866,1871.36,1882.04,1926.22,1842.1,1828.61,1827.26,1885.43,1893.75,1884.58,1900.63,1919.94,1947.88,1982,2013.83,2077.21,2100.5,2087.04,2287.86,2576.18,2967.33,3438,3659.39,3901.41,4031.82,4053.07,4061.43,4063.54,4064.8,4060.92,4053.11,4046.7,4040.76,4034.65,4027.52,4018.95,4008.89,3998.91,3988.18,3975.74,3963.39,3948.76,3933.86,3918.44,3902.05,3884.56,3862.77,3837.77,3814.71,3783.02,3760.94,3726.58,3681.66,3638.05,3611.71,3558.76,3532.92,3503.25,3495.87,3484.51,3463.49,3461.9,3442.03,3482.79,3521.75,3522.96,3537.97,3517.68,3538.28,3521.47,3516.39,3533.28,3541.35,3553.61,3549.68,3574.31,3611.93,3612.31,3657.97,3669.59,3704.48,3756.16,3806.38,3848.5,3890.78,3944.03,3971.55,4007.34,4032.84,4056.87,4075.43,4089.83,4097.76,4100.77,4101.95,4101.94,4099.43,4094.1,4088.35,4084.45,4079.45,4078.48,4079.23,4077.65,4074.4,4071.18,4066.01,4060.61,4055.23,4048.09,4038.83,4023.77,4006.91,3989.18,3970.73,3951.44,3930,3907.19,3884.04,3861.24,3843.54,3834.16,3823.88,3814.67,2185.1,65.08,0,0,19.067,858.255,1080.03,1120.59,1468.32,1744.6,1891.19,1939.05,1949.05,1963.42,1963.92,1959,1954.32,1952.67,1951.01,1948.31,1942.76,1937.93,1931.93,1924.6,1905.77,1912.9,1894.98,1844.58,1901.26,1845.56,1742.89,1731.37,1161.17,1031.39,1328.08,1188.85,1097.08,1033.08,888.65,789.798,695.296,593.123,399.6,219.236,275.977,512.469,1086.4,1698.93,2273.07,2672.1,3139.75,3470.29,3661.97,3816.45,3941.39,4000.01,4031.84,4050.56,4054.65,4058.14,4060.75,4062.43,4063.5,4062.81,4060.07,4054.79,4046.16,4034.91,4022.21,4008.18,3992.14,3974.88,3957.38,3939.6,3919.64,3898.7,3877.64,3856.87,3836.12,3816.56,3794.98,3779.22,3764.2,3746.59,3730.02
3231.03,3266.82,3320.92,3362.17,3384.26,3466.98,3537.03,3576.18,3613.86,3649.04,3663.62,3701.61,3732.41,3767.06,3818.48,3834.48,3863.89,3881.64,3900.5,3918.84,3936.5,3951.46,3963.81,3974.55,3982.54,3989.23,3994.61,3996.91,3996.59,3994.96,3990.98,3984.97,3978.11,3968.08,3955.4,3940.94,3924.63,3907.75,3888.12,3865.64,3831.96,3798.32,3764.99,3729,3687.51,3639,3583.07,3507.54,3451.09,3354.07,3300.02,3229.75,3145.2,3151.04,3096.06,3075.13,3051.9,3047.19,3038.66,3018,2996.44,2950.02,2971.75,2920.73,2873.26,2867.85,2816.91,2840.21,2874.18,2968.5,3059.32,3168.16,3213.98,3313.27,3387.79,3444.07,3495.26,3544.73,3642.29,3695.58,3742.47,3780.79,3812.57,3848.58,3876.36,3901.38,3924.04,3943.9,3962.78,3978.97,3992.52,4003.21,4012.37,4020.76,4028.25,4033.76,4038.93,4042.82,4045.99,4047.9,4049.05,4048.85,4046.94,4043.6,4040.53,4035.21,4027.01,4016.19,4001.95,3983.62,3962.6,3939.23,3912.89,3885.31,3852.37,3812.61,3780.86,3755.01,3729.96,3708.93,3663.24,3629.79,3606.28,3552.11,3524.03,3484.88,3465.73,3450.94,3467.59,3473.74,3492.89,3489.35,3461.98,3460.71,3463.59,3439.61,3422.8,3393.51,3413.51,3398.69,3398.81,3380.36,3391.4,3334.05,3336.78,3336.89,3390.52,3494.28,3578.62,3743.22,3838.4,3876,3901.47,3923.5,3942.26,3957.7,3970,3977.58,3987.33,3997.25,4003.63,4009.8,4012.79,4011.87,4009.8,4008.13,4004,3999.94,3992.16,3981.83,3967.61,3950.23,3932.79,3910.16,3884.3,3859.08,3828.02,3778.82,3710.72,3585.15,3370.1,3153.89,2846.06,2461.94,2028.98,1686.23,1461.1,1256.01,1201.6,1235.75,1306.07,1459.9,1578.33,1654.94,1724.19,1765.54,1794.49,1792.34,1761.78,1681.75,1622.48,1563.54,1551.33,1530.09,1534.27,1524.38,1484.56,1498.83,1529.34,1598.08,1654.37,1665.06,1768.71,1803.72,1900.02,1952.77,1922.9,1894.07,1736.18,1643.79,1704.04,1914.47,2187.22,2779.4,3164.44,3685.76,3993.54,4057.77,4062.03,4065.6,4068.07,4065.21,4057.94,4053.39,4048.91,4043.69,4037.89,4029.2,4018.74,4008.84,3998.45,3986.4,3973.9,3958.05,3942.21,3925.46,3909.05,3891.1,3868.5,3843.87,3815.67,3785.34,3764,3716.02,3683.12,3642.94,3590.36,3565.98,3553.62,3526.05,3507.18,3494.18,3480.75,3489.73,3530.11,3514.67,3515.76,3528.76,3553.21,3553.07,3531.85,3523.49,3510.03,3550.32,3563.28,3576.78,3573.25,3573.5,3597.28,3620.03,3667.68,3690.45,3720.76,3775.35,3817.14,3879.88,3927.28,3968.34,4000.05,4032.35,4058.62,4082.51,4103.05,4117.85,4126.88,4130.62,4133.57,4135.15,4133.06,4128.92,4123.2,4117.83,4112.51,4108.81,4107.51,4103.71,4099.29,4093.9,4087.83,4081.41,4074.72,4066.5,4056.45,4041.62,4022.56,4004.8,3985.75,3965.56,3943.71,3920.05,3896.34,3871.95,3854.55,3844.47,3832.79,3819.02,1491.01,36.521,0,0,7.95,723.363,993.237,1088.48,1437.26,1715.52,1866.79,1926.71,1943.42,1959.14,1962.85,1956.94,1949.24,1944.99,1946.92,1944.1,1938.5,1934.77,1928.93,1921.63,1909.22,1911.07,1888.47,1847.68,1902.38,1849.57,1751.03,1754.28,737.294,498.561,897.611,1002.15,927.273,790.687,672.766,591.491,477.925,390.665,300.489,289.72,572.52,1434.67,2341.3,2995.07,3505.52,3723.63,3826.59,3931.72,4008.83,4026.52,4047.17,4058.35,4063.75,4071.51,4074.36,4075.94,4077.34,4076.67,4076.01,4073.16,4068.87,4061.12,4050.54,4037.85,4023.92,4008.53,3991.31,3974.55,3956.27,3938.2,3918.57,3897.96,3877.58,3857.12,3836.94,3818.42,3798.09,3782.96,3765.47,3744.16,3727.49
3211.72,3245.68,3274.82,3313.69,3313.35,3376.87,3447.95,3501.8,3538.21,3578.14,3625.68,3646.16,3686.99,3736.61,3788.65,3821.22,3857.08,3878.57,3897.78,3917.02,3935.15,3952.63,3966.04,3978.82,3988.56,3995.6,4001.73,4005.09,4006.09,4003.98,4000.58,3995.1,3988.19,3978.39,3967.12,3952.44,3936.53,3919.28,3900.25,3878.69,3851.46,3819.23,3784.43,3758.57,3722.78,3684.37,3635.32,3556.21,3509.48,3412.22,3308.23,3226.64,3212.32,3144.86,3123.28,3113.13,3119.52,3080.47,3085.02,3076.49,3058.87,3021.79,3002.56,2986.94,2961.11,2941.27,2982.57,2978.63,3041.92,3124.39,3165.34,3225.87,3262.06,3313.32,3361.5,3412.06,3479.52,3535.79,3605.64,3670.64,3721.65,3775.34,3822.28,3857.03,3887.31,3913.61,3937.2,3958.31,3978.09,3995.36,4008.59,4018.93,4027.4,4036,4043.83,4050.25,4055.74,4059.98,4063.66,4065.83,4067.33,4067.53,4066.52,4062.97,4059.06,4055.53,4048.15,4037.58,4024.43,4006.76,3985.21,3960.9,3934.28,3905.36,3875.03,3838.29,3812.95,3783.37,3753.2,3733.16,3694.89,3666.04,3653.81,3615.52,3611.83,3592.62,3590.73,3572.65,3559.77,3577.18,3575.6,3577.94,3562.91,3557.85,3541.98,3520.93,3539.38,3519.24,3511.51,3488.26,3493.12,3468.78,3470.19,3464.06,3424.38,3482.75,3525.96,3579.5,3660.36,3778.61,3848.32,3880.45,3905.39,3926.27,3944.69,3959.12,3971.29,3979.66,3989.53,3999.91,4006.56,4012.58,4016.09,4015.95,4014.56,4012.88,4009.04,4004.51,3997.47,3985.77,3971.76,3952.63,3932.48,3908.1,3879.84,3847.96,3808.78,3748.03,3649.79,3431.33,3143.87,2787.02,2366.13,1881.35,1313.88,942.155,770.202,677.632,604.543,677.581,841.726,956.359,1067.25,1183.61,1252.66,1300.37,1285.27,1228.89,1142.78,1121.48,1053.78,996.995,991.303,940.518,848.619,828.277,790.124,855.667,877.411,918.057,1029.12,1121.1,1106.51,1139.37,1169.09,1237.83,1275.08,1168.2,1075.48,986.163,971.238,1030.09,1255.02,1787.79,2284.17,3094.8,3814.57,4047.69,4059.57,4064.13,4069.08,4067.54,4061.92,4058.88,4055.75,4051.8,4046.55,4037.88,4028.22,4018.15,4007.56,3995.62,3982.38,3966.48,3948.79,3930.63,3912.93,3893.96,3869.79,3843.86,3814.69,3782.63,3757.48,3712.32,3677.3,3649.03,3590.27,3566.32,3554.52,3496.13,3460.68,3474.01,3450.14,3471.53,3498.59,3489.49,3493.14,3504.05,3519.6,3523.33,3550.02,3538.55,3509.76,3550.77,3550.85,3565.18,3573.21,3599.71,3614.28,3641.76,3664.05,3696.09,3731.77,3789.52,3850.63,3905.55,3949.36,3986.78,4015.43,4051.25,4076.54,4100.25,4120.25,4134.82,4143.58,4148.78,4152.47,4154.9,4155.09,4152.21,4146.73,4141.19,4136.46,4132.01,4129.87,4126.3,4120.45,4114.47,4107.77,4100.15,4093.17,4084.12,4073.57,4057.06,4037.55,4018.34,3998.22,3976.92,3954.01,3928.2,3902.49,3875.95,3858.98,3846.47,3834.16,3806.43,904.631,40.456,0,0,4.998,725.09,917.115,1018.02,1396.65,1697.58,1842.69,1920.91,1938.64,1954.32,1961.24,1954.64,1944.36,1941.24,1942.74,1940.24,1934.66,1931.93,1926.53,1919.14,1905.1,1909.55,1897.53,1857.86,1904.48,1860.42,1788.79,1811.98,689.729,265.119,448.438,695.598,685.304,608.416,467.633,388.328,342.386,323.534,343.076,676.65,1656.47,2747.42,3440.14,3802.26,3936.15,3977.38,4030.17,4048.27,4063,4075.12,4083.12,4087.63,4090.32,4092.28,4093.14,4092.84,4091.85,4090.14,4086.88,4081.77,4074.83,4065.2,4051.99,4037.56,4022.03,4005.61,3987.98,3970.63,3951.77,3933.45,3914.58,3894.74,3875.44,3856.37,3837.71,3816.89,3801.1,3782.53,3758.68,3734.14,3717.93
3130.27,3141.72,3189.57,3236.35,3287.66,3313.41,3376.18,3425.65,3463.58,3506,3551.53,3595.58,3630.5,3667.38,3725.73,3785.06,3815.26,3874.69,3894.41,3913.81,3933.1,3950.51,3967.04,3980.72,3992.97,4002.43,4009.3,4013.46,4015.11,4014.79,4011.36,4007.37,4000.78,3992.33,3981.52,3967.68,3952.8,3935.89,3917.09,3897.32,3867.97,3838.21,3811.9,3777.4,3739.71,3715.75,3671.62,3594.5,3536.92,3431.17,3378.21,3316.88,3228.31,3206.21,3139.46,3140.23,3097.03,3068.23,3057.06,3065.64,3045.84,2998.2,2979.26,2966.48,2966.63,2995.54,3010.35,2998.61,3021.23,3101.49,3187.81,3234.76,3255.2,3289.07,3330.37,3412.63,3479.85,3535.57,3602,3659.94,3727.46,3769.65,3814.3,3852.97,3896.07,3924.3,3949.67,3971.65,3991.53,4009.86,4023.84,4035.26,4044.17,4052.24,4060.1,4067.46,4072.65,4078.45,4081.35,4084.18,4086.33,4087.03,4086.34,4083.33,4080.49,4075.73,4069.45,4060.56,4047.86,4030.4,4008.84,3983.46,3957.31,3927.99,3898.4,3857.86,3831.93,3801.76,3782.49,3752.04,3730.25,3709.05,3648.98,3645.7,3623.7,3599.49,3600.21,3596.38,3587.55,3576.56,3580.07,3587.36,3588.45,3585.17,3567.46,3579.19,3583.76,3575.46,3575.28,3539.9,3534.68,3546.94,3542.2,3537.71,3571.39,3570.76,3598.36,3682.56,3758.39,3835.4,3872.78,3899.19,3920.85,3940.28,3956.05,3968.21,3978.9,3986.16,3996.26,4006.74,4012.66,4017.96,4021.54,4021.76,4021.04,4019.68,4015.38,4011.02,4003.75,3992.03,3976.8,3956.54,3934.36,3907.77,3877.56,3847.62,3808.94,3753.71,3620.24,3411.62,3043.26,2626.35,2074.34,1451.65,933.787,666.144,552.723,431.882,417.925,509.644,628.445,713.13,771.878,859.21,825.427,849.392,809.45,735.966,736.981,670.295,637.327,629.905,612.88,579.777,543.589,542.094,501.913,530.277,554.314,593.795,651.615,729.256,761.535,764.622,745.762,767.424,787.488,763.593,757.649,732.072,702.059,766.739,873.151,1229.01,1610.49,2511.94,3597.03,3999.6,4054.48,4062.43,4067.77,4068.01,4064.44,4062.94,4061.14,4058.2,4054.36,4045.76,4036.35,4026.72,4015.87,4004.08,3991.39,3973.83,3953.58,3933.69,3914.64,3894.37,3868.62,3840.7,3812.87,3776.56,3743.7,3710.74,3665.26,3626.52,3591.85,3566.43,3560.72,3522.22,3474.73,3488.85,3479.08,3503.05,3490.05,3512.64,3482.11,3482.93,3518.36,3524.25,3542.99,3522.71,3496.28,3518.31,3513.07,3537.24,3537.43,3588.57,3620.4,3635.05,3680.77,3701.66,3748.43,3816.81,3855.44,3909.98,3948.73,3993.31,4025.53,4056.07,4080.54,4103.46,4123.12,4137.67,4146.14,4153.16,4158.85,4162.64,4164.54,4163.95,4161.61,4158.25,4153.86,4151,4148.92,4145.49,4139.76,4133.77,4127.17,4119.97,4111.7,4102.32,4090.89,4073.63,4052.57,4031.6,4010.32,3988.23,3963.01,3935.18,3907.23,3879.14,3861.04,3847.02,3830.32,3796.53,599.316,18.761,0,0,1.943,786.185,881.354,982.048,1361.33,1674.35,1831.63,1915.95,1933.15,1946.41,1958.99,1951.79,1941.15,1937.43,1938.86,1936.59,1931.56,1929.67,1925,1917.68,1911.58,1908.69,1905.02,1889.41,1908.11,1868.93,1820.28,1864.87,766.579,234.514,217.595,414.882,424.642,423.894,346.605,309.235,341.927,470.055,890.015,1841.88,2911.47,3568.8,3886.36,3993.95,4024.43,4044.13,4063,4078.8,4092.42,4102.46,4107.69,4110.62,4112.21,4112.63,4111.28,4108.65,4105.92,4101.92,4096.87,4089.34,4080.72,4068.47,4054.45,4037.85,4020.55,4003.01,3984.94,3966,3946.15,3927.18,3908.59,3889.79,3872.07,3854.23,3833.89,3817.47,3795.81,3775.45,3748.2,3722.97,3702.03
