1086.88,1083.8,1083.14,1084,1086.53,1087.52,1088.11,1088.08,1092.12,1091.27,1090.76,1090.36,1090.19,1089.91,1089.36,1088.75,1088.77,1089.46,1089.99,1089.43,1089.06,1088.15,1086.81,1085.05,1083.32,1081.01,1077.62,1073.6,1069.96,1066.29,1064.07,1062.08,1052.7,1051.53,1049.2,1052.18,1055.62,1060.02,1059.56,1065.96,1072.68,1072.32,1076.75,1078.31,1076.52,1079.74,1082.87,1086.26,1091.7,1099.31,1102.06,1104.17,1105.37,1105.95,1105.58,1105.02,1103.33,1101.07,1098.41,1096.01,1093.75,1092.1,1091.71,1092.22,1093.15,1094.86,1097.03,1099.3,1101.51,1103.88,1106.15,1108.08,1109.26,1109.58,1109.08,1108.32,1106.84,1105.54,1103.86,1101.75,1099.16,1096.6,1093.7,1090.92,1087.9,1085.55,1083.28,1089.2,1087.75,1084.57,1083.76,1081.43,1081.88,1082.9,1087.08,1090.78,1092.18,1093.73,1087.86,1090.07,1091.79,1092.94,1093.44,1090.95,1094.85,1100.75,1099.81,1098.18,1096.67,1095.37,1094.07,1092.96,1092.41,1091.78,1091.46,1091.25,1091.02,1090.8,1090.79,1091.14,1091.72,1092.16,1092.82,1092.48,1091.58,1090.24,1089.12,1087.64,1085.98,1084.81,1084.78,1080.68,1081.06,1081.24,1081.68,1081.87,1082.45,1082.79,1083.02,1082.7,1082.2,1081.39,1080.5,1079.94,1075.28,1074.7,1074.33,1079.64,1078.64,1080.62,1081.36,1082.88,1084.75,1086.73,1088.74,1091.38,1093.76,1095.94,1099.02,1102.01,1104.72,1106.5,1108.36,1110.06,1110.99,1110.86,1111.08,1110.74,1109.67,1107.95,1107,1105.58,1104.26,1103.59,1103.76,1103.7,1103.05,1102.8,1103,1102.67,1102,1100.57,1099.44,1098.24,1096.83,1096.16,1095.03,1093.4,1083.26,1081.21,1079.7,1077.87,1076.86,1076.57,1076.11,1076.21,1076.6,1077.15,1078.57,1080.21,1082.03,1083.8,1085.77,1087.79,1089.91,1092.8,1095.68,1097.84,1096.88,1099.05,1096,1088.28,1084.17,1079.36,1074.19,1069.32,1064.29,1061.27,1059.04,1065.01,1063.75,1063.63,1065.52,1068.42,1071.28,1074.24,1075.77,1076.31,1077.45,1069.75,1069.47,1068.6,1068.2,1067.89,1067.35,1066.46,1065.97,1065.09,1064.99,1064.95,1065.08,1065.56,1066.57,1067.72,1068.98,1070.5,1072.02,1073.42,1074.38,1072.95,1075.62,1071.34,1073.02,1073.95,1072.08,1070.27,1068.09,1065.61,1063.23,1061.05,1058.61,1056.5,1054.85,1053.8,1053.93,1054.54,1055.41,1056.62,1058.71,1061.34,1063.75,1066.22,1069.04,1071.13,1073.06,1075.3,1077.1,1077.86,1078.63,1079.62,1080.34,1080.63,1080.32,1079.77,1076.82,1073.07,1073.41,1073.41,1071.21,1069.01,1066.7,1063.98,1061.85,1060.1,1059.27,1058.78,1058.33,1058.88,1060.4,1062.56,1065.73,1068.92,1071.27,1072.78,1073.81,1074,1073.64,1073.06,1072.08,1070.23,1068.03,1066.4,1065.32,1064.69,1065.08,1065.42,1065.85,1066.91,1068.36,1070.36,1072.34,1074.2,1075.44,1076.34,1077.59,1077.96,1076.72,1074.88,1072.49,1070.12,1068.33,1067.38,1066.2,1065.27,1065.04,1065.53,1066.45,1067.66,1069.35,1070.58,1071.84,1074.06,1075.63,1076.64,1078.03,1079.3,1080.22,1081.16,1081.49,1081.33,1080.4,1079.24,1078.46,1076.99,1075.26,1073.76,1071.71,1069.9,1068.39,1067.4,1066.79,1066.28,1065.94,1065.94,1066.4,1066.73,1066.72,1066.5,1066.05,1065.4,1064.65,1064.01,1063.3,1062.38,1061.24,1060.24,1058.84,1056.86,1054.83,1052.68,1050.25,1047.6,1044.34,1041.4,1038.96,1037.05,1035.83,1034.48,1033.19,1032.23,1032.18
1088.63,1085.43,1084.65,1085.42,1088.06,1088.94,1087.33,1087.5,1089.38,1093.16,1092.78,1092.46,1092.37,1092.06,1091.64,1091.04,1091.05,1091.74,1092.21,1091.49,1091.18,1090.24,1088.97,1087.16,1085.46,1083.02,1079.67,1075.79,1072.1,1068.35,1066.13,1064.16,1054.84,1053.74,1053.65,1054.11,1059.71,1063.72,1062.96,1066.49,1070.25,1071.56,1075.37,1078.54,1078.99,1077.84,1081.08,1084.6,1092.45,1098.12,1100.9,1101.29,1104.79,1105.72,1105.46,1105,1101.31,1101.32,1098.66,1096.28,1094.09,1092.39,1091.92,1092.46,1093.38,1092.86,1097.44,1099.88,1102.24,1104.93,1107.29,1109.22,1110.55,1111.08,1111.02,1110.5,1109.13,1107.9,1106.08,1104.04,1101.45,1098.79,1095.9,1093.06,1090.15,1087.62,1093.18,1091.02,1089.61,1086.44,1083.62,1081.41,1081.88,1083.16,1089.62,1091.3,1095.1,1088.61,1090.74,1093.04,1094.58,1095.45,1095.91,1097.4,1097.14,1100.75,1101.98,1100.27,1098.79,1097.49,1096.02,1094.82,1094.35,1093.76,1093.6,1093.46,1093.24,1093,1092.99,1093.48,1094.04,1094.59,1095.14,1094.84,1094.1,1092.92,1092.02,1090.94,1089.25,1088.56,1089.27,1085.54,1086.1,1086.27,1086.57,1086.75,1087.02,1087.46,1087.47,1086.58,1085.49,1084.02,1082.88,1077.98,1077.01,1076.11,1083.32,1082.53,1081.41,1081.25,1082.15,1083.81,1085.82,1088.02,1090.27,1093,1095.4,1097.65,1100.32,1103.1,1105.56,1107.04,1108.57,1110.21,1110.83,1110.48,1110.22,1109.73,1108.25,1105.85,1104.6,1102.8,1100.49,1099.02,1098.24,1097.26,1095.89,1095.04,1094.6,1093.96,1092.95,1092,1091.42,1090.6,1089.96,1089.84,1089.38,1080.43,1079.03,1077.43,1076.48,1075.11,1074.59,1074.77,1074.7,1075.68,1076.47,1077.47,1079.55,1081.6,1083.53,1085.48,1087.47,1089.45,1091.05,1093.27,1095.66,1097.32,1096.25,1098.22,1095.07,1087.46,1083.33,1078.36,1073.34,1068.71,1063.93,1060.73,1062.21,1060.04,1062.69,1062.34,1064.29,1067.02,1069.5,1072.16,1073.51,1070.08,1067.31,1067.64,1067.49,1066.69,1066.48,1066.26,1065.89,1065.17,1064.76,1063.84,1063.53,1063.46,1063.63,1064.09,1065.17,1066.32,1067.71,1069.28,1070.89,1072.51,1073.61,1074.56,1070.94,1073.38,1075.17,1069.8,1072.36,1070.79,1068.85,1064.49,1064.54,1062.52,1060.3,1058.32,1056.82,1055.64,1055.39,1055.58,1055.82,1056.46,1058.06,1060.16,1062.17,1064.19,1066.83,1069.24,1071.58,1074.28,1076.51,1077.58,1078.79,1080.08,1081.14,1081.75,1081.41,1080.74,1079.68,1075.91,1076.3,1074.3,1067.7,1067.59,1065.23,1062.42,1062.36,1060.42,1059.22,1058.21,1057.39,1057.69,1058.94,1060.93,1063.9,1067.07,1069.35,1070.77,1071.55,1071.52,1071.12,1070.45,1069.51,1067.67,1065.54,1063.83,1062.76,1062.25,1062.71,1063.02,1063.48,1064.39,1065.7,1067.64,1069.54,1071.61,1072.84,1073.82,1075.33,1075.73,1074.39,1072.64,1070.3,1067.98,1066.34,1065.48,1064.25,1063.39,1063.36,1063.99,1065.19,1066.5,1068.26,1069.46,1070.79,1072.94,1074.47,1075.5,1076.78,1078.07,1078.75,1079.45,1079.65,1079.46,1078.31,1081.13,1080.16,1078.78,1072.94,1071.72,1069.9,1068.18,1066.97,1066.01,1065.48,1065,1064.8,1064.81,1065.45,1065.8,1065.67,1065.31,1064.75,1063.85,1062.93,1062.06,1061.32,1060.2,1059.1,1058.08,1056.69,1054.89,1053.13,1051.22,1048.93,1046.55,1043.46,1040.8,1038.5,1036.58,1035.55,1034.09,1032.72,1031.85,1031.62
1089.93,1091.03,1085.68,1086.47,1089.18,1089.99,1088.35,1088.54,1090.6,1092.12,1094.04,1093.77,1093.61,1093.36,1092.93,1092.35,1092.4,1093.12,1093.62,1092.97,1092.6,1091.85,1090.68,1088.99,1087.38,1085.05,1081.96,1078.12,1074.72,1071.14,1068.91,1066.85,1057.53,1056.57,1056.38,1056.79,1061.91,1067.88,1066.14,1068.71,1071.48,1069.8,1072.5,1074.99,1077.35,1073.86,1077.28,1083.16,1089.22,1095.29,1098.57,1097.2,1103.41,1104.74,1104.71,1104.44,1103.12,1098.85,1096.25,1094.02,1093.97,1092.36,1091.88,1092.42,1093.29,1094.99,1097.38,1099.92,1102.35,1105.3,1107.73,1109.65,1111.11,1111.88,1112.08,1111.78,1110.55,1109.35,1107.56,1105.61,1103.22,1100.55,1097.62,1094.9,1092.02,1097.52,1094.86,1092.52,1090.78,1087.68,1087.17,1084.93,1083.26,1084.6,1089.13,1092.9,1086.28,1090.14,1092.32,1094.38,1095.68,1096.47,1096.78,1100.51,1104.3,1104.07,1103.3,1101.64,1100.36,1099.24,1097.8,1096.68,1096.23,1095.62,1095.56,1095.53,1095.34,1095.05,1095.06,1095.74,1096.41,1096.9,1097.63,1097.44,1096.88,1096.04,1095.34,1094.77,1093.35,1093.11,1094.4,1091.45,1092.36,1092.45,1092.88,1092.87,1092.64,1093.01,1092.86,1091.42,1089.66,1087.47,1082.02,1080.74,1079.44,1086.09,1082.66,1083.65,1082.32,1082.23,1083.14,1084.94,1087.07,1089.37,1091.71,1094.43,1096.86,1098.84,1101.28,1103.8,1105.83,1107.04,1108.17,1109.65,1109.93,1109.2,1108.57,1107.76,1106.11,1103.35,1101.79,1099.52,1096.21,1093.87,1092.39,1090.58,1088.48,1086.88,1085.86,1084.78,1083.87,1083.42,1083.46,1083.08,1082.96,1083.41,1075.67,1075.43,1074.64,1073.61,1073.11,1072.2,1072.14,1072.74,1073.2,1074.81,1076.25,1078.03,1080.59,1083.02,1085.04,1086.99,1089.02,1090.88,1091.92,1091.14,1094.9,1095.99,1098.71,1096.96,1093.95,1090.5,1082.27,1077.58,1072.66,1068.45,1063.82,1060.51,1057.8,1059.61,1057.92,1057.53,1059.39,1061.8,1063.98,1066.06,1063.22,1063.66,1064.77,1065.18,1065.07,1064.34,1064.42,1064.43,1064.4,1064.07,1063.85,1063.07,1062.76,1062.62,1062.95,1063.25,1064.12,1065.25,1066.53,1068.09,1067.59,1069.19,1070.46,1071.49,1074.5,1074.46,1076.54,1069.68,1070.38,1071.28,1069.78,1067.96,1066.11,1064.48,1062.5,1060.47,1058.94,1057.75,1057.2,1057.02,1056.64,1056.61,1057.52,1058.97,1060.49,1062.13,1064.41,1066.9,1069.26,1072.16,1074.82,1076.27,1077.72,1079.22,1080.48,1081.14,1080.84,1080.09,1078.9,1077.37,1075.82,1069.66,1065.46,1065.5,1061.05,1062.79,1062.8,1060.88,1059.46,1058.12,1057.09,1057.11,1057.99,1059.89,1062.49,1065.43,1067.77,1069.17,1069.79,1069.23,1068.64,1067.95,1066.87,1065.11,1062.99,1061.37,1060.21,1059.7,1060.35,1060.64,1060.96,1061.79,1063,1064.75,1066.73,1068.81,1070.22,1071.28,1072.8,1073.32,1071.94,1070.34,1068.26,1066.09,1064.48,1063.6,1062.48,1061.79,1061.79,1062.68,1063.95,1065.42,1067.05,1068.33,1069.6,1071.79,1073.13,1073.99,1075.21,1076.4,1076.82,1077.16,1081.2,1080.86,1079.64,1078.32,1077.42,1076.12,1074.21,1073.39,1067.93,1066.67,1065.69,1065.01,1064.5,1064.15,1064.07,1064.18,1064.9,1065.29,1065.13,1064.75,1064.08,1063.12,1062,1061.07,1060.06,1058.77,1057.26,1056.2,1054.78,1053.04,1051.39,1049.75,1047.83,1045.75,1042.95,1040.58,1038.42,1036.74,1035.58,1034.13,1032.74,1031.64,1031.35
1091.29,1092.02,1086.5,1087.08,1089.83,1088.14,1088.76,1088.96,1088.96,1090.54,1092.44,1090.05,1094.15,1093.88,1093.48,1093.01,1093.07,1093.84,1094.38,1093.85,1093.62,1093.13,1092.1,1090.63,1089.26,1087.26,1084.38,1080.96,1077.96,1074.61,1072.62,1070.69,1061.28,1060.21,1059.84,1060.07,1064.95,1070.22,1067.75,1069.27,1070.95,1068.35,1067.84,1069.62,1071.28,1076.24,1079.4,1078.74,1084.83,1091.2,1090.58,1093.99,1098.67,1102.56,1102.82,1102.76,1101.72,1097.73,1090.98,1088.93,1091.14,1087.52,1089.26,1092.04,1092.84,1094.48,1096.83,1099.49,1101.91,1104.94,1107.51,1109.63,1111.22,1112.14,1112.44,1112.34,1111.5,1110.42,1108.73,1106.86,1104.52,1101.78,1098.94,1096.29,1101.69,1099.25,1096.56,1093.94,1091.88,1088.64,1088.22,1088.16,1084.18,1085.44,1087.5,1085.24,1086.63,1090.5,1092.52,1094.5,1095.74,1096.52,1100.82,1100.72,1104.87,1104.75,1104.25,1102.83,1101.74,1100.84,1099.45,1098.48,1098.05,1097.41,1097.49,1097.55,1097.56,1097.42,1097.41,1098.41,1099.14,1099.93,1101.13,1101.17,1100.73,1100.13,1099.9,1099.83,1098.69,1098.93,1100.81,1098.1,1099.24,1099.18,1099.55,1099.42,1098.57,1098.56,1098.04,1096.06,1093.82,1087.06,1085.24,1083.71,1090.09,1088.65,1086.99,1083.14,1083.82,1083.45,1084.27,1085.97,1088.1,1090.42,1092.71,1095.37,1097.53,1099.37,1101.42,1103.58,1105.16,1105.95,1106.74,1107.83,1107.8,1106.98,1106.08,1105.1,1103.15,1100.34,1098.64,1096.06,1092.25,1089.51,1087.58,1085.26,1082.94,1081,1079.66,1078.18,1077.12,1076.68,1076.8,1076.78,1076.99,1069.73,1070.28,1070.52,1070.33,1069.96,1069.92,1069.5,1069.88,1070.86,1071.61,1073.96,1076.04,1078.57,1081.8,1084.48,1086.62,1088.66,1090.8,1092.65,1093.02,1094.08,1092.34,1098.77,1097.19,1095.68,1090.65,1089.84,1085.86,1077.54,1072.79,1068.93,1064.63,1061.39,1058.54,1056.28,1054.22,1053.72,1055.32,1057.43,1059.21,1060.88,1061.68,1061.92,1062.92,1063.28,1063.12,1062.49,1062.86,1063.04,1063.38,1063.39,1063.64,1062.95,1062.65,1062.58,1063.1,1063.3,1063.95,1064.87,1065.85,1067.17,1068.68,1068.27,1069.54,1070.46,1079.34,1081.79,1079.72,1073.21,1068.13,1067.03,1070.31,1066.65,1067.45,1066.39,1064.81,1062.89,1061.33,1059.88,1059.11,1058.58,1057.73,1057.07,1057.34,1058.28,1059.32,1060.54,1062.37,1064.74,1067,1069.97,1072.8,1074.52,1075.95,1077.46,1078.82,1079.64,1079.53,1078.78,1077.7,1076.4,1074.92,1066.73,1067.25,1063.28,1063.4,1058.91,1063.6,1061.78,1060.5,1059.11,1058.11,1058.03,1058.62,1060.18,1062.36,1064.75,1066.61,1068,1068.58,1067.63,1066.71,1065.78,1064.72,1062.95,1061,1059.25,1058.13,1057.61,1058.23,1058.43,1058.69,1059.37,1060.39,1062.1,1063.94,1066.06,1067.39,1068.43,1069.96,1070.46,1069.15,1067.48,1065.7,1063.75,1062.54,1061.76,1060.89,1060.43,1060.64,1061.64,1063.14,1064.77,1066.42,1067.64,1068.94,1070.82,1072.02,1072.7,1073.69,1074.75,1078.92,1079.03,1078.87,1078.33,1077.2,1075.9,1074.97,1073.84,1072.08,1071.34,1066.45,1065.43,1064.76,1064.27,1063.79,1063.49,1063.39,1063.59,1064.35,1064.78,1064.55,1064.12,1063.44,1062.54,1061.34,1060.28,1059.16,1057.7,1056.09,1055.02,1053.65,1052.18,1050.73,1049.59,1048.01,1046.22,1043.97,1041.94,1040.1,1038.52,1037.2,1035.78,1032.17,1033.16,1030.23
1091.76,1092.47,1088.94,1087.33,1090.11,1090.58,1088.91,1089.1,1089.11,1088.59,1088.33,1088.13,1094.37,1094.18,1093.82,1093.36,1093.6,1094.32,1094.97,1094.56,1094.58,1094.28,1093.53,1092.4,1091.31,1089.56,1087.02,1083.96,1081.42,1078.4,1076.54,1074.64,1065.21,1064.08,1063.47,1063.39,1067.82,1068.48,1065.17,1065.86,1066.69,1067.51,1064.13,1062.66,1070.2,1072.21,1074.85,1078.24,1079.77,1081.74,1083.39,1089.44,1094.61,1099.14,1097.73,1100.22,1099.62,1098.16,1089.56,1087.79,1085.82,1084.77,1086.66,1091.68,1092.5,1094.04,1096.34,1098.98,1101.39,1104.34,1106.93,1109.14,1110.64,1111.56,1111.92,1111.88,1111.45,1110.56,1108.97,1107.35,1105,1102.42,1099.75,1105.28,1102.94,1100.55,1097.83,1095.18,1092.8,1089.72,1089.01,1088.83,1089.21,1085.91,1079.4,1080.6,1086.27,1090.11,1092.09,1094.01,1095.29,1100.2,1100.6,1104.69,1105.05,1105.16,1104.97,1103.94,1103.01,1102.32,1101.05,1100.28,1099.88,1099.15,1099.36,1099.48,1099.62,1099.52,1099.78,1100.84,1101.94,1102.94,1104.47,1104.52,1104.32,1104.17,1104.3,1104.57,1104.02,1104.83,1107.2,1104.69,1105.87,1105.84,1105.43,1104.95,1103.91,1103.76,1102.98,1100.76,1094.2,1091.32,1089.48,1095.9,1094.09,1092.44,1090.42,1088.3,1086.17,1085.36,1085.97,1087.29,1088.94,1091.04,1093.04,1095.44,1097.34,1098.96,1100.75,1102.52,1103.68,1104.04,1104.58,1105.41,1105.12,1104.11,1102.86,1101.88,1099.81,1097.04,1095.17,1092.22,1088.09,1084.94,1082.52,1080.19,1077.62,1075.46,1074.08,1072.76,1071.89,1071.52,1071.61,1071.58,1063.89,1064.82,1065.77,1066.27,1066.47,1066.42,1066.99,1067.09,1067.86,1069.5,1070.59,1073.6,1076.27,1079.57,1083.38,1086.27,1088.47,1090.72,1092.48,1094.58,1094.62,1095.16,1098.77,1097.86,1096.11,1094.81,1092.23,1089.62,1086.3,1082.57,1074.27,1070.51,1066.72,1063.79,1061.01,1058.52,1056.35,1055.3,1056.15,1057.75,1058.76,1059.82,1060.29,1060.25,1061.02,1061.21,1061.02,1060.68,1061.24,1061.84,1062.61,1063.22,1063.77,1063.58,1063.51,1063.74,1064.33,1064.35,1064.79,1065.37,1066.02,1067,1068.39,1070.04,1071.1,1073.77,1076.76,1080.94,1077.12,1077,1072.35,1071.42,1070.6,1069.74,1068.86,1068.19,1067.09,1065.2,1063.62,1062.09,1061.2,1060.27,1058.89,1057.65,1057.52,1058.1,1058.74,1059.65,1061.1,1063.2,1065.34,1068.27,1071,1072.61,1073.96,1075.5,1076.75,1077.78,1077.86,1077.21,1076.44,1075.22,1073.87,1072.47,1070.92,1069.5,1067.79,1065.73,1064,1062.57,1061.24,1060.03,1059.37,1059.28,1059.57,1060.78,1062.45,1064.32,1065.8,1066.67,1067.15,1066.12,1064.86,1063.79,1062.68,1060.89,1059.08,1057.66,1056.48,1055.88,1056.42,1056.63,1056.78,1057.29,1058.05,1059.53,1061.32,1063.06,1064.21,1065.07,1066.6,1067.04,1065.68,1064.33,1062.71,1061.26,1060.26,1059.85,1059.41,1059.18,1059.69,1060.79,1062.59,1064.17,1065.92,1067.12,1068.4,1070.1,1071.12,1071.67,1072.58,1073.32,1073.27,1077.17,1076.91,1076.26,1075.14,1073.96,1072.83,1071.95,1070.47,1069.98,1065.29,1064.61,1064.19,1063.83,1063.46,1063.07,1063.09,1063.41,1064.01,1064.39,1064.06,1063.54,1062.9,1061.96,1060.68,1059.55,1058.35,1056.85,1055.21,1054.1,1052.95,1051.42,1050.33,1049.36,1048.24,1046.64,1044.58,1042.63,1041.02,1039.67,1036.23,1032.77,1029.31,1030.36,1029.43
1090.63,1091.32,1087.72,1088.41,1089.24,1089.66,1088.03,1088.17,1088.26,1087.8,1087.61,1087.39,1087.12,1091.27,1093.27,1092.94,1093.19,1094.02,1094.85,1094.64,1094.89,1094.91,1094.42,1093.54,1092.84,1091.42,1089.29,1086.66,1084.62,1082.03,1080.51,1078.76,1069.35,1068.02,1067.18,1066.72,1070.59,1070.6,1066.57,1066.32,1066.6,1066.84,1062.85,1067.39,1063.21,1068.91,1070.75,1073.44,1076.64,1078.26,1077.69,1081.6,1089.13,1094.21,1091,1091.82,1094.04,1093.12,1087.38,1086.12,1084.62,1084.05,1084.07,1086.9,1092.1,1093.54,1095.78,1098.42,1100.69,1103.46,1105.8,1107.9,1109.31,1110.3,1110.71,1110.73,1110.41,1109.72,1108.41,1107.07,1104.97,1102.65,1108.05,1105.8,1103.79,1101.65,1098.98,1096.47,1094.01,1092.88,1092.14,1089.51,1087.34,1077.75,1078.88,1079.55,1084.94,1088.63,1090.52,1092.34,1097.81,1098.92,1103.46,1103.74,1104.34,1104.73,1105.08,1104.53,1104.05,1103.82,1102.84,1102.22,1101.86,1101.26,1101.67,1101.65,1101.93,1101.94,1102.28,1103.43,1104.64,1105.9,1107.59,1107.64,1107.55,1107.43,1107.76,1108.14,1108.21,1109.28,1111.69,1108.98,1109.91,1109.88,1108.77,1107.83,1106.72,1106.24,1105.25,1099.2,1096.77,1094.18,1100.44,1099.28,1097.5,1095.79,1093.59,1091.36,1088.77,1087.48,1087.78,1088.42,1089.31,1090.91,1092.53,1094.49,1096.09,1097.4,1098.78,1100.11,1100.84,1101.06,1101.61,1102.22,1101.83,1100.64,1098.98,1097.81,1095.78,1093.01,1091.13,1087.71,1083.5,1079.96,1077.36,1075.09,1072.71,1070.6,1069.33,1068.33,1067.73,1067.43,1067.82,1059.75,1060.17,1060.99,1061.91,1062.6,1063.06,1063.25,1064.18,1064.77,1066.09,1068.2,1070.21,1073.99,1077.27,1081.27,1085.62,1088.84,1090.9,1093.2,1094.68,1096.6,1096.23,1100.08,1092.24,1043.42,1023.54,1093.57,1091.24,1088.79,1086.18,1083.36,1075.7,1072.39,1069.56,1066.92,1064.34,1061.98,1059.77,1058.5,1058.49,1059.16,1059.47,1059.7,1059.85,1059.55,1059.92,1060.04,1059.82,1059.63,1060.44,1061.48,1062.81,1063.9,1064.91,1065.19,1065.5,1066.1,1066.91,1066.84,1067.04,1067.29,1067.69,1068.42,1069.54,1070.77,1071.67,1072.2,1076.57,1076.56,1076.72,1072.5,1072.13,1071.29,1070.83,1070.37,1069.8,1069.6,1068.83,1067.2,1065.62,1064.16,1062.96,1062.04,1060.46,1059.1,1058.69,1059.07,1059.55,1060.29,1061.48,1063.46,1065.18,1067.64,1070.12,1071.52,1072.47,1073.82,1075.05,1075.98,1076.24,1075.9,1075.22,1074.2,1073.05,1071.94,1070.7,1069.66,1068.25,1066.38,1064.94,1063.69,1062.65,1061.8,1061.34,1061.14,1061.11,1061.83,1063.06,1064.35,1065.42,1066.02,1065.8,1064.48,1063.1,1062.22,1061.13,1059.42,1057.61,1056.23,1055.08,1054.4,1054.85,1054.91,1054.87,1055.2,1055.75,1056.92,1058.35,1059.76,1060.71,1061.45,1062.78,1063.37,1062.36,1061.41,1060.32,1059.3,1058.9,1058.86,1058.74,1058.85,1059.71,1060.91,1062.67,1064.4,1066.1,1067.26,1068.43,1069.84,1070.7,1071.18,1071.9,1072.44,1072.24,1076.01,1075.7,1075.04,1073.98,1072.77,1071.75,1071.04,1069.87,1069.58,1065.11,1064.69,1064.44,1064.34,1064.01,1063.93,1063.98,1064.09,1064.57,1065,1064.84,1064.32,1063.73,1062.76,1061.48,1060.32,1059.17,1057.66,1056.11,1054.96,1053.94,1052.79,1051.69,1051.02,1049.98,1048.57,1046.71,1044.93,1041.11,1039.58,1033.93,1032.65,1031.46,1030.47,1027.64
1089.93,1090.58,1091.32,1087.88,1093.12,1086.89,1087.52,1087.64,1087.69,1087.24,1086.96,1086.79,1086.58,1088.5,1092.84,1092.54,1092.97,1093.84,1094.95,1094.98,1095.44,1095.74,1095.56,1094.96,1094.44,1093.44,1091.76,1089.52,1087.92,1085.7,1084.29,1082.74,1073.38,1072.06,1071,1070.14,1073.67,1069.08,1068.28,1067.53,1067.06,1066.82,1066.59,1066.44,1061.72,1062.37,1068.01,1069.96,1072.6,1073.6,1072.56,1076.33,1081.75,1089.16,1086.32,1085.58,1086.18,1088,1085.09,1084.48,1083.61,1083.41,1083.66,1084.4,1091.7,1093.06,1095.14,1097.61,1099.62,1102.26,1104.36,1106.42,1107.71,1108.64,1109.06,1109.07,1108.76,1108.22,1107.11,1105.92,1103.88,1101.73,1103.35,1105.32,1103.6,1101.7,1099.29,1096.78,1094.38,1093.26,1092.35,1089.34,1080.88,1076.62,1077.22,1077.82,1082.66,1083.6,1087.49,1093.14,1094.44,1099.68,1100.38,1100.95,1101.73,1102.48,1103.46,1103.5,1103.7,1104.02,1103.47,1103.25,1103.08,1102.58,1103.19,1103.28,1103.66,1103.88,1104.02,1105.31,1106.61,1108.03,1110.08,1110.16,1110.29,1110.22,1110.54,1110.82,1111.28,1112.73,1114.8,1111.83,1112.22,1111.95,1110.53,1109.45,1108.26,1107.71,1102.74,1101.03,1099.01,1100.77,1103.43,1102.59,1100.96,1099.29,1096.92,1094.46,1091.5,1089.78,1089.56,1089.34,1089.48,1090.36,1091.41,1092.94,1094.18,1095.35,1096.24,1097.33,1097.97,1098.18,1098.79,1099.27,1098.78,1097.73,1096.05,1094.77,1092.77,1090.22,1088.17,1084.64,1080.41,1076.87,1074.15,1071.89,1069.92,1068.14,1067.04,1066.25,1066,1065.79,1058.2,1058.35,1058.81,1059.64,1060.53,1061.23,1061.63,1062.03,1063.61,1064.48,1066.25,1068.68,1070.91,1075.12,1079.05,1083.48,1087.76,1090.76,1092.84,1094.89,1096.27,1097.64,1096.98,1096.24,1098.13,1086.49,1092.86,1091.71,1089.84,1087.65,1085.8,1079.8,1077.04,1074.64,1072.95,1071.2,1068.92,1066.87,1065.24,1064.04,1062.96,1062.38,1061.55,1060.98,1060.64,1060.04,1059.87,1059.67,1059.25,1059.17,1060.24,1061.69,1063.32,1064.85,1066.15,1066.99,1067.72,1068.47,1069.36,1069.15,1069.02,1068.78,1068.68,1069.02,1069.63,1070.38,1071.04,1071.21,1071.31,1075.2,1071.5,1071.54,1071.33,1070.81,1070.71,1070.76,1070.63,1070.8,1070.37,1069.12,1067.7,1066.3,1065.08,1064.12,1062.68,1061.51,1061.03,1061.34,1061.78,1062.44,1063.49,1065.02,1066.12,1067.98,1069.72,1070.79,1071.35,1072.45,1073.23,1074.1,1074.49,1074.58,1074.06,1073.41,1072.45,1071.64,1070.78,1070.05,1069,1067.4,1066.17,1065.16,1064.26,1063.64,1063.28,1062.97,1062.75,1063.04,1063.79,1064.62,1065.14,1065.36,1064.98,1063.1,1061.55,1060.68,1059.68,1057.94,1056.15,1054.63,1053.5,1052.75,1053.24,1053.3,1053.05,1053.27,1053.72,1054.66,1055.78,1056.84,1057.54,1058.14,1059.34,1059.83,1059.21,1058.68,1058.33,1058.05,1058.16,1058.66,1058.83,1059.36,1060.46,1061.78,1063.44,1065.17,1066.68,1067.74,1068.68,1069.96,1070.7,1070.92,1071.47,1071.87,1071.58,1075.15,1074.68,1073.99,1072.94,1072,1071.36,1070.83,1070.24,1070.32,1066.28,1066.32,1066.24,1066.29,1066.23,1066.07,1065.88,1065.89,1066.27,1066.58,1066.39,1065.99,1065.47,1064.47,1063.33,1062.21,1061.16,1059.71,1058.29,1057.19,1056.26,1055.18,1054.23,1053.58,1052.69,1051.44,1049.86,1048.08,1044.36,1042.82,1038.98,1037.83,1028.03,1031.51,1031.08
1089.83,1090.37,1091.22,1092.13,1093.08,1089,1089.46,1087.28,1087.28,1086.89,1086.62,1088.57,1088.42,1088.18,1090.47,1092.55,1093,1094.06,1095.39,1095.66,1096.31,1096.89,1096.99,1096.64,1096.3,1095.62,1094.35,1092.66,1091.28,1089.54,1088.17,1086.63,1077.19,1075.86,1074.43,1073.13,1071.98,1070.94,1069.51,1068.37,1067.53,1066.91,1066.35,1065.82,1065.24,1065.4,1066.16,1067.48,1069.29,1071.9,1074.69,1075.63,1081.04,1084.16,1086.11,1083.46,1082.5,1082.68,1082.62,1082.71,1082.48,1082.65,1082.98,1085.87,1091.06,1092.29,1094.25,1094.43,1098.52,1100.9,1102.86,1104.73,1106.05,1106.89,1107.18,1107.23,1107.08,1106.65,1105.6,1104.62,1102.7,1100.64,1098.49,1104.82,1103.29,1101.55,1099.39,1097.02,1094.58,1093.43,1092.23,1080.78,1079.88,1077.31,1079.8,1079.54,1079.65,1082.21,1083.52,1088.92,1090,1091.2,1095.89,1096.66,1097.83,1098.79,1100.46,1101.36,1102.32,1103.62,1104.01,1104.42,1104.58,1104.33,1103.12,1103.26,1101.62,1104.08,1102.12,1107.39,1108.66,1110.25,1110.32,1110.81,1111.18,1111.23,1113.85,1114.3,1114.79,1116.12,1113.76,1114.28,1114.08,1113.33,1111.8,1110.47,1109.34,1104.68,1103.81,1102.38,1104.92,1103.33,1102.73,1106.18,1104.67,1103.06,1100.59,1097.9,1094.83,1092.55,1091.46,1090.24,1089.52,1089.73,1090.09,1091.18,1091.85,1092.78,1093.68,1094.62,1094.92,1095.28,1096.06,1096.47,1096.17,1095.27,1093.9,1092.56,1090.74,1088.51,1086.58,1083.21,1079.54,1076.24,1073.77,1071.46,1069.64,1068.16,1067.31,1066.63,1066.56,1058.3,1058.73,1058.97,1059.36,1060.15,1060.87,1061.35,1061.76,1062.45,1064.29,1065.42,1067.42,1070,1072.53,1076.8,1080.89,1085.22,1089.04,1091.83,1093.51,1095.15,1095.92,1096.18,1095.28,1094.3,1087.13,1092.64,1090.15,1089.35,1087.76,1086.35,1081.39,1080.26,1078.5,1077.02,1075.94,1074.54,1072.66,1070.9,1069.62,1066.08,1066.31,1064.69,1063.47,1062.49,1061.76,1060.93,1060.68,1060.23,1059.65,1059.58,1060.97,1062.62,1064.53,1066.19,1067.8,1069.12,1070.2,1071.02,1071.6,1071.31,1070.91,1070.15,1069.51,1069.19,1069.08,1069.18,1069.6,1069.66,1069.49,1069.41,1069.77,1069.95,1070,1069.78,1070.14,1070.54,1070.86,1071.44,1071.55,1070.55,1069.5,1068.45,1067.45,1066.67,1065.58,1064.76,1064.38,1064.83,1065.34,1066.07,1066.9,1068.24,1068.94,1070.18,1071.17,1071.7,1071.52,1072.12,1072.44,1073.03,1073.47,1073.64,1073.35,1072.89,1072.17,1071.71,1071.2,1070.85,1070.16,1068.95,1067.84,1066.88,1066.02,1065.52,1065.1,1064.41,1063.88,1063.79,1063.94,1064.24,1064.24,1064.12,1063.45,1061.66,1060.21,1059.71,1058.7,1057.12,1055.31,1053.82,1052.66,1051.99,1052.24,1052.19,1051.88,1051.93,1052.16,1053.01,1053.93,1054.8,1055.22,1055.61,1056.53,1057.07,1057.04,1057.04,1057.2,1057.46,1058.14,1059.07,1059.69,1060.54,1061.86,1063.12,1064.69,1066.25,1067.51,1068.27,1069.02,1070.03,1070.41,1070.41,1070.81,1070.98,1070.64,1074.08,1073.67,1073.04,1072.28,1071.67,1071.43,1071.26,1071.11,1071.37,1067.53,1067.65,1067.78,1067.93,1067.97,1067.76,1067.54,1067.44,1067.67,1067.89,1067.8,1067.55,1067.19,1066.4,1065.44,1064.51,1063.74,1062.54,1061.22,1060.24,1059.29,1058.31,1057.34,1056.62,1055.69,1054.43,1052.83,1051.08,1047.3,1043.64,1041.81,1038.64,1020.46,1026.29,1021.96
1090.41,1090.92,1091.86,1093.12,1094.2,1094.74,1090.99,1091.2,1091.42,1091.1,1090.81,1090.38,1089.81,1091.26,1090.9,1092.64,1093.04,1094.2,1095.47,1095.79,1096.97,1097.88,1098.26,1098.12,1097.83,1097.44,1096.78,1095.63,1094.81,1093.2,1091.91,1090.56,1081.08,1079.74,1078,1076.14,1074.45,1072.89,1071.15,1069.7,1068.46,1067.64,1066.79,1065.99,1065.11,1065.07,1065.53,1066.46,1067.77,1069.74,1071.93,1074.63,1077.54,1080.78,1082.93,1080.45,1079.47,1080.03,1080.44,1081.12,1081.39,1081.72,1082.1,1085.02,1090.18,1091.46,1093.43,1095.69,1097.37,1099.6,1101.24,1103.12,1104.41,1105.23,1105.55,1105.58,1105.45,1105.09,1104.24,1103.48,1101.78,1099.89,1098.03,1104.51,1103.14,1101.48,1099.49,1097.31,1094.84,1093.5,1083.94,1081.99,1078.48,1077.65,1077.2,1076.56,1078.14,1077.79,1078.51,1079.39,1080.25,1085.25,1086.15,1091.18,1092.74,1094.27,1096.92,1098.88,1101,1103.23,1104.52,1105.68,1106.18,1106.15,1107.22,1107.19,1107.57,1108.28,1106.37,1109.12,1110.17,1111.79,1111.88,1112.97,1116.17,1116.5,1116.97,1117.84,1118.67,1119.7,1116.68,1116.63,1115.86,1114.7,1113.06,1111.64,1106.36,1105.6,1104.91,1107.72,1106.79,1105.75,1105.42,1108.94,1107.49,1106.08,1103.34,1100.32,1096.9,1094.21,1092.39,1090.49,1089.02,1088.56,1088.26,1088.7,1088.68,1089.4,1089.99,1090.95,1091.32,1091.68,1092.53,1092.96,1092.96,1092.65,1091.76,1090.62,1088.91,1087.06,1085.38,1082.5,1079.41,1076.53,1074.23,1072.26,1070.64,1069.63,1069.02,1068.56,1060.45,1060.25,1060.53,1060.71,1061.18,1061.96,1062.62,1063.23,1063.63,1064.62,1066.61,1067.84,1069.81,1072.44,1074.98,1079.08,1082.98,1086.91,1090.55,1092.95,1094.26,1095.52,1095.99,1095.95,1094.2,1093.02,1090.24,1091.06,1088.74,1087.89,1086.5,1081.6,1081.4,1081.3,1080.47,1079.48,1078.98,1077.87,1076.46,1074.82,1073.57,1071.86,1069.06,1067,1065.53,1064.03,1063.1,1062.14,1061.93,1061.35,1060.67,1060.7,1062.15,1063.86,1065.92,1067.85,1069.72,1071.45,1072.88,1073.7,1074.05,1073.59,1072.77,1071.62,1070.35,1069.34,1068.54,1067.87,1067.99,1067.88,1067.53,1067.29,1067.89,1068.21,1068.6,1068.55,1069.13,1069.77,1070.4,1071.36,1071.68,1071.1,1070.4,1069.66,1069.18,1068.79,1068.16,1067.99,1067.87,1068.65,1069.22,1069.9,1070.65,1071.64,1072.07,1072.6,1072.86,1072.75,1071.96,1072.03,1071.99,1072.24,1072.46,1072.72,1072.61,1072.3,1071.8,1071.54,1071.3,1071.2,1070.83,1069.77,1068.82,1067.84,1066.99,1066.4,1065.67,1064.92,1064.14,1063.67,1063.4,1063.12,1062.79,1062.32,1061.57,1060.07,1058.97,1058.65,1058.1,1056.99,1055.42,1054.11,1053.1,1052.35,1052.54,1052.43,1052.18,1052.17,1052.26,1052.87,1053.68,1054.25,1054.51,1054.87,1055.5,1056.15,1056.55,1056.93,1057.38,1058.15,1059.22,1060.41,1061.3,1062.44,1063.7,1064.71,1066.11,1067.4,1068.32,1068.88,1069.32,1070.04,1070.24,1070.1,1070.22,1070.4,1070.01,1073.51,1073.12,1072.68,1072.18,1071.84,1071.74,1071.78,1071.87,1072.32,1068.62,1068.82,1069.04,1069.14,1069.3,1069.15,1068.9,1068.83,1068.96,1069.27,1069.32,1069.28,1069.13,1068.57,1067.89,1067.33,1066.7,1065.66,1064.65,1063.62,1062.74,1061.73,1060.67,1059.79,1058.6,1057.11,1055.32,1053.58,1051.84,1048.08,1046.22,1038.91,1031.57,1035.79,1034.17
1087.04,1083.48,1084.57,1085.94,1087.12,1085.23,1083.32,1083.52,1083.73,1083.36,1082.96,1081.81,1080.7,1079.7,1079.04,1078.59,1083,1084,1085.17,1085.76,1091.44,1096.55,1097.39,1097.72,1097.57,1097.6,1097.39,1096.93,1096.36,1087.09,1086.03,1084.62,1083.25,1081.79,1079.8,1077.69,1075.48,1073.55,1071.35,1069.58,1068.27,1067.42,1066.32,1065.34,1064.43,1064.22,1064.61,1065.74,1067.06,1068.7,1070.24,1072.43,1075.01,1078.07,1080.42,1075.6,1076.69,1077.28,1077.96,1078.82,1079.33,1080.01,1082.69,1083.47,1088.79,1090.16,1092.06,1094.11,1095.69,1097.68,1099.14,1101.01,1102.28,1103.08,1103.34,1103.4,1103.23,1102.94,1102.37,1101.8,1100.37,1098.76,1097.12,1095.84,1102.63,1101.12,1099.38,1093.36,1090.78,1085.3,1083.18,1080.8,1079.35,1076.06,1075.26,1073.83,1074.92,1073.84,1073.81,1074.07,1074.51,1075.3,1079.94,1081.25,1087.14,1089.2,1093.05,1096.26,1099.69,1102.85,1104.87,1106.51,1107.17,1107.03,1107.8,1103.28,1101.14,1103.95,1104.03,1104.03,1104.89,1106.23,1108.41,1107.19,1114.72,1115.76,1116.39,1117.23,1114.78,1116.07,1117.29,1116.89,1116.55,1115.58,1114,1108.79,1107.51,1106.66,1109.94,1108.88,1108.33,1107.62,1107.42,1106.85,1109.32,1107.47,1104.64,1101.5,1097.98,1094.91,1092.36,1089.57,1087.5,1086.38,1085.48,1085.07,1084.34,1084.36,1084.84,1085.91,1086.4,1087.04,1088.19,1088.72,1089.15,1089.32,1089.01,1088.15,1086.63,1085.14,1083.83,1081.48,1079.32,1076.86,1074.96,1073.35,1072.31,1071.75,1071.46,1063.35,1063.38,1063.18,1063.44,1063.4,1063.81,1064.57,1065.21,1065.75,1066.14,1067.28,1069.2,1070.51,1072.6,1074.99,1077.2,1080.91,1084.42,1087.99,1091.17,1093.21,1094.23,1095.15,1095.21,1094.94,1093.22,1091.56,1088.71,1085.52,1083.2,1086.65,1081.64,1081.24,1081.62,1082.6,1082.4,1081.98,1081.8,1081.04,1079.8,1078.26,1076.87,1074.58,1071.18,1068.85,1067.23,1065.32,1064.38,1063.36,1063.1,1062.59,1062.03,1062.23,1063.83,1065.76,1067.94,1070.07,1072.12,1074.25,1075.88,1076.7,1076.62,1075.89,1074.58,1072.94,1071.16,1069.65,1068.17,1066.92,1066.64,1066.54,1065.92,1065.77,1066.26,1066.68,1067.08,1067.08,1067.82,1068.73,1069.51,1070.69,1071.24,1070.94,1070.54,1070.17,1070.22,1070.49,1070.35,1070.78,1071.16,1072.34,1073.06,1073.89,1074.56,1075.43,1075.34,1075.35,1074.96,1074.2,1072.9,1072.42,1072.02,1072,1072.07,1072.2,1072.16,1071.88,1071.51,1071.26,1071.01,1070.96,1070.77,1069.78,1068.92,1068.06,1067.22,1066.62,1065.92,1065.04,1064.08,1063.32,1062.72,1061.84,1061.2,1060.56,1059.95,1058.75,1057.84,1057.69,1057.37,1056.63,1055.38,1054.3,1053.63,1052.97,1053.15,1053.12,1052.9,1052.88,1053.15,1053.79,1054.58,1055.13,1055.48,1056.02,1056.53,1057.22,1057.78,1058.41,1059.1,1059.8,1060.83,1062.08,1063.04,1064.21,1065.5,1066.39,1067.43,1068.52,1069.12,1069.57,1069.81,1070.2,1070.18,1069.88,1070.1,1070.01,1069.71,1069.35,1073.09,1072.79,1072.48,1072.33,1072.42,1072.43,1072.64,1069.11,1069.38,1069.58,1069.86,1069.98,1070.1,1070.02,1069.91,1069.9,1069.98,1070.3,1070.51,1070.71,1070.98,1070.81,1070.42,1070.2,1069.82,1069.06,1068.15,1067.24,1066.38,1065.22,1064.05,1062.94,1061.36,1059.75,1057.87,1055.96,1054.13,1052.33,1050.43,1045.25,1042.64,1045.15,1044.13
1083.48,1084.01,1085.09,1086.41,1087.22,1087.22,1087.22,1087.3,1087.44,1086.78,1085.83,1084.5,1082.71,1080.76,1079.12,1078.09,1077.68,1077.97,1079,1079.83,1081.74,1083.45,1085.03,1086.14,1087.2,1083.46,1088.2,1087.83,1087.52,1086.48,1085.72,1084.59,1083.64,1082.3,1080.68,1078.7,1076.96,1075.2,1073.11,1071.26,1069.95,1068.77,1067.64,1066.32,1065.17,1064.78,1065.31,1066.41,1067.73,1069.08,1070.48,1072.48,1074.96,1077.8,1075.7,1079.64,1080.61,1076.68,1079.67,1080.63,1083.38,1081.8,1084.56,1085.08,1079.33,1082.81,1077.86,1092.98,1094.38,1096.02,1097.3,1099.1,1100.28,1101.02,1101.23,1101.16,1100.98,1100.65,1100.35,1100.15,1098.85,1097.56,1096.17,1095.05,1094.18,1092.95,1091.45,1089.43,1086.83,1085.2,1082.98,1080.77,1079.38,1078.09,1076.88,1074.95,1073.37,1071.57,1070.72,1070.4,1070.1,1070.41,1070.86,1072.02,1074.15,1076.74,1081.15,1085.56,1089.81,1093.76,1096.4,1098.26,1099.07,1098.89,1099.39,1098.47,1098.11,1098.66,1098.46,1098.16,1099.13,1100.73,1102.9,1103.87,1105.55,1107.25,1108.12,1109.6,1111.88,1113.45,1114.18,1117.66,1117.23,1116.29,1114.76,1113.34,1111.98,1111.02,1110.27,1109.36,1105.27,1105.06,1104.79,1104.03,1102.35,1100.3,1097.29,1094.3,1090.72,1087.12,1083.99,1080.72,1078.24,1076.69,1075.13,1073.9,1072.19,1071.71,1071.95,1073.2,1073.69,1074.57,1076.04,1076.86,1077.62,1078.36,1078.42,1077.88,1076.62,1075.64,1074.56,1072.67,1068.94,1067.13,1067.8,1066.87,1066.37,1066.27,1066.53,1066.67,1066.68,1066.42,1066.58,1066.29,1066.44,1067,1067.47,1067.78,1067.98,1069.1,1071.19,1072.64,1074.87,1076.99,1078.89,1081.98,1084.96,1088.16,1090.83,1092.53,1093.33,1093.89,1093.76,1093.3,1091.74,1090.14,1087.31,1084.51,1082.36,1082.02,1081.47,1081.31,1082.24,1083.61,1083.78,1083.6,1083.59,1083.04,1081.92,1080.22,1078.77,1076.47,1073,1068.39,1066.65,1064.9,1063.75,1062.65,1062.35,1061.88,1061.2,1061.47,1063.27,1065.18,1067.42,1071.74,1073.69,1076.26,1078.14,1078.78,1078.22,1077.29,1075.7,1073.73,1071.74,1069.97,1067.92,1066.27,1065.72,1065.51,1064.64,1064.39,1064.9,1065.21,1065.58,1065.69,1066.49,1067.46,1068.34,1069.67,1068.33,1070.39,1068.09,1070.3,1070.89,1069.6,1072.22,1073.12,1073.94,1073.27,1074.3,1077.54,1080.49,1081.23,1078.66,1078.21,1077.3,1076.06,1074.31,1073.4,1072.48,1071.96,1071.54,1071.52,1071.31,1068.82,1068.3,1070.23,1069.96,1069.79,1069.72,1068.97,1068.42,1067.56,1066.8,1068.48,1070.02,1069.13,1068.24,1067.07,1066.03,1062.47,1057.27,1056.57,1055.79,1054.65,1054.15,1054.07,1054.1,1055.69,1054.8,1053.95,1051.38,1050.88,1051.05,1051.16,1051.15,1051.26,1051.63,1052.51,1053.45,1056.3,1056.74,1055.22,1055.94,1058.97,1059.63,1060.44,1061.26,1062.01,1063.08,1064.34,1065.43,1066.66,1067.91,1068.69,1069.42,1070,1068.16,1068.4,1068.44,1068.5,1068.26,1067.88,1068,1070.2,1069.92,1069.69,1069.61,1069.46,1069.28,1069.26,1069.28,1069.24,1069.35,1069.72,1069.95,1070.06,1070.34,1070.45,1070.54,1070.43,1070.35,1070.3,1070.38,1070.85,1071.39,1071.83,1072.41,1072.57,1072.6,1072.69,1072.53,1069.74,1071.14,1070.17,1069.32,1068.11,1066.85,1065.54,1063.73,1061.85,1059.71,1057.54,1055.39,1053.11,1051.21,1048.05,1045.76,1044.59,1046.25
1084.58,1085.03,1086,1087.07,1087.49,1087.18,1086.71,1086.35,1086.11,1085.55,1082.61,1083.52,1081.89,1079.36,1077.12,1075.21,1074.02,1073.58,1073.94,1072.16,1075.99,1077.44,1077.4,1079.27,1081.2,1080.56,1086.02,1086.04,1085.84,1085.07,1084.68,1083.61,1082.7,1081.63,1080.25,1078.38,1076.98,1075.74,1073.87,1072.18,1071.17,1070.29,1069.02,1067.87,1066.85,1066.45,1067.15,1068.41,1069.71,1068.74,1072.27,1073.95,1076.29,1076.93,1077.25,1080.83,1081.2,1083.8,1084.18,1085.07,1078.92,1079.26,1061.74,1084.12,1073.62,1088.08,1064.84,1090.87,1092.08,1093.42,1094.49,1096.1,1097.26,1097.99,1098.31,1098.48,1097.99,1097.45,1097.22,1097.12,1095.92,1094.8,1093.6,1092.76,1092.1,1091.63,1090.59,1089.07,1086.86,1085.26,1083.3,1081.55,1080.38,1079.13,1077.63,1075.41,1073.34,1070.85,1069.37,1068.14,1066.92,1066.65,1066.81,1067.96,1070.29,1073.18,1078.18,1083.24,1087.97,1092.41,1095.32,1097.24,1098.3,1098.28,1098.55,1097.09,1096.46,1096.87,1096.58,1095.97,1096.64,1097.98,1099.9,1100.7,1102.56,1104.61,1105.38,1107.16,1110.02,1112,1116.9,1116.5,1116.02,1115.23,1113.8,1112.68,1111.52,1110.55,1109.82,1109.09,1109.3,1105.44,1105.18,1104.5,1102.6,1100.36,1097.17,1094.08,1090.48,1086.87,1083.28,1079.8,1076.98,1075.11,1073.38,1071.58,1069.28,1068.22,1068.37,1069.46,1070.1,1071.09,1072.64,1073.48,1074.63,1075.77,1076.24,1075.86,1074.82,1074,1073.15,1071.7,1070.81,1067.36,1066.25,1067.94,1068.03,1068.46,1069.12,1069.47,1069.46,1069.13,1069.02,1068.58,1068.66,1069,1069.2,1069.25,1069.33,1070.44,1072.34,1074,1076.44,1078.38,1079.89,1082.34,1084.86,1087.41,1089.68,1091.16,1091.78,1092,1091.77,1091.22,1089.9,1088.59,1086.2,1083.84,1082.16,1081.78,1081.35,1081.58,1083.03,1084.58,1084.78,1084.78,1084.76,1084.43,1083.26,1081.68,1080.11,1077.59,1074.33,1072.2,1068.52,1066.77,1065.74,1064.7,1064.33,1063.75,1063.09,1063.53,1065.14,1066.92,1068.91,1070.93,1075.1,1077.65,1079.46,1079.89,1078.98,1078.22,1076.62,1074.71,1072.61,1070.69,1068.35,1066.27,1065.61,1065.32,1064.19,1063.81,1064.18,1064.42,1064.62,1064.81,1065.73,1066.67,1067.56,1068.87,1069.78,1070.02,1070.2,1070.72,1071.65,1070.74,1073.86,1075.63,1076.98,1076.6,1077.84,1081.26,1084.33,1084.99,1084.59,1083.85,1082.27,1080.53,1078.4,1074.93,1073.51,1072.44,1071.66,1071.3,1071.13,1070.59,1067.77,1067.42,1069.2,1068.92,1069.06,1068.48,1067.94,1067.03,1070.71,1070.22,1069.55,1068.76,1067.72,1066.46,1065.03,1058.87,1060.09,1054.79,1053.95,1053.3,1052.88,1052.93,1053.03,1052.71,1054.24,1053.59,1053.35,1050.94,1051.1,1051.37,1051.65,1052.01,1052.63,1053.65,1054.82,1057.76,1058.32,1056.98,1057.73,1060.82,1059.64,1062.86,1063.68,1064.45,1065.5,1066.93,1068.05,1069.37,1070.63,1070.94,1071.29,1071.55,1071.66,1069.5,1069.27,1068.99,1068.54,1068.06,1068.11,1068.18,1067.94,1070.05,1069.96,1069.75,1069.66,1069.61,1069.65,1069.47,1069.45,1069.85,1070.04,1070.06,1070.23,1070.28,1070.3,1070.15,1070.07,1070.07,1070.16,1070.64,1071.27,1071.88,1072.56,1072.99,1073.27,1073.63,1073.66,1073.22,1072.8,1072.1,1071.41,1070.32,1069.18,1067.82,1065.98,1063.81,1061.26,1058.94,1056.43,1053.61,1049.16,1045.98,1045.85,1046.87,1051.2
1085.55,1085.86,1086.67,1087.42,1087.46,1086.8,1085.95,1085.37,1084.86,1084.25,1083.69,1082.49,1080.98,1078.46,1056.3,1049.94,1061.67,1067.58,1071.85,1061.03,1070.91,1067.61,1067.53,1078.07,1080.18,1066.7,1083.67,1084.04,1083.63,1082.67,1082.14,1080.94,1080.38,1079.7,1078.46,1076.68,1075.37,1074.76,1073.84,1073.06,1072.45,1071.8,1070.69,1069.5,1068.73,1068.53,1069.39,1070.57,1071.49,1072.71,1074.04,1075.92,1078.43,1081.38,1079.74,1085.41,1085.88,1086.34,1086.63,1087.3,1087.58,1060.85,1049.43,1082.5,1087.29,1085.67,1079.76,1089.91,1090.87,1091.72,1092.58,1093.76,1094.79,1095.43,1096.02,1095.96,1095.48,1094.81,1094.59,1094.41,1093.41,1092.51,1091.65,1091.04,1090.71,1090.34,1089.72,1088.63,1087.03,1085.62,1083.95,1082.58,1081.88,1080.56,1078.84,1076.37,1074.01,1071.13,1068.77,1066.67,1064.83,1064.04,1063.99,1065,1067.2,1070.18,1075.4,1080.61,1085.7,1090.18,1093.42,1095.57,1096.91,1096.9,1096.85,1095.22,1094.27,1094.49,1093.76,1092.56,1092.93,1093.88,1095.33,1096.11,1097.66,1099.69,1100.48,1102.5,1106.01,1108.07,1112.89,1112.42,1112.3,1111.84,1110.8,1110.18,1109.42,1108.41,1107.92,1107.57,1108,1104.5,1104.58,1103.91,1101.9,1099.46,1096.23,1093.13,1089.52,1085.99,1082.44,1078.86,1075.78,1073.65,1071.86,1069.82,1067.03,1065.52,1065.56,1066.69,1067.19,1068.23,1069.93,1070.78,1072.12,1073.54,1074.48,1074.15,1073.22,1072.8,1072.11,1070.9,1070.4,1069.48,1068.78,1068.56,1068.94,1069.72,1070.66,1071.24,1071.38,1071.02,1070.94,1070.19,1070.15,1070.42,1070.6,1070.41,1070.33,1071.32,1073.06,1074.73,1077.33,1079.2,1080.42,1082.44,1084.52,1086.67,1088.48,1089.65,1090.19,1090.28,1089.82,1089.39,1088.33,1087.31,1085.49,1083.79,1082.59,1082.32,1082.1,1082.54,1084.16,1085.75,1086.14,1083.89,1085.94,1085.46,1084.37,1082.7,1081.23,1078.71,1075.73,1073.75,1072.18,1063.98,1065.04,1061.91,1061.53,1060.92,1060.26,1060.76,1064.16,1063.67,1065.59,1067.35,1073.6,1078.33,1080,1080.13,1079.22,1078.52,1077.2,1075.42,1073.48,1071.53,1069.15,1066.87,1066.1,1065.88,1064.79,1064.46,1064.77,1065.17,1065.42,1065.8,1066.67,1067.45,1068.22,1069.27,1069.85,1070.12,1066.07,1068.87,1072.36,1071.83,1075.42,1077.69,1079.43,1075.06,1078.83,1082.33,1085.45,1084.02,1083.5,1082.61,1080.69,1078.61,1076.28,1074.84,1075.36,1073.84,1072.49,1071.78,1071.48,1070.66,1069.78,1064.75,1061.92,1067.87,1068.04,1065.54,1067.21,1066.37,1067.76,1067.36,1068.85,1068.08,1067.06,1065.72,1061.72,1059.86,1056.35,1053.13,1048.11,1049.84,1049.68,1047.63,1047.77,1047.67,1047.17,1051.19,1051.12,1051.29,1049.42,1050.05,1050.54,1051.1,1054.09,1055.16,1056.36,1055.1,1055.61,1054.34,1055.2,1058.45,1059.58,1060.9,1063.96,1064.83,1065.92,1069.55,1070.88,1072.08,1073.21,1073.38,1073.22,1073.07,1070.73,1072.76,1070.1,1067.38,1066.78,1068.45,1068.5,1068.54,1066.16,1068.24,1070.32,1070.18,1070.02,1069.95,1069.78,1069.43,1069.4,1069.61,1069.71,1069.57,1069.65,1069.63,1069.71,1069.63,1069.35,1069.21,1069.11,1069.47,1070.29,1071,1071.8,1072.32,1072.9,1073.52,1073.82,1073.86,1073.7,1073.18,1072.93,1072.03,1071.18,1069.76,1067.9,1065.48,1062.81,1060.32,1057.52,1054.52,1051.95,1048.61,1048.25,1049.3,1053.55
1086.97,1087,1087.38,1087.64,1087.12,1086.21,1085.27,1084.57,1084.02,1083.4,1082.82,1081.76,1080.22,1066.84,1020.37,1049.13,1016.79,1044.62,1068.4,1061.76,1067.12,1000.39,1069.77,1075.74,1077.62,1079.66,1081.13,1081.69,1081.3,1080.1,1079.57,1078.36,1077.7,1077.22,1076.2,1074.52,1073.44,1073.23,1073.32,1073.14,1073.09,1072.84,1072.12,1071.14,1070.79,1070.98,1072.09,1073.22,1074.28,1075.63,1077.08,1079.1,1081.47,1084.24,1086.88,1088,1088.27,1088.56,1088.53,1088.7,1088.69,1088.38,1087.76,1087.13,1087.14,1087.24,1087.58,1088.61,1089.47,1090.03,1090.48,1091.5,1092.31,1092.9,1093.65,1093.88,1093.16,1092.37,1091.99,1091.99,1091.29,1090.67,1089.87,1089.35,1089.17,1089.06,1088.67,1087.79,1086.51,1085.35,1083.8,1082.95,1082.62,1081.37,1079.66,1077.15,1074.5,1071.36,1068.43,1065.61,1063.09,1061.75,1061.51,1062.4,1064.37,1067.18,1072.36,1077.49,1082.59,1086.96,1090.22,1092.52,1093.97,1093.93,1093.76,1092.33,1091.36,1091.2,1090.2,1088.52,1088.58,1089.06,1090.05,1090.78,1092.07,1093.77,1094.65,1096.64,1100.4,1102.57,1103.58,1103.43,1103.8,1103.92,1103.45,1103.35,1102.95,1101.91,1101.35,1101.01,1101.57,1102.03,1102.05,1101.34,1099.38,1097,1094.18,1091.24,1088,1084.8,1081.46,1078.18,1075.2,1072.95,1071.09,1069.08,1066.29,1064.85,1064.94,1066.04,1066.44,1067.51,1069.06,1069.86,1071.15,1072.32,1072.82,1072.24,1071.4,1071.26,1070.74,1069.95,1069.74,1069.36,1069.18,1069.38,1070.21,1071.09,1071.9,1072.41,1072.46,1072.15,1072.05,1071.15,1070.92,1071.13,1071.31,1071.26,1071.22,1072.06,1073.6,1075.15,1077.7,1079.4,1080.51,1082.15,1083.94,1085.76,1087.15,1088.14,1086.41,1088.46,1088.24,1087.61,1086.84,1086.09,1084.87,1083.91,1083.13,1083.03,1083.06,1083.47,1084.93,1086.49,1087.17,1087.04,1086.68,1085.89,1084.75,1083.15,1081.83,1079.66,1077,1075.16,1073.67,1072.06,1066.71,1068.05,1065.48,1064.95,1064.36,1064.3,1065.04,1068.34,1067.72,1069.11,1070.59,1074.96,1078.65,1078.42,1077.75,1077.25,1076.4,1074.91,1073.13,1071.41,1068.96,1066.72,1065.94,1065.71,1064.68,1064.48,1064.81,1065.38,1065.8,1066.33,1067.2,1068.08,1068.74,1069.6,1069.9,1070.43,1070.82,1071.7,1073.34,1073.32,1079.42,1082.1,1084.06,1081.82,1083.5,1087.08,1090.21,1088.78,1090.5,1089.57,1085.42,1078.85,1078.76,1077.12,1075.3,1075.7,1073.85,1072.9,1072.19,1071.07,1069.96,1068.75,1065.52,1064.52,1066.88,1066.56,1068.22,1069.56,1066.54,1068.26,1063.4,1067.07,1066.3,1064.74,1062.68,1058.51,1057.07,1056.03,1053.24,1050.69,1048.39,1048.64,1048.87,1048.92,1048.71,1048.69,1053.27,1053.87,1054.52,1053.17,1053.95,1054.8,1055.62,1056.66,1057.81,1060.91,1059.36,1058.1,1059.08,1062.32,1061.34,1065.11,1066.23,1069.26,1070.29,1069.6,1072.98,1074.25,1075.16,1075.1,1074.69,1074.35,1071.78,1073.7,1073,1068.1,1067.31,1068.9,1068.96,1068.92,1066.63,1066.54,1068.67,1070.64,1070.39,1070.18,1069.91,1069.43,1069.2,1069.22,1069.19,1068.85,1068.84,1068.62,1068.59,1068.33,1068.02,1067.82,1067.63,1068.02,1068.83,1069.63,1070.61,1071.37,1072.07,1073,1073.72,1074.05,1074.3,1074.06,1074.12,1073.44,1072.81,1071.61,1069.74,1067.3,1064.66,1062.13,1059.18,1055.87,1053.18,1051.72,1051.16,1051.91,1053.66
1089.27,1089.07,1088.93,1088.79,1087.77,1086.5,1085.29,1084.34,1083.51,1082.57,1081.95,1081.28,1080.03,1077.85,1075.69,1069.21,1069.84,1070.97,1068.32,1070.16,1070.79,1069.13,1072.8,1074,1075.54,1077.45,1079.05,1079.73,1079.04,1077.45,1076.51,1075.3,1074.43,1074.15,1073.43,1072.03,1071.29,1071.8,1072.75,1073.42,1073.76,1074.22,1073.8,1073.04,1072.85,1073.14,1074.21,1075.46,1076.44,1077.8,1079.16,1080.98,1083.16,1085.74,1088.4,1089.62,1089.85,1090.12,1089.92,1089.97,1089.94,1089.29,1088.34,1087.34,1087.18,1086.94,1086.68,1076.21,1005.64,1054.53,1083.74,1088.86,1089.4,1089.81,1090.66,1091.12,1091.02,1090.44,1090.06,1090.07,1089.75,1089.47,1089,1088.55,1088.32,1088.32,1087.97,1087.4,1086.38,1085.36,1084.03,1083.39,1083.44,1082.26,1080.44,1077.62,1074.91,1071.56,1068.03,1064.85,1061.71,1059.95,1059.48,1060.28,1062.21,1064.96,1069.72,1074.72,1079.67,1083.82,1087.04,1089.24,1090.7,1090.78,1090.56,1089.22,1088.19,1087.89,1086.74,1084.72,1084.42,1084.44,1085.01,1085.66,1086.5,1087.93,1088.51,1090.3,1094.1,1096.54,1097.75,1098,1099.04,1099.65,1099.75,1100.22,1100.12,1099.09,1098.44,1098.04,1098.7,1098.94,1098.77,1098.04,1096.27,1094.26,1091.77,1089.34,1086.59,1083.73,1080.76,1077.82,1075.23,1073.16,1071.42,1069.31,1066.91,1065.57,1065.73,1066.71,1066.95,1067.86,1068.95,1069.58,1070.55,1071.29,1071.54,1070.82,1070.27,1070.26,1070.08,1069.79,1070.24,1070.34,1071.02,1071.79,1073.2,1074.22,1074.99,1075.43,1075.28,1074.7,1074.46,1073.17,1072.72,1072.76,1072.71,1072.64,1072.57,1073.37,1074.71,1076.09,1078.62,1080.16,1081.09,1082.32,1083.75,1085.15,1086.23,1086.78,1087.42,1087.34,1087.12,1086.97,1086.66,1086.36,1085.87,1085.77,1085.48,1085.46,1085.42,1085.8,1087.03,1088.35,1088.8,1088.4,1087.67,1084.58,1085.52,1084,1082.63,1080.75,1078.4,1076.72,1075.38,1073.84,1072.8,1067.75,1069.51,1066.82,1066.11,1065.97,1066.19,1066.8,1069.9,1068.81,1069.6,1071.43,1076.65,1076.14,1075.38,1075.21,1074.76,1073.58,1072.14,1070.67,1068.41,1066.45,1065.74,1065.53,1064.56,1064.46,1064.75,1065.55,1066.19,1066.81,1067.76,1068.61,1069.26,1070.15,1070.58,1071.13,1071.6,1070.57,1074.84,1077.28,1081.49,1084.1,1086.06,1083.78,1085.34,1086.55,1091.76,1090.06,1089.5,1088.41,1084.53,1084.57,1082.36,1078.5,1076.65,1074.66,1074.74,1073.53,1072.58,1071.08,1069.7,1068.09,1066.56,1065.22,1062.96,1064.95,1068.76,1065.6,1066.97,1064.38,1061.82,1061.4,1065.28,1063.6,1059.37,1057.43,1055.93,1053.03,1052.53,1047.94,1047.87,1048.22,1048.64,1049.05,1049.45,1049.93,1050.52,1053.49,1054.26,1055.29,1056.13,1057.04,1059.85,1060.62,1061.67,1060.38,1060.9,1059.63,1060.42,1061.47,1062.62,1064.2,1067.56,1068.52,1071.7,1073.02,1072.09,1075.56,1076.47,1076.3,1075.8,1075.38,1072.76,1074.57,1073.8,1070.99,1070.32,1071.85,1071.96,1071.97,1069.71,1069.63,1069.45,1071.39,1071.06,1070.68,1070.26,1069.72,1069.27,1069.1,1068.8,1068.28,1068.05,1067.62,1067.48,1067.07,1066.71,1066.43,1066.14,1066.31,1067.05,1067.91,1068.88,1069.69,1070.67,1071.72,1072.62,1073.39,1073.99,1074.19,1074.46,1074.03,1073.71,1072.71,1071.1,1068.8,1066.12,1063.64,1060.64,1057.26,1054.52,1052.65,1051.63,1051.95,1053.13
1090.95,1090.59,1090.2,1089.5,1088.28,1086.72,1085.23,1084.01,1083.06,1081.99,1081.34,1080.61,1079.51,1077.73,1075.86,1074.05,1072.28,1071.27,1070.56,1070.07,1070.37,1070.61,1071.62,1072.6,1073.86,1075.55,1077.12,1077.7,1076.97,1075.14,1073.91,1072.43,1071.37,1071.02,1070.48,1069.19,1068.9,1069.7,1071.3,1072.44,1073.06,1073.63,1073.5,1072.88,1072.93,1073.09,1074.31,1075.56,1076.65,1078.17,1079.68,1081.4,1083.48,1085.98,1088.27,1089.42,1089.43,1089.58,1089.18,1089.22,1089.12,1088.29,1087.28,1086.24,1085.87,1085.4,1084.98,1084.86,1084.85,1084.44,1084.78,1085.37,1085.82,1086.18,1087.33,1088.12,1088.61,1088.51,1088.42,1088.61,1088.51,1088.55,1088.43,1088.23,1087.97,1087.94,1087.79,1087.25,1086.34,1085.2,1083.98,1083.49,1083.73,1082.64,1080.88,1077.96,1075.28,1071.77,1067.97,1064.64,1061.3,1059.1,1058.37,1058.85,1060.36,1062.93,1067.52,1072.48,1077.06,1080.7,1083.8,1085.96,1087.67,1088.18,1087.9,1086.48,1085.4,1084.85,1083.64,1081.27,1080.52,1079.96,1079.9,1080.46,1081.01,1082,1082.27,1083.86,1087.7,1090.22,1091.73,1092.48,1093.89,1095.18,1095.98,1097,1097.19,1096.26,1095.7,1095.21,1095.74,1095.85,1095.55,1094.97,1093.46,1091.78,1089.76,1087.67,1085.36,1083.07,1080.47,1077.86,1075.7,1073.76,1072,1070.16,1067.96,1066.75,1066.81,1067.71,1067.91,1068.44,1069.19,1069.65,1070.41,1071.01,1071.14,1070.42,1069.97,1070.36,1070.41,1070.62,1071.39,1071.71,1072.57,1073.66,1075.33,1076.37,1077.07,1077.43,1077.12,1076.48,1076.04,1074.42,1073.7,1073.68,1073.5,1073.5,1073.51,1074.32,1075.36,1077,1079.36,1080.96,1081.82,1082.9,1084.09,1085.1,1085.77,1086.21,1086.64,1086.86,1086.97,1086.96,1086.87,1087.24,1087.58,1088.25,1088.67,1088.79,1088.78,1089.05,1089.98,1090.98,1090.98,1090.27,1089.18,1087.91,1086.76,1085.44,1084.18,1082.5,1080.51,1079.01,1077.9,1076.46,1075.4,1074.55,1069.68,1071.24,1068.34,1068.06,1067.94,1068.23,1068.8,1071.59,1070.02,1071.35,1071.95,1073.42,1074.64,1074.96,1074.82,1074.11,1073.07,1071.82,1070,1068.17,1067.58,1067.43,1066.33,1066.25,1066.5,1067.42,1068.06,1068.71,1069.48,1070.29,1071.08,1071.99,1072.36,1072.95,1073.4,1074.68,1077.03,1077.37,1083.79,1086.14,1087.92,1085.25,1086.6,1089.76,1092.6,1090.8,1092.78,1091.76,1088.39,1084.17,1079.94,1078.3,1078.82,1076.68,1074.14,1074.54,1073.26,1071.22,1069.39,1067.35,1065.54,1063.78,1063.44,1067.57,1067.02,1066.06,1065.07,1064.68,1060.02,1059.73,1059.61,1057.75,1058.15,1058.45,1052.82,1052.31,1052.44,1052.63,1050.77,1049.33,1049.94,1050.88,1051.79,1052.51,1053.1,1053.86,1058.93,1060.02,1060.67,1059.34,1059.66,1059.91,1060.82,1063.82,1064.16,1062.77,1061.34,1064.35,1063.23,1064.88,1066.28,1069.31,1070.12,1073.59,1074.84,1074.01,1077.13,1077.15,1076.69,1076.25,1075.87,1075.52,1074.76,1072.04,1071.25,1070.54,1070.54,1070.57,1068.32,1068.2,1067.99,1072.12,1071.62,1071.06,1070.48,1069.68,1069.12,1068.71,1068.24,1067.53,1067.05,1066.52,1066.11,1065.53,1064.99,1064.64,1064.32,1064.42,1065.04,1065.89,1066.88,1067.89,1069.01,1070.2,1071.31,1072.35,1073.24,1073.91,1074.5,1074.46,1074.43,1073.75,1072.28,1070.1,1067.49,1064.98,1061.82,1058.35,1055.66,1053.46,1051.99,1051.87,1052.38
1092.18,1091.63,1090.93,1090,1088.32,1086.56,1084.9,1083.64,1082.22,1080.72,1079.83,1078.94,1077.8,1076.12,1074.37,1072.44,1070.55,1069.31,1068.66,1067.97,1067.99,1068.09,1069.01,1069.75,1070.92,1072.63,1074.32,1074.97,1074.22,1072.3,1071.08,1069.43,1068.13,1067.72,1067.36,1066.38,1066.27,1067.41,1069.38,1070.92,1071.87,1072.49,1072.43,1071.81,1071.84,1072.07,1073.22,1074.36,1075.42,1076.86,1078.51,1080.26,1082.36,1084.85,1086.85,1087.67,1087.64,1087.78,1087.4,1087.57,1087.68,1087,1086.1,1085.04,1084.68,1084.08,1083.46,1082.87,1082.34,1081.76,1081.94,1082.5,1082.9,1083.46,1084.72,1085.74,1086.64,1086.96,1087.09,1087.41,1087.55,1087.82,1087.88,1087.66,1087.42,1087.4,1087.07,1086.54,1085.64,1084.73,1083.63,1083.31,1083.81,1083.08,1081.38,1078.54,1075.82,1072.48,1068.56,1065.25,1062.02,1059.46,1058.52,1058.79,1060.18,1062.31,1066.37,1070.88,1075.12,1078.26,1081.02,1083.13,1084.91,1085.56,1085.13,1083.69,1082.37,1081.46,1080.1,1077.4,1076,1074.7,1074.29,1074.82,1075.22,1075.89,1076.06,1077.48,1081.33,1083.63,1085.2,1086.39,1088.23,1090.24,1091.49,1093.09,1093.78,1093.04,1092.67,1092.54,1092.98,1092.71,1092.12,1091.63,1090.64,1089.36,1087.6,1085.94,1084.2,1082.28,1080.21,1078.26,1076.41,1074.57,1072.84,1071.24,1069.32,1068.15,1068.17,1069.01,1069.08,1069.43,1069.97,1070.18,1070.79,1071.3,1071.39,1070.45,1069.95,1070.17,1070.44,1071.04,1072.06,1072.39,1073.49,1074.9,1077.26,1078.56,1079.5,1079.89,1079.42,1078.65,1077.85,1076.11,1075.09,1074.6,1074.15,1074.15,1073.91,1074.53,1075.44,1077.32,1079.67,1081.29,1082.06,1083.11,1084.06,1084.95,1085.62,1086.08,1086.54,1086.98,1087.5,1087.89,1088.12,1088.98,1089.9,1090.94,1092.02,1092.26,1092.33,1092.41,1093.18,1093.86,1093.45,1092.28,1090.93,1089.54,1088.32,1087.18,1086.05,1084.54,1082.9,1081.53,1080.66,1079.37,1078.2,1077.18,1076.46,1071.37,1072.71,1070.09,1069.79,1069.7,1069.94,1070.25,1072.6,1071.2,1071.44,1070.67,1072.16,1074.8,1074.88,1074.59,1073.88,1073.18,1071.8,1070.52,1070.06,1069.83,1068.83,1068.98,1069.22,1070.08,1070.8,1071.31,1071.86,1072.66,1073.52,1074.36,1074.74,1075.28,1075.76,1077.07,1079.4,1081.89,1085.91,1088.02,1089.48,1086.45,1087.56,1090.46,1093.04,1091.13,1093.14,1092.3,1089.09,1085.12,1083.47,1081.96,1080.37,1080.31,1077.6,1075.41,1075.85,1071.19,1068.96,1066.47,1064.21,1064.32,1063.68,1065.59,1062.97,1064.19,1063.17,1062.86,1062.63,1058.24,1058.32,1056.81,1059.53,1057.83,1054.72,1054.6,1053.4,1054.09,1054.68,1053.49,1052.07,1053.41,1054.66,1055.46,1056.04,1056.68,1057.36,1064.9,1065.3,1065.95,1063.57,1063.45,1061.88,1064.65,1064.94,1063.34,1063.97,1064.74,1063.41,1065.24,1066.7,1067.53,1070.53,1071.76,1075.12,1076.47,1075.3,1077.7,1077.38,1077.02,1076.69,1076.5,1075.85,1073.18,1072.51,1074,1071.92,1071.78,1069.44,1069.29,1068.92,1072.84,1072.22,1071.48,1070.72,1069.9,1069.1,1068.56,1067.9,1066.98,1066.37,1065.7,1065.19,1064.29,1063.76,1063.38,1062.94,1063.07,1063.76,1064.59,1065.49,1066.65,1067.93,1069.14,1070.37,1071.64,1072.73,1073.68,1074.53,1074.74,1074.93,1074.53,1073.17,1071.13,1068.7,1066.2,1062.97,1059.39,1056.59,1054.21,1052.47,1051.87,1051.83
1093.05,1092.29,1091.3,1089.91,1087.83,1085.75,1083.88,1082.3,1080.72,1078.9,1077.53,1076.38,1075.13,1073.57,1071.9,1070.13,1068.28,1066.94,1066.18,1065.4,1065.08,1064.98,1065.71,1066.35,1067.57,1069.16,1070.62,1071.16,1070.42,1068.85,1067.7,1066.1,1064.9,1064.5,1064.6,1063.96,1064.37,1065.54,1067.82,1069.62,1070.58,1071.22,1071.12,1070.36,1070.4,1070.54,1071.53,1072.63,1073.48,1074.93,1076.72,1078.42,1080.62,1083,1085.1,1085.99,1086.02,1086.18,1086.03,1086.32,1086.64,1086.04,1085.26,1084.17,1083.6,1082.79,1082.14,1081.51,1081.06,1080.36,1080.64,1081.24,1081.78,1082.31,1083.62,1084.51,1085.36,1085.54,1085.73,1086.04,1086.02,1086.18,1086.16,1086.08,1085.99,1086.17,1085.94,1085.36,1084.63,1083.86,1083.09,1083.12,1084.04,1083.68,1082.14,1079.53,1077.19,1074.03,1070.26,1066.78,1063.8,1060.86,1059.54,1059.52,1060.53,1062.31,1065.38,1069.25,1072.87,1075.7,1078.24,1080.11,1081.74,1082.51,1082.16,1080.63,1078.92,1077.29,1075.6,1072.86,1071.3,1069.76,1068.99,1069.11,1069.1,1069.72,1069.8,1071.04,1074.77,1076.77,1078.27,1079.96,1082.26,1088.98,1086.58,1088.81,1090.03,1089.53,1089.66,1089.89,1090.4,1089.9,1089.35,1088.97,1088.45,1087.55,1086.19,1084.96,1083.47,1081.96,1080.56,1079.04,1077.59,1075.78,1074.24,1072.71,1071.15,1070.23,1070.24,1070.85,1070.97,1071.22,1071.66,1071.94,1072.4,1072.66,1072.38,1071.21,1070.6,1070.65,1071.03,1071.61,1072.64,1073.05,1074.48,1076.19,1079,1080.42,1081.44,1081.94,1081.44,1080.59,1079.76,1077.59,1076.19,1075.2,1074.64,1074.55,1073.88,1074.38,1075.18,1077.01,1079.37,1081.13,1082.16,1083.26,1084.05,1084.92,1085.57,1086.15,1086.87,1087.36,1088.11,1088.72,1089.14,1090.24,1091.65,1093.1,1094.43,1094.95,1095.21,1095.43,1096.16,1096.42,1095.84,1094.31,1092.85,1091.29,1090.08,1088.98,1087.94,1086.65,1085.34,1084.17,1083.39,1082.21,1081.03,1079.96,1079.09,1078.12,1075.09,1076.62,1073.86,1073.44,1073.31,1073.25,1073.04,1075.47,1073.08,1072.32,1071.72,1074.61,1075.09,1075.15,1074.91,1074.53,1073.76,1073,1072.7,1072.61,1071.75,1072,1072.16,1073.01,1073.6,1074.13,1074.76,1075.66,1076.65,1077.56,1077.96,1078.5,1078.93,1080.28,1082.4,1084.51,1088.17,1089.76,1090.85,1089.44,1090.33,1090.76,1095.47,1091.19,1093.08,1092.52,1089.49,1088,1086.71,1085.18,1083.68,1081.48,1078.55,1076.18,1071.85,1071.22,1068.45,1065.69,1063.14,1060.74,1062,1061.68,1061.16,1060.46,1061.9,1061.68,1061.54,1061.59,1059.64,1058.49,1057.12,1055.9,1053.56,1054.21,1055.82,1057,1057.89,1059.17,1058.02,1059.41,1060.68,1061.04,1061.29,1061.5,1061.98,1062.73,1065.12,1065.38,1064.83,1064.21,1064.53,1064.84,1064.85,1065.26,1065.68,1066.2,1064.83,1066.56,1068.04,1068.97,1069.79,1073.28,1074.49,1075.69,1076.9,1075.11,1077.2,1077.14,1076.86,1076.84,1076.36,1073.82,1073.17,1074.81,1074.81,1074.65,1072.26,1071.97,1071.56,1073.17,1072.46,1071.55,1070.69,1069.7,1068.78,1068.1,1067.2,1066.12,1065.28,1064.47,1063.66,1062.89,1062.32,1061.88,1061.54,1061.67,1062.34,1063.28,1064.37,1065.63,1067.03,1068.15,1069.59,1071.01,1072.35,1073.47,1074.57,1074.88,1075.27,1075.1,1074.05,1072.24,1070.02,1067.63,1064.38,1060.65,1057.85,1055.15,1053.08,1052.07,1051.41
1093.08,1092.22,1090.91,1089.31,1087,1084.84,1083.08,1081.26,1079.53,1077.64,1076.56,1075.55,1074.46,1073.08,1071.71,1069.91,1068.39,1067.17,1066.25,1065.14,1064.16,1063.66,1063.76,1063.98,1064.73,1065.92,1067.13,1067.58,1066.96,1065.59,1064.66,1063.27,1062.2,1062.27,1066.79,1062.62,1063.5,1065.25,1067.96,1070.11,1071.49,1072.55,1072.66,1072.07,1072.2,1072.38,1073.12,1073.62,1073.84,1074.92,1076.65,1078.3,1080.18,1082.06,1084,1084.99,1085.33,1085.78,1085.79,1086.14,1086.52,1086.02,1085.08,1083.99,1083.31,1082.25,1081.44,1080.8,1080.29,1079.47,1079.61,1080.23,1080.79,1081.31,1082.37,1083.27,1083.98,1083.94,1084.13,1084.35,1084.44,1084.58,1084.33,1083.86,1083.82,1084.18,1084.22,1083.78,1083.16,1082.49,1082.03,1082.69,1084.14,1084.03,1082.77,1080.52,1078.46,1076.05,1072.73,1069.46,1066.34,1061.29,1061.73,1061.3,1061.8,1062.95,1065.13,1068,1070.87,1073.2,1075.42,1077.16,1078.89,1079.82,1079.6,1078.43,1076.98,1075.27,1073.32,1070.56,1068.74,1067.19,1065.97,1065.82,1065.34,1065.35,1065.1,1065.97,1069.19,1070.89,1071.93,1077.64,1080.1,1082.76,1084.76,1087.72,1089.42,1089.46,1090.17,1091.02,1091.66,1087.2,1086.78,1086.78,1086.78,1086.28,1085.33,1084.32,1083.27,1082.22,1081.4,1080.38,1079.15,1077.54,1076.08,1074.86,1073.58,1072.89,1072.84,1073.35,1073.37,1073.53,1073.87,1074.03,1074.46,1074.45,1073.81,1072.47,1071.92,1071.95,1072.23,1072.82,1073.77,1074.3,1075.87,1077.48,1080.43,1081.86,1083.15,1083.78,1083.41,1082.77,1081.54,1079.12,1077.84,1076.68,1075.87,1075.36,1074.45,1074.54,1075.1,1077.04,1079.48,1081.49,1082.53,1083.63,1084.48,1085.36,1086.14,1086.89,1087.74,1088.39,1089.5,1090.52,1091.4,1092.66,1094.42,1096.24,1097.64,1098.09,1098.18,1098.08,1098.16,1097.95,1097.04,1095.18,1093.41,1091.9,1090.86,1090.01,1089.33,1088.28,1087.29,1086.45,1085.8,1084.89,1083.71,1082.53,1081.56,1080.44,1079.46,1076.34,1077.56,1074.55,1073.99,1073.68,1073.19,1073.05,1074.69,1071.84,1071.62,1072.56,1075.68,1076,1076.07,1075.98,1075.5,1075,1075.04,1074.88,1074.35,1074.68,1074.8,1075.73,1076.56,1077.27,1078.19,1079.16,1080.44,1081.22,1081.74,1082.31,1082.68,1083.89,1085.68,1087.26,1090.51,1091.5,1092.09,1092.26,1094.94,1095.31,1095.41,1095.39,1095.22,1092.46,1091.73,1090.51,1087.2,1085.91,1084.42,1082.35,1079.28,1076.72,1074.34,1071.44,1070.64,1067.62,1064.9,1062.16,1060.94,1060.57,1060.07,1059.4,1056.48,1058.43,1058.27,1058.32,1056.4,1055.5,1054.52,1051.55,1054.04,1055.09,1057.26,1059.06,1060.23,1061.74,1062.93,1062.18,1063.59,1063.57,1063.61,1063.5,1063.66,1064.16,1064.17,1066.25,1065.39,1064.4,1064.53,1064.59,1064.4,1064.63,1064.92,1065.36,1066.11,1065.61,1067.18,1068.03,1068.91,1070.17,1073.49,1074.82,1075.84,1076.44,1076.59,1076.68,1076.63,1076.74,1076.42,1076.13,1073.51,1075.21,1075.19,1074.9,1072.46,1072.13,1071.48,1073.06,1072.22,1071.24,1070.24,1069.26,1068.29,1067.36,1066.33,1065.23,1064.27,1063.34,1062.49,1061.63,1061.13,1060.66,1060.41,1060.62,1061.35,1062.4,1063.54,1064.94,1066.4,1067.74,1069.24,1070.83,1072.21,1073.61,1074.75,1075.27,1075.76,1075.83,1074.99,1073.42,1071.42,1069.19,1065.98,1062.3,1059.14,1056.32,1054.05,1052.4,1051.25
1093.31,1092.29,1090.76,1088.86,1086.64,1084.52,1082.65,1080.98,1079.11,1077.38,1076.44,1075.67,1074.82,1073.82,1072.9,1071.65,1070.24,1069.43,1068.44,1067.16,1065.93,1064.82,1064.2,1063.63,1063.56,1064.13,1065.06,1065.54,1065.12,1063.91,1063.19,1062.1,1061.2,1061.46,1066.1,1066.03,1066.95,1064.7,1067.41,1069.88,1071.49,1072.76,1073.2,1073.04,1073.5,1073.8,1074.39,1074.64,1074.66,1075.6,1077.19,1078.48,1080.14,1081.73,1083.2,1084.09,1084.4,1084.94,1085.06,1085.34,1085.64,1085.12,1084.23,1083.26,1082.66,1081.54,1080.86,1080.21,1079.96,1079.37,1079.64,1080.09,1080.59,1081.13,1082.38,1083.24,1083.74,1083.52,1083.6,1083.63,1083.71,1083.75,1083.4,1082.93,1082.76,1083.15,1083.36,1083.11,1082.58,1082.07,1081.83,1082.59,1084.05,1084.2,1083.27,1081.26,1079.38,1077.41,1074.81,1071.95,1069.03,1066.1,1064.34,1063.38,1063.43,1064.14,1065.59,1067.65,1069.78,1071.52,1073.36,1075.04,1076.69,1077.53,1077.42,1076.45,1075.39,1073.79,1072.04,1069.28,1067.22,1065.54,1064.19,1063.82,1062.96,1062.27,1061.1,1061.4,1063.76,1064.92,1065.61,1067.55,1073.78,1076.32,1078.59,1082.1,1084.36,1085.17,1086.75,1088.15,1089.08,1085.03,1085.15,1085.66,1086.19,1085.95,1085.27,1084.63,1083.76,1083.09,1082.74,1082.08,1081.2,1079.51,1078.28,1077.39,1076.44,1075.99,1075.88,1076.01,1076,1075.92,1076.13,1076.1,1076.27,1075.96,1074.94,1073.38,1072.77,1072.71,1073.09,1073.67,1074.66,1075.11,1076.7,1078.2,1081.21,1082.52,1083.76,1084.43,1083.97,1082.94,1081.94,1079.61,1078.28,1076.86,1076.05,1075.58,1074.35,1074.48,1075.14,1076.97,1079.35,1081.6,1082.94,1084.11,1084.89,1085.98,1086.87,1087.96,1088.93,1089.85,1091.07,1092.44,1093.52,1094.83,1096.67,1098.53,1099.72,1099.84,1099.72,1099.29,1099.02,1098.46,1097.55,1095.53,1093.91,1092.42,1091.62,1091.06,1090.6,1089.74,1088.86,1088.07,1087.74,1086.74,1085.52,1084.36,1083.47,1082.48,1081.43,1080.26,1076.89,1077.87,1074.78,1074.18,1073.51,1072.82,1072.11,1073.54,1071.39,1072.55,1076.03,1076.61,1076.92,1076.84,1076.69,1076.61,1076.99,1077.2,1077.06,1077.65,1077.93,1079.14,1080.16,1081.21,1082.36,1083.1,1084.32,1084.83,1085,1085.53,1085.57,1086.5,1087.87,1088.91,1089.58,1090.06,1090.35,1090.28,1090.58,1090.83,1093.05,1093.08,1093.02,1092.61,1091.98,1091.01,1087.94,1086.7,1085.41,1083.34,1080.57,1078.06,1073.44,1070.52,1067.43,1068.58,1063.47,1060.38,1058.75,1057.95,1056.99,1056.08,1055.17,1054.69,1054.17,1053.9,1054.15,1053.52,1051.01,1050.81,1051.88,1055.47,1058.09,1060.36,1062.05,1063.79,1065.19,1066.75,1065.83,1065.61,1065.49,1065.05,1064.83,1065.14,1064.96,1064.6,1067.89,1066.59,1066.46,1066.35,1066.05,1066.14,1064.06,1064.33,1065.03,1066.43,1065.8,1066.61,1067.6,1068.7,1069.8,1073.24,1074.31,1075.04,1075.45,1075.72,1075.78,1076.01,1075.91,1075.81,1077.69,1075.15,1075.17,1074.82,1072.31,1071.91,1071.28,1072.78,1071.89,1070.73,1069.79,1068.82,1067.84,1066.95,1065.94,1064.85,1063.76,1062.87,1062.05,1061.08,1060.74,1060.3,1060.11,1060.43,1061.18,1062.42,1063.68,1065.19,1066.66,1067.91,1069.57,1071.1,1072.69,1074.11,1075.24,1075.81,1076.36,1076.59,1075.97,1074.6,1072.84,1070.74,1067.75,1064.23,1060.98,1057.71,1055.11,1052.8,1050.75
1092.86,1091.6,1089.86,1087.88,1085.63,1083.68,1081.93,1080.44,1078.62,1076.8,1075.85,1075.02,1074.04,1073.59,1073.25,1072.45,1071.51,1070.92,1070.28,1069.19,1067.91,1066.86,1065.65,1064.49,1063.68,1063.6,1064.06,1064.42,1064.25,1063.23,1062.59,1061.73,1061.19,1061.72,1066.5,1066.68,1067.56,1065.07,1067.76,1070.41,1072.02,1073.32,1073.98,1074.06,1074.64,1075.08,1075.5,1075.45,1075.18,1075.8,1077.1,1078.32,1079.48,1080.55,1081.64,1082.56,1083.16,1083.73,1084.06,1084.45,1084.76,1084.42,1083.74,1082.91,1082.48,1081.58,1081.08,1080.48,1080.44,1080.02,1080.4,1081.05,1081.53,1082.15,1083.17,1083.82,1084.52,1084.23,1084.34,1084.24,1084.23,1084.11,1083.61,1082.95,1082.74,1082.86,1082.9,1082.46,1082.06,1081.47,1081.01,1081.44,1082.8,1083,1082.22,1080.41,1078.85,1077.34,1075.33,1073.14,1070.94,1068.33,1066.64,1065.6,1065.21,1065.54,1066.18,1067.54,1069.07,1070.42,1071.99,1073.44,1074.88,1075.74,1075.57,1075,1074.38,1073.15,1071.32,1068.66,1066.64,1065.13,1063.87,1063.24,1062.09,1060.71,1059.16,1058.81,1060.41,1060.87,1061.18,1062.91,1068.96,1071.31,1073.74,1076.98,1079.61,1081.11,1083.14,1085.24,1086.61,1083.03,1083.71,1084.86,1085.7,1086.04,1085.66,1085.31,1084.68,1084.33,1084.32,1084.08,1083.51,1081.61,1080.46,1079.82,1079.14,1078.85,1078.46,1078.46,1078.24,1077.9,1077.98,1077.89,1077.91,1077.27,1075.95,1074.17,1073.52,1073.34,1073.83,1074.43,1075.44,1075.86,1077.28,1078.79,1081.82,1083.07,1084.07,1084.76,1084.2,1083.13,1082.28,1080.16,1078.5,1076.9,1076.01,1075.56,1074.15,1074.4,1074.93,1076.65,1078.93,1081.6,1083.44,1084.74,1085.64,1086.92,1088.06,1089.36,1090.61,1091.7,1093.1,1094.48,1095.73,1096.9,1098.74,1100.42,1101.44,1101.3,1100.83,1100.12,1099.46,1098.78,1097.76,1095.83,1094.17,1092.82,1092.18,1091.83,1091.43,1090.72,1089.86,1089.19,1088.77,1087.89,1086.75,1085.66,1084.88,1083.9,1082.82,1081.4,1080.12,1074.32,1075.3,1072.2,1071.28,1070.36,1069.44,1068.69,1070.93,1069.76,1073.39,1074.07,1074.5,1076.69,1076.68,1076.99,1077.6,1078.11,1078.44,1079.08,1079.54,1081.05,1082.25,1083.39,1084.35,1084.96,1085.93,1086.19,1086.16,1086.24,1085.96,1086.72,1087.63,1088.23,1088.6,1088.9,1088.95,1088.8,1089.3,1089.55,1089.57,1089.59,1091.76,1093.64,1093.01,1087.83,1082.58,1081.33,1080.24,1078.58,1076.07,1073.78,1071.6,1071.26,1068.41,1065.52,1064.63,1061.22,1059.05,1057.69,1056.49,1055.21,1053.98,1052.96,1047.66,1051.62,1051.76,1051.46,1051.58,1047.66,1049.24,1051.01,1058.3,1060.99,1063.04,1065.05,1066.77,1068.25,1069.69,1067.22,1064.8,1064.24,1063.69,1063.81,1063.5,1062.91,1063.71,1064.4,1064.18,1063.95,1063.51,1061.27,1061.25,1063.62,1061.98,1063.35,1064.7,1063.33,1064.28,1065.33,1066.32,1067.45,1070.76,1071.48,1074.2,1074.58,1072.55,1074.98,1075.1,1075.17,1075.18,1074.94,1074.88,1074.59,1072.14,1071.69,1068.85,1068.18,1071.53,1070.35,1069.43,1068.52,1067.59,1066.68,1065.62,1064.63,1063.55,1062.59,1061.77,1060.93,1060.47,1060.1,1060.09,1060.5,1061.33,1062.64,1064.15,1065.79,1067.39,1068.69,1070.43,1072.01,1073.65,1075.03,1076.11,1076.63,1077.21,1077.36,1076.92,1075.78,1074.15,1072.25,1069.53,1066.17,1063.07,1059.53,1056.51,1053.9,1051.3
1091.51,1090.18,1088.38,1086.46,1084.37,1082.41,1080.65,1079.14,1077.2,1075.16,1073.66,1072.54,1071.62,1071.21,1070.92,1070.42,1069.74,1069.33,1068.86,1067.98,1066.9,1066.02,1064.98,1063.98,1063.11,1062.86,1063.28,1063.78,1063.95,1063.36,1062.84,1062.25,1061.74,1062.26,1067.19,1067.74,1068.71,1065.96,1068.25,1070.6,1072.06,1073.32,1074.1,1074.35,1074.99,1075.33,1075.72,1075.79,1075.7,1076.06,1077.04,1077.8,1078.42,1078.95,1079.7,1080.48,1080.95,1081.34,1081.75,1082.17,1082.63,1082.49,1082,1081.45,1081.02,1080.45,1080.23,1079.77,1079.81,1079.7,1080.27,1081.12,1081.7,1082.27,1083.17,1083.76,1084.13,1083.6,1083.39,1083.17,1082.87,1082.64,1082.16,1081.55,1081.17,1081.4,1081.73,1081.46,1081.17,1080.44,1080.06,1080.44,1081.69,1082.04,1081.51,1079.92,1078.61,1077.38,1076,1074.38,1072.55,1070.29,1068.61,1067.32,1066.63,1066.65,1066.94,1067.77,1069,1069.97,1071.3,1072.4,1073.74,1074.69,1074.54,1074.16,1073.87,1072.77,1071.3,1068.82,1066.82,1065.35,1064.23,1063.59,1062.51,1060.95,1059.2,1058.39,1059.23,1059.53,1059.6,1060.88,1066.6,1068.6,1070.68,1073.63,1076.28,1078.38,1080.53,1082.92,1084.8,1081.74,1082.96,1084.54,1086.14,1087.29,1087.03,1087.14,1086.85,1086.68,1087.03,1087.03,1086.38,1084.15,1082.78,1082.19,1081.64,1081.5,1080.93,1080.53,1080.33,1079.81,1079.86,1079.81,1079.67,1078.85,1077.06,1075.23,1074.25,1073.8,1074.14,1074.72,1075.67,1075.96,1077.35,1078.97,1082.22,1083.6,1084.63,1085.41,1084.99,1084.13,1083.28,1081.03,1079.18,1077.31,1076.29,1075.66,1074.16,1074.3,1074.79,1076.46,1078.66,1081.26,1083.38,1084.76,1085.86,1087.41,1088.9,1090.47,1091.97,1093.26,1094.74,1096.17,1097.33,1098.44,1100.02,1101.42,1102.08,1101.64,1100.91,1099.89,1099.03,1098.25,1097.22,1095.36,1093.86,1092.6,1092.09,1091.77,1091.58,1091.02,1090.24,1089.55,1089.24,1088.5,1087.51,1086.58,1085.74,1084.76,1083.55,1082.26,1080.98,1079.44,1073.72,1074.8,1071.54,1070.57,1069.44,1068.67,1068.5,1071.47,1072.57,1073.29,1071.45,1073.79,1076.02,1076.34,1076.98,1077.62,1078.14,1078.94,1079.37,1080.81,1082.04,1083.23,1084.2,1084.74,1085.63,1085.83,1085.75,1085.65,1085.27,1085.91,1086.56,1086.91,1087.01,1087.07,1087.12,1086.95,1087.55,1090.18,1090.07,1089.94,1089.81,1089.44,1088.79,1087.9,1082.57,1081.44,1078.36,1076.92,1074.79,1072.91,1073.29,1071.18,1070.77,1068.24,1062.79,1063.48,1058.82,1057.06,1055.61,1054.01,1052.38,1051.32,1048.04,1047.38,1049.79,1049.69,1050.11,1050.96,1048.54,1050.6,1053.72,1061.05,1063.31,1065.44,1067.2,1068.83,1070.11,1069.9,1067.43,1064.57,1063.75,1063.69,1063.22,1062.49,1063.31,1061.71,1063.53,1063.25,1062.81,1060.48,1060.38,1062.61,1060.88,1062.13,1063.34,1064.09,1062.74,1063.68,1064.54,1065.62,1066.67,1069.68,1070.29,1072.87,1073.16,1073.43,1073.64,1073.86,1074.05,1074.04,1074,1073.78,1071.29,1070.96,1070.37,1067.54,1066.6,1069.76,1068.87,1068.07,1067.22,1066.36,1065.37,1064.35,1063.37,1062.4,1061.51,1060.66,1060.38,1060.25,1060.31,1060.88,1061.8,1063.32,1064.95,1066.92,1068.8,1070.18,1071.93,1073.49,1075.05,1076.57,1077.43,1077.9,1078.2,1078.29,1077.8,1076.7,1075.55,1073.42,1070.68,1067.49,1064.45,1061.07,1057.83,1054.8,1051.67
1090.4,1088.99,1087.21,1085.41,1083.4,1081.46,1079.69,1078.07,1075.94,1073.68,1072.06,1070.83,1069.72,1069.4,1069.14,1068.75,1068.28,1068.06,1067.73,1067.06,1066.34,1065.82,1065.06,1064.36,1063.88,1063.95,1064.37,1064.89,1065.03,1064.64,1064.14,1063.65,1063.2,1063.62,1068.43,1069.07,1070.02,1067.05,1069.13,1071.27,1072.58,1073.66,1074.25,1074.47,1075.04,1075.44,1075.86,1075.87,1075.68,1075.85,1076.43,1076.8,1077.1,1077.25,1077.68,1078.23,1078.68,1079.04,1079.53,1080.24,1080.66,1080.63,1080.43,1080.12,1079.8,1079.52,1079.38,1078.94,1079.02,1079.09,1079.74,1080.64,1081.12,1081.76,1082.42,1083,1083.22,1082.46,1081.98,1081.28,1080.85,1080.35,1079.57,1078.74,1078.15,1078.21,1078.4,1078.09,1077.71,1076.89,1076.49,1076.65,1077.61,1078.13,1078.06,1076.67,1075.67,1074.95,1074.2,1073.12,1072.13,1070.43,1068.98,1067.7,1067.23,1067.42,1067.59,1068.22,1069.36,1070.04,1071.02,1072.08,1073.42,1074.53,1074.38,1073.97,1073.72,1072.94,1071.66,1069.46,1067.4,1065.97,1064.78,1064.02,1062.92,1061.28,1059.26,1058.22,1058.64,1058.7,1058.42,1059.37,1064.79,1066.55,1068.33,1071.06,1073.82,1076.26,1078.83,1081.82,1083.92,1081.46,1083.08,1085.12,1087.56,1089.19,1089.2,1089.48,1089.27,1089.01,1089.14,1088.89,1088.09,1085.79,1084.16,1083.45,1082.78,1082.31,1081.6,1081.1,1080.86,1080.24,1080.01,1079.82,1079.86,1079.15,1077.63,1076.04,1075.07,1074.38,1074.7,1075.24,1076.08,1076.24,1077.26,1078.7,1081.85,1083.42,1084.74,1085.8,1085.5,1084.63,1083.62,1081.45,1079.52,1077.24,1076.02,1075.17,1073.18,1073,1073.46,1075.06,1077.2,1080,1082.19,1083.75,1085.22,1087.38,1089.36,1091.15,1093.02,1094.57,1096.24,1097.8,1098.92,1099.74,1100.95,1101.75,1102.1,1101.43,1100.44,1099.22,1098.28,1097.28,1096.16,1094.5,1093.22,1092.1,1091.69,1091.44,1091.34,1090.8,1090.23,1089.66,1089.42,1088.68,1088,1087,1086.3,1085.27,1084.06,1083.08,1082,1080.63,1079.26,1075.9,1077.07,1073.87,1072.73,1071.94,1071.4,1071.71,1074.45,1075.09,1073.2,1075.43,1075.56,1075.99,1076.7,1077.43,1078.08,1078.96,1079.42,1080.7,1081.85,1083.01,1083.9,1084.29,1085.06,1085.22,1085.11,1084.66,1084.17,1084.59,1084.92,1084.96,1084.89,1084.93,1084.9,1084.94,1085.73,1086.08,1086.06,1088.17,1087.84,1087.36,1086.54,1085.58,1082.17,1078.95,1078.06,1076.59,1074.58,1072.84,1071.1,1069.26,1066.83,1064.67,1061.77,1058.05,1057.62,1055.73,1054.03,1052.2,1050.43,1049.43,1048.12,1047.43,1045.66,1048.06,1048.93,1050.13,1052.27,1052.38,1055.71,1058.92,1063.62,1065.79,1067.52,1068.96,1070.25,1069.99,1069.62,1066.7,1065.68,1065.32,1064.8,1064.04,1064.95,1063.4,1062.98,1062.7,1062.33,1062.12,1062.02,1061.9,1062.24,1063.31,1064.42,1065,1065.62,1064.07,1064.9,1065.81,1066.76,1067.51,1070.36,1070.85,1071.18,1071.56,1071.84,1072.14,1072.46,1072.36,1072.53,1072.38,1070.04,1069.71,1069.16,1068.62,1067.82,1066.81,1066,1067.49,1066.64,1065.96,1065.01,1064.08,1063.19,1062.27,1061.36,1060.59,1060.43,1060.32,1060.55,1061.23,1062.37,1063.93,1065.76,1067.83,1069.84,1071.33,1072.93,1074.54,1076.04,1077.34,1078.15,1078.55,1078.74,1078.68,1078.06,1077.15,1075.75,1073.71,1071.11,1068.24,1065.34,1061.94,1058.69,1055.49,1052.42
1089.61,1088.22,1086.5,1084.86,1082.95,1081.13,1079.4,1077.84,1075.59,1073.33,1071.49,1069.93,1068.67,1068.26,1067.91,1067.49,1067.03,1066.91,1066.69,1066.27,1065.92,1065.74,1065.44,1065.22,1065.18,1065.46,1065.99,1066.45,1066.83,1066.95,1066.76,1066.49,1066,1066.25,1070.92,1071.54,1072.3,1068.99,1070.44,1071.93,1073.07,1073.96,1074.33,1074.46,1075.07,1075.64,1076.21,1076.18,1076.02,1076.09,1076.5,1076.74,1076.8,1076.52,1076.5,1076.72,1076.99,1077.1,1077.69,1078.24,1078.66,1078.65,1078.74,1078.56,1078.46,1078.37,1078.47,1078.22,1078.4,1078.63,1079.3,1080.21,1080.8,1081.35,1081.98,1082.34,1082.14,1080.95,1080.09,1079.13,1078.38,1077.41,1076.21,1075.08,1074.11,1074.1,1074.21,1073.81,1073.32,1072.23,1071.89,1072.21,1073.18,1074,1074.18,1073.24,1072.58,1072.31,1072.03,1071.29,1070.46,1069.05,1067.83,1066.79,1066.44,1066.76,1067.23,1068.02,1069.3,1070.26,1071.37,1072.48,1074.01,1075.52,1075.55,1075.24,1075.09,1074.28,1072.93,1071.02,1069.21,1067.82,1066.61,1065.55,1064.22,1062.49,1060.35,1059.04,1059.17,1058.7,1057.91,1058.38,1063.31,1064.69,1066.12,1068.43,1071.02,1073.86,1076.94,1080.32,1082.81,1080.8,1082.97,1085.58,1088.7,1090.87,1090.86,1091.06,1090.88,1090.64,1090.7,1090.23,1089.22,1086.58,1084.88,1083.94,1082.98,1082.33,1081.34,1080.78,1080.32,1079.71,1079.42,1079.17,1079.3,1078.95,1077.77,1076.1,1075.08,1074.25,1074.48,1074.88,1075.44,1075.34,1075.92,1076.91,1079.81,1081.12,1082.73,1083.85,1083.39,1082.74,1081.72,1079.71,1077.72,1075.48,1074.16,1072.92,1070.92,1070.69,1071.18,1072.97,1075.24,1078.18,1080.54,1082.41,1084.56,1087.38,1089.94,1092.16,1094.14,1095.7,1097.46,1098.97,1099.95,1100.31,1100.81,1100.97,1100.71,1099.95,1098.9,1097.5,1096.39,1095.43,1094.45,1092.98,1092.04,1091.01,1090.82,1090.54,1090.52,1090.03,1089.59,1089.2,1088.94,1088.36,1087.71,1086.72,1086.12,1085.2,1083.99,1082.96,1082.05,1080.71,1079.48,1078.4,1073.2,1074.66,1071.41,1070.78,1070.02,1070.06,1072.52,1072.92,1070.84,1072.92,1072.98,1075.6,1076.32,1077.21,1078.08,1079.11,1079.51,1080.88,1082.01,1083.18,1084,1084.24,1084.79,1084.68,1084.18,1083.43,1082.77,1082.76,1082.6,1082.23,1082.04,1081.97,1082.02,1082.14,1085.11,1085.58,1085.84,1085.94,1085.67,1087.18,1086.13,1085.17,1079.53,1076.28,1075.38,1073.64,1071.56,1069.92,1068.34,1066.61,1064.36,1062.41,1059.81,1056.63,1054.18,1054.26,1052.28,1050.26,1048.48,1047.31,1045.85,1045.05,1045.31,1043.74,1047.04,1048.47,1050.81,1053.32,1054.43,1057.9,1060.93,1065.55,1067.39,1068.7,1069.99,1069.93,1069.5,1068.77,1065.51,1064.8,1064.01,1063.22,1064.23,1062.84,1062.33,1059.84,1061.7,1061.43,1061.31,1061.19,1061.53,1062.4,1063.14,1063.56,1063.98,1064.28,1062.84,1063.57,1064.44,1065.1,1067.82,1068.4,1068.7,1069.15,1069.52,1067.54,1070.1,1070.12,1070.22,1070.2,1070.11,1067.69,1067.22,1066.82,1066.14,1065.2,1064.54,1064.01,1063.37,1062.75,1062.04,1063.48,1062.7,1061.85,1061.03,1060.34,1060.18,1060.31,1060.66,1061.54,1062.76,1064.5,1066.5,1068.63,1070.71,1072.25,1074,1075.57,1077,1078.27,1078.95,1079.2,1079.39,1079.24,1078.7,1077.62,1076.3,1074.2,1071.78,1069,1066.21,1063.01,1059.93,1056.66,1053.59
1089.31,1087.69,1085.97,1084.37,1082.68,1081,1079.41,1077.87,1075.64,1073.33,1071.38,1069.56,1068.06,1067.4,1066.82,1066.29,1065.94,1065.94,1065.94,1065.78,1065.84,1065.97,1066.2,1066.57,1066.97,1067.54,1068.3,1069.02,1069.56,1070,1070.27,1070.09,1069.66,1069.75,1070.16,1070.65,1071.26,1071.71,1072.77,1073.92,1074.84,1075.56,1076.07,1076.3,1076.95,1077.54,1078.22,1078.32,1078.2,1078.18,1078.31,1078.36,1078.14,1077.76,1077.63,1077.65,1077.62,1077.52,1077.97,1078.5,1078.77,1078.77,1078.8,1078.66,1078.46,1078.44,1078.53,1078.44,1078.93,1079.35,1079.96,1080.9,1081.46,1082.14,1082.61,1082.79,1082.01,1080.34,1079.01,1077.88,1076.74,1075.49,1074.01,1072.43,1071.04,1070.96,1071.17,1070.57,1070,1069.04,1068.71,1069.19,1070.29,1071.4,1071.65,1070.84,1070.39,1070.25,1070.06,1069.43,1068.75,1067.45,1066.48,1065.83,1066.06,1066.85,1067.67,1068.65,1070.1,1071.31,1072.64,1073.67,1075.08,1076.23,1076.33,1076.12,1075.75,1074.6,1073.06,1071.17,1069.46,1068.26,1067.03,1065.77,1064.24,1062.52,1060.64,1059.34,1059.27,1058.54,1057.3,1057.33,1057.88,1058.91,1060.04,1061.91,1064.23,1067.43,1070.7,1074.51,1077.26,1079.69,1082.56,1085.67,1089.38,1091.7,1091.82,1092.24,1092.12,1092,1092.17,1089.36,1090.5,1085.54,1083.72,1082.61,1083.64,1082.6,1081.45,1080.53,1079.77,1078.96,1078.59,1078.31,1078.39,1078.07,1076.93,1075.33,1074.14,1073.24,1073.36,1073.81,1074.15,1074.15,1074.44,1075.13,1077.64,1079.03,1080.39,1081.27,1080.78,1079.76,1078.67,1076.78,1074.79,1072.44,1070.93,1069.57,1067.42,1067.16,1067.61,1069.1,1071.5,1074.45,1077.17,1079.43,1082.03,1085.46,1088.68,1091.6,1093.94,1095.7,1097.47,1099.06,1099.93,1099.72,1099.6,1099.23,1098.43,1097.4,1096.4,1094.9,1093.8,1092.8,1092.07,1090.93,1090.28,1089.66,1089.5,1089.3,1089.21,1088.77,1088.34,1087.94,1087.72,1087.19,1086.55,1085.69,1085.14,1084.35,1083.21,1082.44,1081.48,1080.37,1079.11,1078.17,1077.49,1076.88,1075.99,1077.62,1076.83,1076.45,1076.49,1076.79,1074.66,1074.42,1074.37,1074.77,1075.66,1076.6,1077.72,1078.67,1078.95,1080.29,1081.54,1082.73,1083.46,1083.38,1083.62,1083.26,1082.4,1081.46,1080.51,1080.18,1079.66,1079.03,1078.77,1080.91,1081.12,1083.68,1084.59,1084.96,1085.13,1085.12,1084.64,1083.9,1082.36,1081.4,1079.92,1078.88,1077.99,1076.44,1072.32,1070.83,1069.52,1068.21,1066.37,1064.85,1062.45,1059.64,1057.29,1055.11,1053.04,1051.07,1047.13,1045.71,1044.44,1043.67,1043.87,1044.74,1046.14,1047.7,1050.14,1052.83,1056.3,1060.01,1063.36,1065.96,1067.94,1069.43,1070.92,1071.13,1070.96,1070.35,1068.97,1067.91,1066.93,1065.85,1064.6,1063.2,1062.6,1062.13,1061.86,1061.59,1061.36,1061.19,1061.47,1062.11,1062.56,1062.65,1062.83,1062.85,1063.22,1063.83,1064.35,1064.81,1065.14,1065.72,1065.94,1066.35,1066.66,1071.24,1071.6,1071.71,1071.86,1071.94,1071.85,1071.74,1071.39,1071.03,1070.62,1069.97,1069.6,1069.2,1068.63,1068.22,1065.57,1064.98,1064.34,1061.47,1060.73,1060.26,1060.28,1060.42,1060.87,1061.83,1063.11,1064.89,1066.97,1069.26,1071.35,1072.94,1074.62,1076.12,1077.54,1078.83,1079.42,1079.64,1079.64,1079.44,1078.92,1077.96,1076.55,1074.45,1072.11,1069.56,1066.91,1064.06,1061.16,1058.16,1055.24
1088.96,1087.35,1085.51,1084.01,1082.39,1080.75,1079.19,1077.66,1075.66,1073.7,1071.73,1069.99,1068.45,1067.75,1067.13,1066.64,1066.57,1068.94,1071.13,1071.31,1071.67,1072.11,1072.72,1073.44,1074.16,1074.96,1075.68,1076.5,1076.97,1077.8,1076.01,1073.76,1073.38,1073.32,1073.43,1073.84,1074.4,1074.85,1075.45,1076.31,1077.14,1077.82,1078.5,1079.18,1080.03,1081.19,1082.29,1082.83,1083.11,1083.23,1083.54,1083.56,1082.98,1082.14,1081.37,1080.8,1080.35,1081.91,1081.9,1084.18,1084.2,1084.12,1084.05,1083.85,1083.72,1083.72,1083.73,1083.75,1084.28,1084.63,1085.1,1085.89,1086.36,1086.94,1087.29,1087.21,1086.08,1083.75,1082.25,1080.77,1077.5,1076.18,1072.18,1070.41,1068.83,1068.77,1068.96,1068.44,1067.97,1066.77,1066.49,1067.19,1068.52,1069.74,1070.29,1069.63,1069.14,1069.18,1069.12,1068.75,1067.86,1066.62,1065.76,1065.22,1065.61,1066.73,1067.66,1068.77,1070.15,1071.48,1072.72,1073.69,1074.87,1075.72,1075.71,1075.54,1075.12,1073.96,1072.39,1070.7,1069.34,1068.29,1067.25,1065.98,1064.24,1062.68,1060.93,1059.86,1059.48,1058.55,1057.3,1056.98,1057.21,1057.92,1058.76,1060.4,1062.51,1065.62,1068.7,1072.56,1075.53,1078.65,1081.99,1085.49,1089.38,1091.8,1092.05,1092.69,1092.78,1092.82,1090.61,1090.03,1091.08,1086,1084.02,1084.84,1083.5,1082.38,1080.96,1079.77,1078.8,1077.79,1077.36,1077.02,1076.99,1076.74,1075.73,1074.21,1073.2,1072.44,1072.59,1072.94,1073.12,1072.87,1072.98,1073.27,1075,1075.79,1076.73,1077.23,1076.39,1075.42,1074.34,1072.44,1070.54,1068.43,1066.98,1065.45,1063.73,1063.55,1064.01,1065.38,1067.73,1070.84,1073.76,1076.52,1079.77,1083.68,1087.48,1090.91,1093.64,1095.67,1097.5,1099.28,1099.99,1099.33,1098.64,1097.72,1096.34,1095.07,1093.91,1092.3,1090.97,1089.98,1089.78,1088.98,1088.64,1088.36,1088.42,1088.35,1088.35,1088.05,1087.65,1087.24,1086.97,1086.4,1085.86,1085.04,1084.48,1083.88,1082.99,1082.3,1081.7,1080.56,1079.44,1078.54,1077.95,1079.65,1078.84,1080.41,1079.71,1079.07,1079.15,1079.41,1079.3,1078.96,1078.67,1078.98,1077.66,1078.49,1081.66,1082.32,1082.31,1083.54,1084.79,1083.78,1084.3,1083.99,1081.79,1081.01,1080.03,1078.78,1077.55,1076.92,1076.39,1075.58,1075.36,1075.34,1077.94,1080.59,1081.71,1082.07,1082.02,1081.74,1081.1,1079.94,1078.25,1077.06,1073.39,1072.34,1071.62,1070.21,1068.5,1069.43,1066.34,1065.51,1064.1,1063.1,1061.18,1058.76,1056.51,1054.34,1052.33,1050.48,1048.64,1047,1045.72,1044.93,1045.04,1046.06,1047.76,1049.39,1051.87,1054.82,1058.48,1062.14,1063.7,1066.54,1068.56,1070.08,1071.72,1072.18,1072.25,1071.76,1070.33,1069.18,1067.86,1066.61,1065.32,1063.99,1063.24,1062.71,1062.29,1062.02,1061.84,1061.57,1061.75,1062.16,1062.24,1062.13,1061.99,1061.82,1061.95,1062.29,1062.63,1062.74,1062.85,1063.3,1063.45,1065.96,1066.26,1068.55,1068.83,1068.93,1069.12,1069.36,1069.38,1069.31,1069.1,1068.99,1068.79,1068.44,1068.25,1068.05,1067.67,1067.39,1067.02,1066.59,1063.87,1063.24,1060.56,1060.2,1060.2,1060.43,1060.89,1061.89,1063.17,1064.96,1067.11,1069.32,1071.31,1072.92,1074.62,1076.08,1077.48,1078.73,1079.32,1079.52,1079.56,1079.29,1078.82,1077.96,1076.51,1074.26,1072.01,1069.51,1067.14,1064.67,1062.03,1059.16,1056.35
1089.23,1087.48,1085.5,1083.8,1082.13,1080.5,1078.9,1077.39,1075.59,1073.66,1072.01,1070.44,1069.13,1068.4,1067.93,1067.72,1067.85,1070.45,1072.94,1073.44,1073.96,1074.56,1075.49,1076.46,1077.41,1078.5,1079.38,1080.08,1080.52,1081.18,1081.56,1079.36,1076.88,1076.69,1076.52,1076.85,1077.22,1077.72,1077.91,1078.45,1083.61,1084.41,1085.34,1086.36,1087.62,1089.04,1086.34,1087.55,1088.28,1088.56,1089.13,1089.07,1088.42,1087.39,1086.24,1087.35,1088.46,1087.56,1087.23,1086.78,1086.37,1085.85,1085.54,1085.33,1085.13,1085.04,1084.91,1084.66,1084.92,1085.04,1085.4,1085.84,1085.99,1086.17,1086.16,1085.86,1084.19,1081.81,1080.23,1078.51,1077.42,1076.1,1074.26,1070.26,1066.47,1066.3,1066.31,1065.82,1065.33,1064.11,1063.98,1064.73,1066.1,1067.65,1068.42,1068.1,1067.9,1068.16,1068.43,1067.96,1067.23,1066.33,1065.58,1065.21,1065.91,1067.09,1068.03,1068.97,1070.41,1071.64,1072.7,1073.42,1074.26,1074.54,1074.09,1073.79,1073.38,1072.4,1071,1069.57,1068.48,1067.9,1067.31,1066.27,1064.7,1063.28,1061.83,1061.07,1060.97,1060.35,1058.99,1058.49,1058.4,1058.76,1059.34,1060.42,1062.05,1064.86,1067.49,1070.87,1073.7,1076.9,1080.56,1084.2,1088.09,1090.65,1091.05,1091.94,1092.2,1092.54,1092.43,1091.78,1090.61,1087.79,1085.78,1084.37,1082.86,1081.69,1080.16,1078.77,1077.58,1076.5,1075.97,1075.49,1075.39,1075.3,1074.52,1073.28,1072.37,1071.8,1071.92,1072.31,1072.4,1071.76,1071.27,1071.13,1072.16,1072.68,1073.09,1073.18,1071.99,1070.82,1069.71,1068.06,1066.37,1064.5,1062.97,1061.67,1060.32,1060.23,1060.64,1061.98,1064.15,1067.11,1070.09,1073.12,1076.84,1081.32,1085.57,1089.4,1092.45,1094.72,1096.91,1098.7,1099.42,1098.43,1097.2,1095.77,1093.9,1092.38,1091.01,1089.35,1087.86,1086.82,1086.96,1086.58,1086.77,1087.08,1087.5,1087.64,1087.8,1087.56,1087.38,1087.1,1086.73,1086.12,1085.56,1084.83,1084.24,1083.89,1083.25,1082.65,1082.13,1081.13,1080.19,1079.42,1078.88,1080.7,1081.98,1081.42,1080.82,1080.24,1080.29,1080.46,1080.24,1079.76,1079.36,1079.56,1080.21,1080.85,1081.57,1081.79,1081.42,1082.34,1083.26,1083.99,1083.96,1083.3,1082.78,1077.39,1078.26,1074.62,1073.25,1072.58,1072.11,1071.57,1071.43,1076.14,1076.63,1077.43,1078.64,1079,1078.77,1078.27,1077.27,1075.81,1073.98,1072.63,1070.79,1065.49,1064.9,1063.79,1064.51,1063.72,1060.99,1060.72,1059.93,1059.55,1060.42,1056.27,1054.25,1052.4,1052.78,1050.92,1048.87,1047.09,1045.68,1044.84,1044.88,1045.98,1050.03,1051.98,1054.39,1057.37,1060.93,1064.7,1068.51,1071.37,1073.43,1070.74,1072.26,1073.05,1073.48,1073.28,1072.08,1070.74,1069.58,1068.37,1066.86,1065.58,1064.84,1064.24,1063.7,1063.38,1063.04,1062.79,1064.85,1065.13,1064.97,1062.31,1061.83,1061.34,1061.31,1061.38,1061.58,1061.38,1061.18,1061.37,1061.57,1063.95,1064.07,1066.16,1066.31,1066.34,1066.64,1066.92,1067.07,1067.09,1066.96,1067.1,1067.24,1067.05,1067.04,1066.96,1066.77,1066.69,1066.54,1066.35,1066,1065.47,1062.86,1060.56,1060.51,1060.67,1061.21,1062.03,1063.24,1064.88,1066.8,1068.89,1070.81,1072.45,1074.03,1075.44,1076.84,1078.11,1078.8,1079,1079.13,1078.96,1078.5,1077.76,1076.22,1074.01,1071.92,1069.58,1067.55,1065.4,1062.97,1060.37,1057.71
1089.86,1087.94,1085.95,1084.18,1082.29,1080.5,1078.87,1077.4,1075.56,1073.66,1072.01,1070.53,1069.36,1068.77,1068.59,1068.56,1068.85,1071.74,1074.51,1075.34,1076.26,1077.33,1078.43,1079.65,1081,1082.28,1083.19,1083.85,1084.11,1084.65,1085,1084.91,1079.92,1083.92,1079.08,1079.23,1079.48,1084.17,1083.85,1084.06,1084.49,1085.07,1085.99,1087.03,1088.26,1089.86,1091.85,1089.42,1090.91,1091.94,1093.05,1093.53,1093.24,1092.46,1091.39,1092.42,1093.28,1091.91,1090.99,1090.13,1089.13,1088.23,1087.67,1087.36,1087,1086.66,1086.16,1085.69,1085.52,1085.51,1085.61,1085.77,1085.57,1085.13,1084.55,1084,1082.34,1080.11,1078.48,1076.85,1075.48,1074.03,1072.41,1070.86,1065.06,1064.78,1064.82,1064.22,1063.86,1062.92,1062.85,1063.63,1064.76,1066.29,1067.12,1066.95,1066.86,1067.17,1067.33,1066.82,1066.1,1065.2,1064.73,1064.67,1065.58,1066.98,1068.03,1069.12,1070.58,1071.73,1072.74,1073.13,1073.39,1072.97,1071.97,1071.24,1070.52,1069.4,1068.14,1066.93,1066.22,1065.96,1065.81,1065.34,1064.27,1063.3,1062.47,1062.31,1062.29,1061.84,1060.78,1060.2,1060.02,1060.33,1060.65,1061.46,1062.76,1065.18,1067.58,1070.52,1073.15,1076.27,1079.69,1083.12,1086.53,1088.7,1088.98,1089.76,1090.05,1090.33,1090.22,1089.74,1088.56,1086.04,1084.18,1082.84,1081.2,1079.96,1078.52,1077.32,1076.06,1074.91,1074.38,1073.98,1073.98,1073.97,1073.35,1072.3,1071.41,1071.02,1071.03,1071.36,1071.23,1070.53,1069.6,1069.2,1069.63,1069.69,1069.42,1068.96,1067.33,1065.75,1064.54,1063.02,1061.34,1059.76,1058.48,1057.58,1056.84,1057.18,1057.73,1058.98,1061.03,1063.82,1066.82,1069.99,1073.98,1078.7,1083.26,1087.36,1090.66,1093.16,1095.3,1096.94,1097.39,1095.96,1094.31,1092.41,1090.25,1088.84,1087.6,1086.21,1084.88,1084.38,1085.1,1085.37,1086.07,1086.61,1087.18,1087.43,1087.52,1087.38,1087.22,1086.8,1086.48,1085.81,1085.3,1084.56,1084.06,1083.88,1083.35,1082.74,1082.36,1081.57,1080.8,1080.16,1079.76,1081.58,1083.02,1082.61,1082.21,1081.71,1081.75,1081.83,1081.65,1081.21,1080.78,1081.03,1081.26,1081.61,1081.89,1079.3,1078.56,1081.09,1081.49,1081.45,1080.8,1079.76,1078.69,1077.37,1075.58,1071.58,1067.87,1067.19,1066.96,1066.84,1069.28,1072.19,1072.94,1074.05,1075.5,1075.79,1075.57,1074.69,1073.31,1071.5,1069.39,1067.98,1066.06,1065.17,1060.39,1061.7,1060.75,1058.24,1058.19,1058.42,1058.24,1060.59,1057.58,1056.14,1054.47,1055.03,1053.45,1051.47,1049.53,1047.79,1046.43,1045.82,1045.83,1047.09,1051.34,1053.39,1055.92,1058.76,1062.16,1065.84,1069.58,1072.47,1069.92,1071.44,1072.73,1073.74,1074.3,1074.22,1073.18,1071.74,1070.72,1069.5,1068.04,1066.93,1066.02,1065.29,1064.68,1068.59,1068.3,1065.67,1065.58,1065.84,1065.56,1064.99,1062.33,1061.77,1061.45,1061.26,1061.18,1060.77,1060.31,1060.26,1060.22,1062.42,1062.24,1064.2,1064.28,1064.26,1064.46,1064.84,1064.97,1064.98,1065,1065.27,1065.68,1065.75,1065.96,1065.93,1065.92,1066.05,1066.09,1066.02,1065.85,1065.48,1063,1062.85,1060.73,1060.95,1061.26,1061.97,1063.05,1064.47,1066.32,1068.17,1070,1071.52,1073.08,1074.48,1075.81,1077.12,1077.86,1078.2,1078.28,1078.25,1077.94,1077.19,1075.82,1073.77,1071.74,1069.69,1067.8,1065.96,1063.84,1061.44,1058.93
1091.09,1089.1,1086.97,1084.99,1082.9,1080.94,1079.11,1077.54,1075.68,1073.7,1071.99,1070.59,1069.42,1069.02,1068.92,1069.06,1069.58,1072.66,1075.8,1076.96,1078.11,1079.62,1080.99,1082.62,1084.28,1085.77,1086.76,1087.41,1087.53,1087.96,1088.1,1087.96,1087.18,1086.47,1085.8,1085.77,1085.9,1085.84,1085.23,1085.06,1085.39,1085.8,1086.6,1087.69,1088.82,1090.48,1092.66,1094.9,1092.29,1093.7,1095.01,1095.69,1095.69,1095.26,1094.43,1095.51,1096.43,1094.96,1093.75,1092.67,1091.47,1090.41,1089.72,1089.15,1088.43,1087.73,1086.92,1086.19,1085.6,1085.16,1084.88,1084.51,1083.75,1083.13,1082.08,1081.23,1079.37,1077.2,1075.52,1073.88,1072.62,1071.18,1069.73,1068.62,1063.23,1063.12,1063.29,1063.11,1063.02,1062.52,1062.76,1063.91,1064.96,1066.24,1066.74,1066.33,1066.07,1065.92,1065.54,1065.02,1064.02,1063.27,1062.93,1063.28,1064.6,1066.21,1067.59,1068.8,1070.31,1071.43,1072.44,1072.75,1072.72,1072.02,1070.74,1069.95,1069.09,1067.74,1066.41,1065.33,1064.64,1064.26,1064.22,1064.09,1063.08,1062.48,1062.25,1062.38,1062.85,1062.79,1062.25,1062.18,1062.16,1062.57,1062.81,1063.42,1064.45,1066.48,1068.34,1070.69,1072.95,1075.36,1078.06,1080.93,1083.83,1085.71,1085.79,1086.32,1086.54,1086.78,1086.98,1086.7,1085.8,1083.6,1081.88,1080.61,1079.26,1077.99,1076.72,1075.64,1074.63,1073.61,1073.19,1072.82,1072.82,1072.89,1072.36,1071.39,1070.55,1070.16,1070.16,1070.42,1070.12,1068.89,1067.76,1067.14,1066.91,1066.64,1065.9,1064.96,1063.28,1061.77,1060.74,1059.36,1057.83,1056.78,1055.7,1054.99,1054.49,1054.78,1055.26,1056.44,1058.32,1060.9,1063.74,1067.12,1071.42,1076.15,1080.84,1085.14,1088.43,1091.28,1093.49,1095.02,1095.12,1093.44,1091.55,1089.31,1086.98,1085.56,1084.43,1083.22,1082.34,1082.36,1083.44,1084.16,1085.28,1086.44,1087.18,1087.47,1087.52,1087.39,1087.38,1087.16,1086.76,1086.05,1085.47,1084.77,1084.28,1084.16,1083.69,1083.18,1082.82,1082.16,1081.56,1081.03,1080.81,1080.67,1080.17,1080.06,1079.82,1081.83,1081.96,1082.13,1081.99,1081.59,1081.17,1081.2,1081.03,1078.56,1078.08,1077.02,1075.67,1075.38,1074.94,1078.64,1077.18,1075.83,1074.29,1072.9,1070.98,1064.64,1063.14,1062.56,1062.67,1062.95,1063.67,1064.71,1065.56,1071.29,1072.63,1072.84,1072.32,1071.07,1069.26,1067.07,1064.77,1063.21,1061.25,1060.5,1060.3,1059.75,1059.13,1059.16,1057.55,1058.13,1056.3,1059.08,1058.67,1057.79,1054.43,1053.3,1052.04,1050.44,1048.76,1047.18,1046.15,1045.72,1045.85,1047.28,1049.39,1051.43,1053.71,1056.43,1059.73,1063.27,1066.69,1069.31,1071.01,1072.31,1073.69,1074.87,1075.54,1075.67,1074.75,1073.22,1072.16,1071.04,1069.59,1068.35,1067.26,1066.32,1065.56,1064.97,1060.28,1061.81,1059.33,1063.9,1063.61,1062.99,1060.26,1059.72,1061.57,1061.26,1061.08,1060.47,1059.84,1059.68,1059.45,1059.34,1058.94,1058.42,1058.26,1058.21,1060.5,1060.84,1063.12,1063.07,1063.07,1063.52,1064.06,1064.31,1060.13,1060.36,1060.48,1060.69,1058.82,1058.87,1058.87,1056.49,1056.32,1056.24,1056.17,1058.55,1060.92,1061.52,1060.26,1061.51,1065.24,1066.97,1066.41,1065.68,1067.12,1068.56,1069.94,1071.16,1076.42,1076.88,1077.01,1077.14,1076.9,1076.38,1075.16,1073.29,1071.44,1069.66,1067.96,1066.39,1064.45,1062.32,1059.95
1093.5,1091.53,1089.29,1087.07,1084.93,1082.72,1080.58,1078.84,1076.62,1074.5,1072.7,1071.17,1069.88,1069.53,1069.35,1069.51,1070.13,1073.42,1076.76,1078.22,1079.82,1081.57,1083.3,1085.28,1087.26,1088.88,1089.9,1090.5,1090.74,1091.08,1091.2,1090.88,1089.96,1089,1088.3,1088.11,1088.02,1087.63,1086.75,1086.37,1086.45,1082.29,1083.08,1083.95,1085.04,1086.53,1088.98,1091.15,1093.02,1094.45,1095.85,1096.75,1096.86,1096.55,1095.91,1095,1093.75,1092.28,1093.18,1094.16,1092.94,1091.79,1091,1090.24,1089.23,1088.27,1087.08,1086.25,1085.31,1084.52,1083.9,1082.96,1081.68,1080.66,1079.53,1078.31,1076.21,1073.95,1071.94,1070.54,1069.47,1065.98,1064.54,1065.96,1065.31,1065.42,1063.78,1065.99,1064.1,1064.05,1066.73,1068.3,1067.57,1066.8,1067.22,1068.65,1068.02,1065.46,1064.62,1063.45,1062.03,1060.86,1060.37,1060.66,1061.95,1063.61,1065.21,1066.74,1068.39,1069.64,1070.7,1071.05,1071,1070.02,1068.45,1067.2,1066.05,1064.49,1063.06,1061.85,1061.27,1060.93,1061.02,1061.05,1060.49,1060.4,1060.77,1061.48,1062.41,1062.86,1062.96,1063.26,1063.58,1064.1,1064.42,1064.95,1065.6,1067.25,1068.74,1070.64,1072.28,1074.03,1076.19,1078.41,1080.84,1082.6,1082.4,1082.71,1082.9,1083.1,1083.56,1083.48,1082.78,1080.88,1079.34,1078.2,1077.14,1076.07,1074.9,1074.07,1073.18,1072.5,1072.2,1071.97,1071.98,1071.98,1071.44,1070.49,1069.66,1069.28,1069.14,1069.14,1068.63,1067.5,1066.26,1065.42,1064.7,1063.94,1063.02,1062.02,1060.25,1058.82,1057.79,1056.61,1055.34,1054.55,1053.66,1053.07,1052.73,1053,1053.67,1054.73,1056.46,1058.92,1061.68,1064.95,1069.03,1073.38,1077.99,1082.2,1085.58,1088.28,1090.57,1092.12,1091.86,1090.12,1088.45,1086.18,1083.94,1082.6,1081.69,1080.58,1080.1,1080.68,1082.11,1083.1,1084.78,1086.28,1087.11,1087.51,1087.54,1087.52,1087.51,1087.34,1087.06,1086.21,1085.56,1084.85,1084.46,1084.34,1083.98,1083.63,1083.28,1082.92,1082.54,1082.29,1082.24,1082.32,1082.15,1082.33,1086.69,1086.83,1087.17,1087.51,1087.32,1086.9,1086.43,1086.3,1085.79,1084.96,1081.63,1079.92,1075.62,1074.63,1073.78,1076.77,1074.67,1070.54,1071.01,1069.62,1067.85,1066.18,1060.84,1060.46,1061.01,1061.65,1062.64,1063.68,1064.36,1067.79,1071.11,1071.13,1070.39,1068.93,1066.72,1064.34,1061.98,1060.36,1058.32,1057.41,1057.26,1056.89,1056.4,1056.7,1057.43,1058.16,1058.78,1059.67,1057.61,1059.4,1058.74,1058,1052.73,1051.61,1050.39,1049.25,1048.58,1048.49,1048.75,1050.34,1052.49,1054.42,1056.57,1059.25,1062.35,1065.4,1072.75,1075.03,1076.5,1077.65,1078.91,1080.06,1080.6,1080.63,1079.75,1078.18,1077.1,1075.91,1074.47,1073.13,1071.91,1070.75,1069.82,1069.07,1062.08,1061.41,1058.81,1058.85,1062.77,1062.28,1061.71,1063.34,1060.93,1060.73,1060.49,1059.97,1059.27,1059.16,1058.9,1058.79,1058.22,1057.58,1057.22,1057.01,1057.11,1059.55,1059.43,1061.39,1061.31,1061.73,1062.26,1062.67,1062.84,1060.92,1061.03,1061.47,1061.94,1059.96,1060.13,1060.11,1060.23,1056.05,1055.97,1056.17,1058.46,1061.1,1061.92,1060.72,1062.06,1065.59,1067,1066.12,1065.13,1066.37,1067.74,1069.07,1074.41,1074.98,1075.29,1075.52,1075.38,1075.06,1074,1072.37,1070.76,1069.05,1067.48,1065.86,1064.01,1061.93,1059.54
1096.04,1094.03,1091.81,1089.38,1086.98,1084.66,1082.44,1080.68,1078.53,1076.43,1074.6,1073.16,1072.06,1071.72,1071.64,1074.04,1074.67,1075.85,1079.43,1081.01,1082.78,1084.74,1086.46,1088.6,1090.6,1092.18,1093.02,1093.52,1093.57,1093.81,1093.87,1093.6,1092.59,1091.48,1090.74,1090.41,1090.18,1089.56,1088.55,1087.95,1087.81,1087.92,1084.02,1084.85,1085.86,1087.37,1089.79,1091.9,1093.68,1095.12,1096.68,1097.52,1097.73,1097.48,1096.92,1096.05,1094.74,1093.32,1091.95,1090.8,1089.44,1092.38,1091.37,1090.56,1089.4,1088.31,1086.97,1086,1084.87,1083.83,1082.87,1081.5,1077.73,1078.56,1074.98,1073.56,1069.36,1067.08,1065.34,1066.16,1063.24,1062.07,1060.77,1060.13,1059.6,1064.05,1062.55,1060.58,1061,1063.35,1064.27,1066.05,1063.41,1062.82,1063.16,1055.96,1044.31,1047.91,1064.02,1062.93,1061.36,1060.01,1057.27,1062.08,1061.27,1063.17,1067.05,1066.51,1068.27,1069.71,1071.04,1071.42,1073.54,1072.52,1070.9,1067.5,1066.27,1064.38,1062.81,1063.5,1060.65,1060.01,1059.92,1059.95,1059.54,1059.71,1060.59,1061.85,1063.32,1064.22,1064.88,1065.47,1065.66,1061.71,1064.35,1064.59,1062.8,1063.97,1065.01,1066.57,1067.73,1069.1,1070.62,1072.3,1074.34,1075.73,1075.84,1076.09,1076.34,1079.04,1079.68,1079.88,1081.74,1080.15,1078.73,1077.65,1076.48,1075.44,1074.18,1073.24,1072.4,1071.8,1071.66,1071.45,1071.54,1071.62,1071.24,1070.48,1069.91,1069.61,1069.4,1069.38,1068.67,1067.44,1066.04,1064.8,1063.63,1062.63,1061.56,1060.25,1058.5,1057.18,1056.38,1055.27,1054.13,1053.48,1052.78,1052.2,1051.96,1052.42,1052.94,1053.85,1055.39,1057.43,1059.78,1062.56,1066.54,1070.52,1074.7,1078.69,1081.87,1084.53,1086.93,1088.36,1088.08,1086.49,1084.98,1082.96,1080.89,1079.82,1079.2,1078.66,1078.71,1079.84,1081.32,1082.55,1084.62,1086.39,1087.42,1087.82,1087.75,1087.69,1087.76,1087.64,1087.37,1086.36,1085.66,1085.05,1084.7,1084.7,1084.45,1084.08,1083.9,1083.78,1083.68,1083.58,1083.82,1084.06,1084.16,1086.77,1087.26,1087.55,1087.76,1088.26,1088.06,1085.47,1086.97,1086.85,1086.11,1084.93,1083.25,1081.06,1078.37,1076.86,1075.4,1073.49,1073.07,1070.67,1068.82,1065.31,1066.03,1064.62,1063.91,1059.41,1060.24,1061.13,1062.25,1063.31,1064.06,1065.18,1066.13,1070.4,1069.48,1067.81,1065.53,1062.96,1060.65,1058.95,1057.06,1055.97,1055.61,1050.9,1050.52,1050.97,1051.67,1052.52,1055.56,1054.38,1055.08,1055.41,1055.13,1056.96,1056.58,1053.79,1053.06,1052.32,1051.93,1052.14,1052.57,1054.2,1056.29,1058.12,1060.06,1064.72,1067.58,1070.18,1072.59,1074.59,1075.64,1076.57,1077.62,1078.5,1078.89,1078.65,1077.89,1076.45,1075.27,1073.93,1072.38,1070.89,1069.5,1068.28,1067.27,1066.44,1063.8,1063.15,1062.67,1062.6,1062.24,1063.93,1061.33,1063.05,1060.67,1060.37,1060.12,1059.69,1059,1058.9,1058.72,1058.57,1057.81,1059.02,1058.48,1058.22,1058.2,1058.3,1058.05,1059.61,1059.31,1057.7,1058.33,1058.61,1058.71,1058.9,1057.04,1059.75,1060.44,1060.73,1056.74,1057.02,1057.39,1057.81,1057.96,1055.97,1056.07,1058.6,1061.43,1062.12,1060.98,1061.96,1065.2,1066.17,1065.06,1063.9,1064.96,1066.2,1071.52,1072.2,1072.56,1072.98,1073.02,1072.85,1072.14,1070.75,1069.4,1067.82,1066.29,1064.68,1062.81,1060.7,1058.3
