0,77,220,440,792,638,121,33,44,22,11,22,88,220,704,99,44,154,4147,9559,11000,11000,11000,11000,11000,11000,11000,11000,11000,11000,11000,11000,10856.7,10435.1,9682.91,9113.71,8860.5,9050.34,9321.17,9726.7,7751.84,10735.3,11000,11000,11000,11000,11000,11000,11000,11000,11000,11000,11000,11000,11000,11000,11000,11000,11000,11000,11000,11000,11000,11000,11000,11000,11000,11000,11000,11000,11000,11000,11000,11000,11000,11000,11000,11000,11000,11000,11000,11000,11000,11000,11000,11000,11000,10857,10857,10604,3428.75,1551.64,22.718,11.742,11.818,11.768,11.792,103.829,3438.01,3963.75,3956.05,3955.91,3959.41,3958.85,3970.84,3947.33,3931.74,3925.41,3923.21,3925.33,3932.12,3926.83,3918.41,3898.3,3888.62,133.846,352,10868,11000,11000,11000,11000,11000,11000,11000,11000,11000,11000,11000,11000,11000,11000,11000,11000,11000,11000,11000,11000,11000,11000,11000,11000,11000,11000,11000,11000,11000,11000,11000,11000,11000,11000,11000,11000,11000,11000,11000,11000,11000,11000,11000,11000,11000,11000,11000,11000,11000,11000,11000,11000,11000,11000,11000,11000,11000,11000,11000,11000,11000,11000,11000,11000,11000,11000,11000,11000,11000,11000,11000,11000,11000,11000,11000,11000,11000,9570,77,1419,11000,9968.3,9431.24,9481.58,9713.78,9913.1,10555.2,11000,11000,11000,11000,11000,11000,11000,11000,11000,11000,11000,11000,11000,11000,11000,11000,11000,11000,11000,11000,11000,11000,11000,1914,33,33,33,3509,11000,11000,11000,11000,11000,11000,11000,11000,11000,11000,11000,11000,11000,11000,2189,407,8998,11000,11000,11000,10804.4,10638.3,10513.8,10420.2,10299.9,10202.3,10173.2,10186.8,10156.8,10114.9,10083.5,10045.4,9982.15,9927.88,9874.25,9817.98,9761.37,9734.68,9705.93,9679.15,9702.11,9741.23,9782.16,9812.4,9848.59,9866.03,9898.07,9913.18,9934.77,9935.8,9917.51,9896.17,9906.25,9916.77,9936.1,9942.62,9966.66,9982.89,10006.8,10027.2,10065,10076.7,10123,10174,10213.9,10230.6,10250.8,10255.9,10216.5,10161.1,10076.3,9981.1,9871.94,9741.41,9651.84,9602.07,9552.41,9528.78,9521.31,9529.54,9530,9545.86,9581.19,9603.68,9621.87,9645.22,9677.98,9709.95,9753.99,9787.98,9823.17,9839.66,9857.54,9868.56,9868.2,9877.09,9880.28,9881.24,9890.24,9902.77,9922.73,9945.95,9965.07,9989.69,10003.8,10002.1,10002.5,9983.47,9956.42,9949.7,9930.43,9910.89,9892.29,9870.24,9852.03,9820.52,9793.35,9760.92,9716.76,9664.62,9627.3,9590.57,9564.76,9547.49,9519.7,9497.71,9460.3,9421.28,9378.61,9294.38,9188.22,9105.39,9028.62,8944.85,8870.84,8749.47,8696.68,8669.72,8735.82,8772.01,8796.24,8842.46,8907.07,8969,9071.73,9120.54,9175.15,9138.84,9193.45,9208.14,9210.79,9197.36,9187.05,9172.58,9175.74,9176.04,9174.45,9192.99,9209.38,9211.17,9215.93,9204.23,9179.27,9122.11,9046.86,8954.97,8839.38,8728.91,8504.24,7363.03,7665.85,7683.83,5375.38,5928.99,4984.44,4820.28,3890,4674.96,4452.65,4198.41,4012.91,3932.35,3896.34,3871.42,3859.55,3836.24,3806.94,3791.43,3794.64,3849.25,4036.77,4286.77,4565.6
77,517,1034,1584,2112,2794,2475,132,11,11,11,462,770,2024,3432,1034,2508,4862,8745,10505,11000,11000,11000,11000,11000,11000,11000,11000,11000,11000,11000,11000,10875.4,10446.3,9635.23,9031.13,8268.91,8585.88,9168.13,8904.02,7433.9,10670.1,11000,11000,11000,11000,11000,11000,11000,11000,11000,11000,11000,11000,11000,11000,11000,11000,11000,11000,11000,11000,11000,11000,11000,11000,11000,11000,11000,11000,11000,11000,11000,11000,11000,11000,11000,11000,11000,11000,11000,11000,11000,11000,11000,11000,11000,11000,11000,8976,8371.62,2673.62,22.715,19.187,11.794,23.791,67.753,690.773,3354.24,3963.4,3957,3956.9,3959.62,3959.52,3969.9,3949.35,3931.96,3925.58,3923.9,3924.14,3923.71,3916.04,3909.78,3886.99,3891.63,3842.52,77,7777,11000,11000,11000,11000,11000,11000,11000,11000,11000,11000,11000,11000,11000,11000,11000,11000,11000,11000,11000,11000,11000,11000,11000,11000,11000,11000,11000,11000,11000,11000,11000,11000,11000,11000,11000,11000,11000,11000,11000,11000,11000,11000,11000,11000,11000,11000,11000,11000,11000,11000,11000,11000,11000,11000,11000,11000,11000,11000,11000,11000,11000,11000,11000,11000,11000,11000,11000,11000,11000,11000,11000,11000,11000,11000,11000,11000,6996,6985,22,11000,10854,9951.31,9459.91,9476.11,9698.49,9946.9,10622.2,11000,11000,11000,11000,11000,11000,11000,11000,11000,11000,11000,11000,11000,11000,11000,11000,11000,11000,11000,11000,11000,11000,11000,10604,638,825,4235,11000,11000,11000,11000,11000,11000,11000,11000,11000,11000,11000,11000,11000,11000,11000,187,0,33,11000,11000,11000,10754,10588.1,10469.4,10373.6,10251.7,10155.1,10126.2,10152.4,10130.7,10093.3,10068.6,10030.1,9972.36,9930.52,9877.23,9819.51,9768.46,9742.15,9718.55,9691.16,9706.89,9738.46,9778.76,9806.68,9838.09,9855.31,9878.03,9896.7,9912.12,9914.72,9896.39,9868.49,9868.3,9881.24,9892.58,9895.23,9910.61,9915.68,9928.11,9954.46,9989.51,10018.4,10072.3,10132,10184.1,10212.6,10253.1,10261.4,10255.2,10203.2,10126.5,10041.9,9922.5,9808.43,9716.2,9657.73,9604.76,9579.08,9574.99,9580.2,9581.49,9596.87,9633.8,9656.66,9668.89,9686.74,9713.49,9739.12,9769.92,9794.8,9818.82,9821.88,9833.17,9837.04,9830.66,9835.85,9838.76,9836.31,9849.82,9864.89,9881.95,9901.62,9920.17,9945.41,9953.39,9955.66,9956.9,9938.41,9913.45,9900.1,9883.8,9862.39,9844.34,9821.51,9794.9,9759.92,9737.71,9703.8,9655.38,9602.89,9576.78,9541.81,9512.11,9495.38,9475.62,9440.86,9421.41,9391.08,9346.95,9268.2,9175.88,9102.13,9029.27,8954.76,8894.9,8786.15,8740.48,8715.84,8773.58,8794.55,8808.59,8849.78,8905.75,8953.08,9044.23,9077.75,9127.28,9098.5,9156.84,9182.18,9191.82,9185.04,9181.16,9176.89,9182.59,9189.05,9192.91,9217.27,9236.32,9248.85,9254.05,9243.34,9215.88,9164.08,9087.17,8994.9,8877.76,8768.81,8658.16,8514.92,8277.97,8053.7,7651.7,7002.37,5929.93,5391.37,3743.46,4362.16,4452.94,4200.76,4018.06,3932.72,3895.61,3870.08,3858.97,3836.75,3808.33,3792.03,3793.34,3831.41,4018.35,4268.23,4544.36
231,1331,2574,3575,1276,1232,616,33,11,77,11,506,2860,10340,11000,5258,9834,8206,11000,10670,9669,10351,11000,11000,11000,11000,11000,11000,11000,11000,11000,11000,10882,10398.3,9512.01,7687.83,6189.83,7476.14,9066.04,7372.45,7554.25,10665.5,11000,11000,11000,11000,11000,11000,11000,11000,11000,11000,11000,11000,11000,11000,11000,11000,11000,11000,11000,11000,11000,11000,11000,11000,11000,11000,11000,11000,11000,11000,11000,11000,11000,11000,11000,11000,11000,11000,11000,11000,11000,11000,11000,11000,11000,11000,7898,4488,1298.62,605.644,22.766,19.097,11.818,152.082,494.672,933.471,3827.16,3964.89,3959.08,3960.04,3962.1,3963.18,3972.88,3947.79,3929.15,3922.85,3920.55,3919.07,3918.93,3907.97,3898.48,3875.68,3852.04,2480.65,0,9647,11000,11000,11000,11000,11000,11000,11000,11000,11000,11000,11000,11000,11000,11000,11000,11000,11000,11000,11000,11000,11000,11000,11000,11000,11000,11000,11000,11000,11000,11000,11000,11000,11000,11000,11000,11000,11000,11000,11000,11000,11000,11000,11000,11000,11000,11000,11000,11000,11000,11000,11000,11000,11000,11000,11000,11000,11000,11000,11000,11000,11000,11000,11000,11000,11000,11000,11000,11000,11000,11000,11000,11000,11000,11000,11000,10098,7216,7546,2288,11000,10794,9983.33,9533.95,9529.5,9798.54,10016.4,10763.3,11000,11000,11000,11000,11000,11000,11000,11000,11000,11000,11000,11000,11000,11000,11000,11000,11000,11000,11000,11000,11000,11000,11000,11000,11000,11000,11000,11000,11000,11000,11000,11000,11000,11000,11000,11000,11000,11000,11000,11000,11000,11000,1089,6435,1584,11000,11000,11000,10680.8,10515.1,10386.2,10290.4,10174.4,10080.5,10057.9,10080.1,10064.8,10040.7,10020.9,9986.55,9945.96,9911.51,9863.88,9809.76,9772.41,9751.01,9729.72,9710.33,9724.41,9753.11,9792.66,9817.56,9841.66,9856.03,9876.91,9881.49,9891.72,9888.45,9869.26,9843.11,9842.43,9849.3,9857.33,9850.77,9865.86,9867.6,9863.64,9883.08,9918.64,9954.31,10013.1,10096,10163,10211.6,10262.9,10296.4,10284,10242.9,10168.6,10089.5,9979.08,9866.56,9777.85,9716.81,9673.86,9643.78,9638.78,9644.15,9640.58,9652.9,9688.84,9701.17,9703.67,9717.39,9732.68,9749.19,9774.24,9793.74,9808.35,9797.13,9804.53,9805.57,9794.36,9801.69,9802.41,9804.44,9818.15,9837.5,9860.06,9875.24,9891.7,9909.28,9917.08,9920.2,9923.11,9906.62,9881.52,9865.84,9850.97,9830.03,9815.45,9790.15,9760.75,9722.02,9696.77,9666.09,9620.81,9584.58,9550,9517.37,9489.72,9475.05,9459.45,9433.05,9409.49,9382.9,9343.19,9269.65,9179.87,9116.16,9045.07,8973.41,8919.24,8819.78,8774.94,8749.59,8794.27,8796.69,8803.89,8838.63,8887.11,8922.98,9003.76,9031.17,9078.53,9063.5,9130.88,9162.44,9178.3,9183.61,9186.4,9190.56,9204.27,9209.11,9219.35,9240.98,9263.33,9275.67,9278.27,9266.22,9236.03,9187.58,9113.38,9014.12,8910.98,8804.72,8702.92,8584.93,8440.44,8195.55,7878.01,7373.47,6254.03,5300.77,3860.9,2142.29,4484.14,4215.75,4021.25,3933.59,3894.14,3869.33,3859,3838.79,3810.26,3790.08,3791.8,3818.38,4006.09,4255.31,4530.14
1221,3234,4829,5775,4455,1430,1463,803,924,748,88,2717,3993,10835,11000,10450,10824,10362,11000,11000,10560,10626,10802,10747,11000,11000,11000,11000,11000,11000,11000,11000,10858,10323.3,9349.69,6558.35,1944.77,6877.99,7928.15,8548.3,9103.92,10683.4,11000,11000,11000,11000,11000,11000,11000,11000,11000,11000,11000,11000,11000,11000,11000,11000,11000,11000,11000,11000,11000,11000,11000,11000,11000,11000,11000,11000,11000,11000,11000,11000,11000,11000,11000,11000,11000,11000,11000,11000,11000,11000,11000,11000,11000,11000,11000,7359,2519.64,1221.64,11.766,11.766,11.792,47.809,720.558,2668,3878.83,3962.54,3957.81,3958.65,3961.57,3964.75,3971.08,3947.33,3927.77,3921.35,3918.59,3914.46,3913.4,3900.86,3889.6,3867.64,3313.56,1079.52,0,2607,11000,11000,11000,11000,11000,11000,11000,11000,11000,11000,11000,11000,11000,11000,11000,11000,11000,11000,11000,11000,11000,11000,11000,11000,11000,11000,11000,11000,11000,11000,11000,11000,11000,11000,11000,11000,11000,11000,11000,11000,11000,11000,11000,11000,11000,11000,11000,11000,11000,11000,11000,11000,11000,11000,11000,11000,11000,11000,11000,11000,11000,11000,11000,11000,11000,11000,11000,11000,11000,11000,11000,11000,11000,11000,10406,8162,11000,11000,11000,11000,10783.2,10083.4,9676.19,9673.31,9999.97,10238.2,11000,10801.8,10813,11000,11000,11000,11000,11000,11000,11000,11000,11000,11000,11000,11000,11000,11000,11000,11000,11000,11000,11000,11000,11000,11000,11000,11000,11000,11000,11000,11000,11000,11000,11000,11000,11000,11000,11000,11000,11000,11000,11000,11000,11000,11000,11000,11000,11000,11000,10609.8,10441.5,10303.4,10194,10080.5,10002.5,9983.12,9997.47,9984.88,9968.36,9957.13,9931.35,9898.75,9882.14,9844.88,9798.62,9777.52,9765.23,9749.3,9738.49,9750.08,9778.66,9810.81,9832.27,9854.82,9865.21,9877.79,9877.46,9880.22,9881.79,9864.03,9832.99,9827.47,9832.27,9829.64,9821.66,9830.57,9824.92,9818.4,9839.41,9866.49,9911.95,9968.56,10050.1,10125.9,10181.5,10228.3,10263.1,10264,10239.9,10185.9,10113.2,10010.6,9908.22,9832.67,9790.54,9752.13,9731.92,9721.34,9721.76,9714.06,9722.29,9749.37,9752.4,9750.88,9754.16,9763.84,9768.11,9782.92,9797.47,9799.21,9785.33,9785.39,9779.33,9769.57,9781.76,9783.79,9785.69,9799.64,9824.66,9842.41,9859.43,9874.51,9884.87,9886.92,9891.41,9894.66,9876.26,9853.8,9838.9,9817.07,9803.46,9783.02,9764.72,9732.73,9692.49,9669.33,9640.57,9605.04,9579.29,9551.63,9512.4,9494.25,9485.38,9475.59,9453.35,9430.65,9411.24,9374.12,9311.29,9221.94,9155.9,9083.52,9010.64,8957.97,8861.68,8812.38,8778.15,8819.77,8803.94,8801.2,8834.98,8881.69,8912.95,8985.79,9010.87,9058.25,9051.73,9137.8,9178.56,9203.95,9215.14,9226.04,9233.31,9247.47,9249.01,9256.97,9279.49,9299.33,9302.46,9299.2,9281.61,9251.1,9206.77,9134.91,9041.16,8941.88,8841.46,8747.88,8645.45,8510.45,8319.15,8001.17,7523.12,6682.98,5678.44,2460,1850.79,4530.75,4242.31,4022.22,3934.24,3891.13,3868.59,3859.23,3841.13,3813.28,3791.67,3789.31,3811.58,4001.09,4250.75,4525.03
2640,4818,6369,7029,4059,2013,2387,3839,2794,1628,4686,8272,9559,10824,11000,10670,11000,11000,11000,11000,11000,10494,9867,9548,9757,10659,10714,10791,11000,11000,11000,11000,10805.6,9466.72,9009.98,7398.07,5071.14,5183.33,8347.07,9603.46,10131.4,10644.4,11000,11000,11000,11000,11000,11000,11000,11000,11000,11000,11000,11000,11000,11000,10329,11000,11000,11000,11000,11000,11000,11000,11000,11000,11000,11000,11000,11000,11000,11000,11000,11000,11000,11000,11000,11000,11000,11000,11000,11000,11000,11000,11000,11000,11000,11000,11000,10527,8470.64,5423.69,605.766,11.766,11.792,11.792,39.531,1698.79,3930.09,3953.57,3951.61,3954.95,3958.96,3966.01,3966.46,3945.38,3925.37,3919.79,3916.36,3910.32,3906.65,3893.63,3881.1,3863.04,58.421,0,0,5203,11000,11000,11000,11000,11000,11000,11000,11000,11000,11000,11000,11000,11000,11000,11000,11000,11000,11000,11000,11000,11000,11000,11000,11000,11000,11000,11000,11000,11000,11000,11000,11000,11000,11000,11000,11000,11000,11000,11000,11000,11000,11000,11000,11000,11000,11000,11000,11000,11000,11000,11000,11000,11000,11000,11000,11000,11000,11000,11000,11000,11000,11000,11000,11000,11000,11000,11000,11000,11000,11000,11000,11000,11000,10615,11000,11000,11000,11000,11000,11000,10804.2,10219.3,9868.59,9910.16,10323.5,10630.7,11000,6193,10087,9801,11000,11000,11000,11000,11000,11000,11000,11000,11000,11000,11000,11000,11000,11000,11000,11000,11000,11000,11000,11000,11000,11000,11000,11000,11000,11000,11000,11000,11000,11000,11000,11000,11000,11000,11000,11000,11000,11000,11000,11000,11000,11000,11000,11000,10873.5,10565,10376.4,10211.8,10085.9,9973.39,9896.57,9895.82,9902.38,9896.52,9889,9878.51,9863.52,9851.07,9853.67,9825.25,9786.52,9775.47,9770.84,9762.96,9758.83,9767.8,9790.43,9818.23,9843.25,9862.26,9873.51,9891.95,9890.46,9881.65,9887.21,9871.49,9844.71,9834.48,9834.14,9822.58,9807.85,9813.31,9804.56,9798.76,9801.49,9824.38,9852.04,9899.65,9971.93,10032.3,10081,10118.3,10168.1,10197.9,10201.8,10170.4,10122.4,10053.7,9979.15,9924.17,9900.77,9858.09,9824.48,9809.08,9793.38,9777.73,9781.15,9799.11,9798.36,9787.78,9788.52,9792.21,9782.89,9792.42,9794.35,9788.75,9769.24,9769.98,9757.45,9747.19,9756.16,9765.82,9777.57,9790.26,9814.97,9835.76,9851.71,9870.01,9886.78,9890.95,9893.27,9896.45,9886.01,9872.54,9862.81,9851.11,9827.75,9795.62,9766.36,9734.16,9691.83,9665.31,9635.72,9600.5,9578.59,9560.8,9530.42,9519.7,9514.75,9504.73,9486.11,9465.46,9464.92,9435.78,9367.54,9289.76,9224.74,9145.54,9061.96,9010.03,8911.49,8854.27,8804.12,8843.84,8817.81,8817.4,8858.64,8918.2,8954.83,9031.63,9066.68,9121.63,9126.25,9221.96,9269.34,9295.52,9307.58,9321.17,9327.24,9334.71,9336.08,9334.09,9347.43,9361.13,9358.56,9344.18,9319.4,9293.4,9256.13,9188,9090.56,9014.54,8904.26,8823.36,8724.63,8608.24,8438.69,8183.79,7775.74,7094.59,5320.14,3973.86,2680.54,4429.49,4273.49,4018.96,3931.6,3889.75,3867.41,3860.44,3844.09,3817.13,3794.97,3789.85,3810.37,4004.67,4264.42,4548.65
3993,5896,7095,7645,3707,3333,6358,8932,5533,3157,5907,8536,10021,10813,11000,11000,11000,11000,11000,11000,11000,11000,10219,8580,7447,7535,9108,8943,11000,11000,11000,10760.7,9790.61,9986.67,8950.22,7814.2,6565.17,7076.55,7468.64,9644.13,10208.5,10488,10754.8,10801.8,11000,11000,11000,11000,11000,11000,11000,11000,11000,11000,11000,10021,9691,11000,11000,11000,11000,11000,11000,11000,11000,11000,11000,11000,11000,11000,11000,11000,11000,11000,11000,11000,11000,11000,11000,11000,11000,11000,11000,11000,11000,11000,11000,11000,11000,10395,7700.67,7678.69,495.766,11.766,11.792,15.617,47.176,1947.12,3895.24,3944.68,3945.31,3950.25,3955.63,3967.53,3962.66,3943.71,3924.43,3919.05,3915.32,3907.1,3901.44,3887.02,3875.02,3860.78,19.59,0,0,7403,9845,11000,11000,11000,11000,11000,11000,11000,11000,11000,11000,11000,11000,11000,11000,11000,11000,11000,11000,11000,11000,11000,11000,11000,11000,11000,11000,11000,11000,11000,11000,11000,11000,11000,11000,11000,11000,11000,11000,11000,11000,11000,11000,11000,11000,11000,11000,11000,11000,11000,11000,11000,11000,11000,11000,11000,11000,11000,11000,11000,11000,11000,11000,11000,11000,11000,11000,11000,11000,11000,11000,11000,10714,11000,11000,11000,11000,11000,11000,11000,10865.2,10430.3,10129.6,10254.8,10747.2,11000,9581,6688,10857,9306,11000,11000,11000,11000,11000,11000,11000,11000,11000,11000,11000,11000,11000,11000,11000,11000,11000,11000,11000,11000,11000,11000,11000,11000,11000,11000,11000,11000,11000,11000,11000,11000,11000,11000,11000,11000,11000,11000,11000,11000,11000,11000,11000,11000,10869.9,10536,10326.7,10108.8,9975.4,9875.73,9798.58,9802.42,9814.48,9807.3,9800.93,9795.55,9785.13,9782.8,9795.26,9773.06,9744.43,9748.12,9750.89,9757.43,9769.32,9779.11,9802.14,9832.93,9862.24,9880.63,9891.15,9905.39,9912.55,9904.64,9903.01,9892.12,9864.22,9842.76,9836.94,9816.92,9793.98,9778.96,9761.75,9751.18,9749.52,9760.22,9800.34,9836.96,9900.89,9957.29,10004,10049.1,10109.1,10158.6,10193.3,10183.7,10164.3,10113,10060.9,10020,10004.2,9959.04,9913.23,9873.6,9845.44,9824.89,9821.58,9830.6,9828.98,9819.46,9821.35,9827.79,9823.72,9823.21,9826.58,9812.31,9795.1,9785.58,9773.13,9758.62,9766.57,9774.97,9792.18,9807.36,9842.23,9864.16,9878.96,9893.61,9911.91,9919.33,9923.88,9934.46,9928.36,9913.62,9903.39,9893.76,9855.62,9830.43,9794.34,9746.68,9703.73,9677.02,9647.76,9615.32,9584.4,9568.49,9546.54,9537.87,9533.32,9527.18,9509.33,9492.55,9489.39,9472.99,9424.61,9343.23,9282.74,9197.57,9104.24,9045.98,8947.84,8881.96,8822.14,8853.51,8818.13,8824.25,8877.35,8947.45,8999.26,9075.27,9123.29,9200.14,9219.45,9326.85,9382.86,9409.3,9417.87,9437.43,9446.47,9451.83,9448.58,9441.17,9443.79,9449.06,9441.91,9421.53,9389.22,9355.74,9311.25,9236.06,9144.62,9056.63,8963.06,8880.85,8784.05,8682.17,8533.18,8324.62,8019.19,7444.63,4017.51,2940.33,3054.72,4165.22,4297.26,4009.23,3923.98,3883.18,3864.51,3860.4,3845.98,3819.68,3797.41,3792.4,3812.52,4021.76,4297.71,4610.68
5280,6787,7898,8338,7337,7150,7953,7689,6633,4829,7238,8646,10054,10791,11000,10857,11000,11000,11000,11000,11000,11000,10681,7458,2486,297,660,2387,11000,11000,10763.9,7852.25,10426,9833.47,8794.5,8121.24,7996.5,9187.24,9261.12,8691.06,8093.13,10703.8,11000,11000,11000,11000,11000,11000,11000,11000,11000,11000,11000,11000,11000,10615,7513,10780,11000,11000,11000,11000,11000,11000,11000,11000,11000,11000,11000,11000,11000,11000,11000,11000,11000,11000,11000,11000,11000,11000,11000,11000,11000,11000,11000,11000,11000,11000,10868,10197,8206.62,5027.69,449.202,11.766,11.792,11.792,78.217,2395.25,3921.99,3924.4,3931.08,3943.33,3950.03,3967.99,3958.59,3941.28,3923.59,3918.13,3914.64,3905.75,3897.5,3881.12,3869.99,3844.85,290.984,0,0,6501,9031,11000,11000,11000,11000,11000,11000,11000,11000,11000,11000,11000,11000,11000,11000,11000,11000,11000,11000,11000,11000,11000,11000,11000,11000,11000,11000,11000,11000,11000,11000,11000,11000,11000,11000,11000,11000,11000,11000,11000,11000,11000,11000,11000,11000,11000,11000,11000,11000,11000,11000,11000,11000,11000,11000,11000,11000,11000,11000,11000,11000,11000,11000,11000,11000,11000,11000,11000,11000,11000,11000,11000,11000,11000,11000,11000,11000,11000,11000,11000,11000,10605.9,10360.2,10586.3,11000,11000,4510,6776,11000,10846,11000,11000,11000,11000,11000,11000,11000,11000,11000,11000,11000,11000,11000,11000,11000,11000,11000,11000,11000,11000,11000,11000,11000,11000,11000,11000,11000,11000,11000,11000,11000,11000,11000,11000,11000,11000,11000,11000,11000,11000,11000,11000,11000,11000,10887.9,10530.4,10287.4,10030,9888.3,9753.68,9697.89,9705.64,9711.96,9708.7,9710.68,9712.43,9706.53,9713.36,9737.96,9724.62,9706.93,9722.57,9738.23,9754.01,9776.91,9794.36,9817.03,9855.48,9884.8,9900.34,9915.71,9933.08,9936.24,9920.26,9918.27,9906.65,9877.61,9850.16,9834.29,9804.89,9771.44,9746.06,9721.77,9699.78,9692.28,9703.95,9742.04,9780.21,9842.68,9902.18,9959.11,10023.4,10090.8,10152.7,10198.1,10206.9,10197.6,10168,10125.8,10093.7,10071.6,10029.1,9979.34,9927.92,9883.52,9853.29,9847.51,9847.32,9839.56,9827.7,9832.97,9835.08,9832.31,9830.75,9831.13,9821.97,9809.09,9802.92,9800.4,9783.84,9790.27,9799.69,9825.42,9842.06,9880.83,9911.89,9928.54,9945.6,9963.61,9970.6,9974.37,9987.37,9986.22,9971.16,9956.37,9941.96,9918.44,9887.22,9846.96,9800.05,9748.55,9713.79,9673.49,9637.87,9612.61,9598.46,9575.69,9560.9,9553.52,9542.65,9515.2,9496.38,9503.09,9492.01,9459.14,9383.9,9315.04,9222.47,9125.93,9057.89,8957.73,8891.07,8821.43,8828.04,8788.28,8797.64,8861.1,8942.5,8992.82,9078.98,9146.69,9227.62,9263.88,9376.13,9426.62,9455,9473.66,9499.56,9514.8,9520.89,9520.31,9509.86,9509.43,9504.6,9490.02,9464.77,9423.82,9383.34,9335.41,9263.83,9175.27,9086.94,8997.84,8923.98,8840.2,8745.06,8620.77,8453.64,8225.82,7739.01,6288.47,1430.73,1784.64,771.593,4308.92,3994.45,3915.47,3879.36,3863,3860.63,3848.11,3823.35,3800.62,3795.42,3806.06,4024.32,4320.68,4654.8
4631,6270,7546,8063,6655,5907,6072,4521,6611,5841,7183,8712,10010,10714,11000,10835,11000,11000,11000,11000,11000,11000,10318,4631,286,22,55,583,11000,11000,2536.24,8905.27,10039.4,9625.48,8819.27,8615.12,9006.26,5726.27,5196.48,7990.74,9345.84,10671.9,11000,11000,10791,9768,11000,11000,11000,11000,11000,11000,11000,11000,11000,10857,11000,11000,11000,11000,11000,11000,11000,11000,11000,11000,11000,11000,11000,11000,11000,11000,11000,11000,11000,11000,11000,11000,11000,11000,11000,11000,11000,11000,11000,11000,11000,11000,11000,10670,8921.67,5489.69,22.766,11.766,11.792,113.019,1043.79,3649.04,3917.82,3921.12,3930.45,3940.51,3948.3,3968.2,3954.86,3939.09,3922.3,3917.1,3913.23,3904.02,3892.92,3875.29,3863.88,3862.46,2929.23,26.991,1617,10879,10780,11000,11000,11000,11000,11000,11000,11000,11000,11000,11000,11000,11000,11000,11000,11000,11000,11000,11000,11000,11000,11000,11000,11000,11000,11000,11000,11000,11000,11000,11000,11000,11000,11000,11000,11000,11000,11000,11000,11000,11000,11000,11000,11000,11000,11000,11000,11000,11000,11000,11000,11000,11000,11000,11000,11000,11000,11000,11000,11000,11000,11000,11000,11000,11000,11000,11000,11000,11000,11000,11000,11000,11000,11000,11000,11000,11000,11000,11000,11000,11000,10725.6,10547.9,10835.6,11000,10845.8,3762,5896,11000,11000,11000,11000,11000,11000,11000,11000,11000,11000,11000,11000,11000,11000,11000,11000,11000,11000,11000,11000,11000,11000,11000,11000,11000,11000,11000,11000,11000,11000,11000,11000,11000,11000,11000,11000,11000,11000,11000,11000,10681,11000,11000,11000,11000,11000,10881.4,10522.6,10214.3,9984.62,9819.31,9673.57,9607.68,9607.12,9608.22,9608.92,9617.37,9623.54,9625.82,9639.59,9674.35,9675.87,9664.31,9690.05,9717.39,9741.88,9771.82,9799.78,9829.18,9867.03,9900.88,9925.4,9946.61,9965.64,9972.33,9957.47,9955.05,9945.78,9919.47,9882.24,9860.33,9824.06,9786.17,9754.89,9729.98,9703.13,9691.97,9696.65,9737.43,9780.76,9835.96,9899.35,9962.15,10032.1,10107,10170,10212.7,10229,10227.5,10201.2,10158.8,10125.8,10088.1,10045.6,9998.47,9943.08,9888.48,9855.57,9842.87,9834.82,9819.34,9805.94,9805.14,9799.72,9805.24,9807.24,9813.66,9812.59,9799.55,9808.96,9816.3,9818.26,9825.79,9850,9880.5,9902.95,9945.77,9976.06,9984.47,9999.35,10012.8,10013.7,10014.8,10033.9,10031.1,10015.3,9998.03,9983.52,9952.99,9914.42,9869.88,9823.65,9764.1,9711.69,9659.81,9609.57,9578.82,9556.88,9532.43,9511.7,9494.8,9487.2,9472.02,9468.2,9493.4,9503.01,9474.75,9408.55,9343.17,9253.57,9140.65,9064.09,8964.61,8879.6,8797.13,8786.49,8744.27,8755.66,8827.21,8916.47,8976.43,9069.21,9135.01,9226.97,9285.69,9401.99,9455.2,9476.39,9491.18,9520.47,9534.96,9538.08,9528.23,9519.38,9505.59,9498.26,9473.37,9442.17,9398.49,9352.5,9306.76,9242.22,9168.91,9077.59,8999.34,8935.62,8865.53,8783.82,8672.92,8548.86,8353.59,7963.94,6746.06,645.862,1199.51,293.324,4314,3980.83,3910.96,3872.47,3860.97,3861.3,3849.99,3826.47,3803.86,3800.43,3813.09,4013.65,4307.83,4649.54
2420,4147,5687,6523,5522,4620,5962,6072,7040,5522,7205,8404,9691,10560,10835,10384,11000,11000,11000,11000,10857,9086,1650,198,0,0,143,956.997,3716.42,3553.86,490.574,5500.69,9430.17,9200.05,8799.42,8680.96,8646.33,3978.47,5499.45,582.819,33,33,33,44,33,44,4147,9878,10538,10483,11000,11000,11000,11000,11000,11000,11000,11000,11000,11000,11000,11000,11000,11000,11000,11000,11000,11000,11000,11000,11000,11000,11000,11000,11000,11000,11000,11000,11000,11000,11000,11000,11000,11000,11000,11000,11000,11000,10868,9878,5940.64,1320.67,11.718,11.766,19.616,494.986,1458.02,3127.38,3922.95,3924.67,3933.06,3939.5,3947.51,3968.39,3950.31,3935.41,3919.71,3915.74,3912.56,3902.35,3889.62,3872.03,3861.86,3863.67,3858.71,7.998,8965,11000,11000,11000,11000,11000,11000,11000,11000,11000,11000,11000,11000,11000,11000,11000,11000,11000,11000,11000,11000,11000,11000,11000,11000,11000,11000,11000,11000,11000,11000,11000,11000,11000,11000,11000,11000,11000,11000,11000,11000,11000,11000,11000,11000,11000,11000,11000,11000,11000,11000,11000,11000,11000,11000,11000,11000,11000,11000,11000,11000,11000,11000,11000,11000,11000,11000,11000,11000,11000,11000,11000,11000,11000,11000,11000,11000,11000,11000,11000,11000,11000,11000,10780.5,10655.6,11000,11000,11000,8173,11000,11000,11000,11000,11000,11000,11000,11000,11000,11000,11000,11000,11000,11000,11000,11000,11000,11000,11000,11000,11000,11000,11000,11000,11000,11000,11000,11000,11000,11000,11000,11000,11000,11000,11000,11000,11000,11000,11000,11000,9559,11000,11000,11000,11000,11000,11000,10845.2,10480.4,10190.7,9948.91,9762.89,9632.74,9522.05,9516.2,9510.16,9511.71,9523.85,9528.89,9533.7,9547.5,9586.38,9591.08,9597.76,9631.04,9667.02,9694.68,9738.79,9776.79,9814.87,9853.37,9902.75,9932.9,9956.45,9982.23,10000.6,9987.02,9984.11,9978.5,9954.85,9922,9902.53,9869.8,9831.97,9802.51,9780.14,9755.64,9741.71,9749.17,9785.3,9819.98,9873.47,9932.05,9986.36,10045.3,10105.2,10161.2,10198.3,10211.8,10207.4,10176.6,10139.1,10104.1,10066.8,10028.1,9984.12,9932.27,9880.15,9845.35,9831.7,9819.62,9803.13,9788.14,9784.02,9783.51,9790.46,9797.55,9813.13,9817.8,9817.35,9831.81,9848.63,9857.51,9882.6,9906.77,9944.82,9967.48,10013.1,10051,10064,10072.6,10081.9,10087.3,10081.3,10086.4,10080,10060.3,10038.9,10022.8,9998.17,9952.11,9904.89,9851.78,9789.14,9737.29,9688.5,9640.72,9602.16,9586.3,9560.57,9533.65,9514.45,9511.7,9496.37,9498.04,9531.02,9539,9519.81,9453.35,9382.57,9283.26,9155.02,9064.92,8956.71,8855.51,8756.41,8726.23,8685.16,8697.9,8772.36,8879.6,8948.09,9046.43,9129.89,9229.49,9304.6,9424.33,9477.18,9500.49,9514.85,9542.48,9550.95,9547,9540.47,9520.59,9496.37,9480.99,9448.3,9407.12,9354.64,9305.22,9256.68,9194.23,9128.69,9042.44,8974.95,8913.85,8853.41,8781.54,8695.77,8586.14,8411.02,8121.89,6848.83,536.614,1041.56,291.104,4316.15,3973.63,3908.33,3868,3859.72,3861.99,3851.15,3828.76,3806.76,3804.94,3820.68,4005.62,4294.3,4630.54
1089,2706,4444,5104,4059,3850,4378,2838,3784,2519,5709,6820,8063,8932,8536,3311,7447,9394,8591,7612,6501,1023,44,0,11,561,1760,5744.36,3393.14,950.595,1413.65,8189.9,9356.94,8620.75,8177.24,7930.17,3469.46,71.908,42.622,33,33,33,33,33,33,33,33,33,825,9086,8514,1353,6974,10626,11000,11000,11000,11000,11000,11000,11000,11000,11000,11000,11000,11000,11000,11000,11000,11000,11000,11000,11000,11000,11000,11000,11000,11000,11000,11000,11000,11000,11000,11000,11000,11000,11000,11000,10758,8415.62,1727.64,99.694,11.694,11.742,33.806,635.93,1869.46,3624.59,3935.29,3929.45,3936.59,3940.75,3949.31,3968.98,3947.37,3931.92,3917.51,3914,3911.3,3901.5,3890.13,3872.41,3864.05,3865.51,3867.2,7.972,10747,11000,11000,11000,11000,11000,11000,11000,11000,11000,11000,11000,11000,11000,11000,11000,11000,11000,11000,11000,11000,11000,11000,11000,11000,11000,11000,11000,11000,11000,11000,11000,11000,11000,11000,11000,11000,11000,11000,11000,11000,11000,11000,11000,11000,11000,11000,11000,11000,11000,11000,11000,11000,11000,11000,11000,11000,11000,11000,11000,11000,11000,11000,11000,11000,11000,11000,11000,11000,11000,11000,11000,11000,11000,11000,11000,11000,11000,11000,11000,11000,11000,11000,10787.8,10649,11000,11000,11000,10714,11000,11000,11000,11000,11000,11000,11000,11000,11000,11000,11000,11000,11000,11000,11000,11000,11000,11000,11000,11000,11000,11000,11000,11000,11000,11000,11000,11000,11000,11000,11000,11000,11000,11000,11000,11000,11000,11000,11000,11000,5995,11000,11000,11000,11000,11000,11000,10848.7,10488.8,10182.9,9936.39,9740.73,9603.87,9477.4,9453.67,9441.86,9434.09,9442.27,9451.98,9450.44,9469.91,9506.48,9519.25,9537.23,9582.15,9626.63,9664.35,9720.95,9768.28,9817.67,9862.96,9913.98,9949.93,9982.04,10012,10032.6,10029.5,10032.2,10028.3,10003.6,9976.55,9955.01,9918.61,9885.09,9852.86,9834.34,9808.54,9800.17,9805.61,9831.11,9856.73,9905.75,9953.87,10003.2,10048,10096.6,10140.9,10166.1,10172.5,10164.7,10137.1,10104.5,10068.5,10033.1,9998.52,9955.53,9911.83,9867.39,9835.3,9818.56,9800.63,9786.74,9776.78,9772.76,9778.55,9790.69,9803.6,9831.78,9843.64,9850.85,9875.89,9895.09,9915.5,9940.05,9972.41,10013,10040.5,10084.7,10120.5,10131.7,10139.1,10149.8,10149.1,10143.7,10142.5,10137.8,10116.1,10092.4,10072.9,10047.5,10000.6,9950,9896.87,9837.61,9781.19,9726.08,9680.91,9637.92,9620.06,9591.61,9561.35,9537.15,9534,9524.53,9522.67,9558.88,9575.21,9558.76,9485.59,9410.28,9299.25,9159.97,9053.83,8935.59,8815.92,8705.67,8654.99,8612.8,8628.92,8713.55,8832.61,8909.4,9004.13,9108.66,9218.65,9302.73,9432.86,9486.48,9510.69,9523.3,9552.86,9559.72,9554.86,9538.12,9512.89,9484.92,9463.68,9421.9,9372.51,9321.18,9267.54,9217.37,9156.53,9091.96,9022.7,8951.68,8892.21,8831.34,8768.65,8696.11,8613.42,8448.62,8205.59,6880.35,523.152,971.706,324.733,4308.74,3962.19,3907.04,3867.18,3860.04,3863.53,3851.96,3831.2,3809.42,3808.9,3826.83,4000.73,4286.12,4617.43
231,957,2585,2519,3883,4620,6061,429,3421,341,2255,1947,2552,1496,396,55,1320,3498,4840,2816,440,11,0,0,495,3860.8,7897.48,7524.5,1163.18,1702.88,7651.95,8331.97,8197.82,5893.3,4417.84,1437.7,65.265,33,33,33,33,33,33,33,33,33,33,33,33,33,55,33,539,3553,11000,11000,11000,11000,11000,11000,11000,11000,11000,11000,11000,11000,11000,11000,11000,11000,11000,11000,11000,11000,11000,11000,11000,11000,11000,11000,11000,11000,11000,11000,11000,11000,10846,10560,9647,3355.62,429.619,55.644,11.669,11.669,79.91,1767.69,3503.9,3935.38,3940.2,3931.23,3937.43,3940.43,3950.05,3968.58,3944.68,3927.15,3915.26,3912.9,3911.68,3904.4,3893.54,3875.04,3869.43,3871.56,3877.1,3.973,10043,11000,11000,11000,11000,11000,11000,11000,11000,11000,11000,11000,11000,11000,11000,11000,11000,11000,11000,11000,11000,11000,11000,11000,11000,11000,11000,11000,11000,11000,11000,11000,11000,11000,11000,11000,11000,11000,11000,11000,11000,11000,11000,11000,11000,11000,11000,11000,11000,11000,11000,11000,11000,11000,11000,11000,11000,11000,11000,11000,11000,11000,11000,11000,11000,11000,11000,11000,11000,11000,11000,11000,11000,11000,11000,11000,11000,11000,11000,11000,11000,11000,11000,10773.4,10600.6,10880,11000,11000,11000,11000,11000,11000,11000,11000,11000,11000,11000,11000,11000,11000,11000,11000,11000,11000,11000,11000,11000,11000,11000,11000,11000,11000,11000,11000,11000,11000,11000,11000,11000,11000,11000,11000,11000,11000,11000,11000,11000,11000,11000,10681,11000,11000,11000,11000,11000,11000,10848.2,10487.6,10164.8,9912.75,9709.59,9589.12,9440.33,9391.58,9368.27,9351.66,9353.83,9368.97,9374.03,9392.84,9432.91,9454.2,9483.76,9535.95,9590.9,9645.65,9708.8,9762.71,9814.35,9868.99,9925.46,9971.73,10003.4,10038.1,10068.6,10071.8,10074.8,10072.1,10055.1,10027.8,10006.1,9974.45,9937.6,9913.31,9891.59,9871.77,9860.7,9866.97,9881.68,9903.04,9945.85,9984.47,10019.8,10052.6,10090.3,10122.2,10134.7,10136.6,10126.4,10096.4,10068.2,10031.2,9997.96,9972.96,9935.16,9897.24,9852.05,9825.28,9809.45,9792.66,9776.32,9769.96,9771.77,9778.29,9798.28,9823.34,9859.76,9876.34,9889.24,9910.88,9939.09,9966.96,10001,10028.4,10065.3,10093.6,10139.3,10174.6,10182.8,10187,10192.5,10197.1,10189,10184.3,10177.7,10155.6,10125.1,10111.9,10080.5,10030.6,9980.48,9929.67,9867.36,9809.43,9745.39,9703.17,9664.38,9637.92,9614.86,9578.39,9553.6,9549.64,9538.15,9540.68,9578.16,9597.62,9587.29,9517.31,9430.64,9307,9149.16,9029.37,8903.2,8766.79,8641.28,8574.4,8530.38,8549.95,8640.5,8765.15,8855.35,8957.35,9068.59,9193.03,9293.37,9427.3,9477.85,9504.93,9518.5,9544.83,9551.88,9547.35,9534.94,9498.7,9476.3,9451.68,9409.05,9356.52,9301.94,9238.56,9199.06,9137.65,9067.41,9001.62,8931.9,8874.06,8816.75,8752,8685.76,8622.28,8454.61,8263.71,6882.08,614.773,1104.02,439.486,4309.38,3957.35,3906.97,3866.65,3859.6,3864.4,3852.17,3832.68,3811.84,3813.05,3828.45,4001.29,4283.58,4611.04
33,154,770,1650,121,44,275,88,22,11,11,11,11,11,0,0,88,275,220,0,0,0,0,55,825,3757.16,4302.03,2468.84,2884.43,5614.9,7214.64,6410.19,1958.44,210.207,57.215,33,33,11,22,11,11,11,11,0,0,0,11,22,22,33,33,33,33,33,6875,10813,11000,11000,11000,11000,11000,11000,11000,11000,11000,11000,11000,11000,11000,11000,11000,11000,11000,11000,11000,11000,11000,11000,11000,11000,11000,11000,11000,11000,11000,11000,11000,11000,11000,9262.59,3784.62,11.619,11.669,17.242,54.736,767.947,3926.44,3963.6,3947.23,3933.73,3938.99,3940.05,3950.89,3966.05,3941.27,3921.67,3913.39,3912.52,3912.45,3909.83,3896.5,3879.55,3875.99,3881.15,3888.28,544.507,836,11000,11000,11000,11000,11000,11000,11000,11000,11000,11000,11000,11000,11000,11000,11000,11000,11000,11000,11000,11000,11000,11000,11000,11000,11000,11000,11000,11000,11000,11000,11000,11000,11000,11000,11000,11000,11000,11000,11000,11000,11000,11000,11000,11000,11000,11000,11000,11000,11000,11000,11000,11000,11000,11000,11000,11000,11000,11000,11000,11000,11000,11000,11000,11000,11000,11000,11000,11000,11000,11000,11000,11000,11000,11000,11000,11000,11000,11000,11000,11000,11000,11000,10737.6,10534,10810.2,11000,11000,11000,11000,11000,11000,11000,11000,11000,11000,11000,11000,11000,11000,11000,11000,11000,11000,11000,11000,11000,11000,11000,11000,11000,11000,11000,11000,11000,11000,11000,11000,11000,11000,11000,11000,11000,11000,11000,11000,11000,11000,11000,11000,11000,11000,11000,11000,11000,11000,11000,10555.3,10212.3,9947.67,9732,9599.09,9437.5,9363.83,9337.98,9313.93,9313.72,9327.43,9336.22,9360.43,9398.84,9424.49,9458.78,9516.29,9573.28,9631,9691.54,9755.57,9810.13,9861.96,9922.01,9967.24,10005.2,10046.5,10080.3,10090.1,10101.6,10101.3,10090.5,10070.5,10050.8,10026.6,9992.99,9965.39,9951.67,9933,9924.53,9928.5,9936.19,9951.89,9979.47,10010.3,10036.9,10058.8,10086.8,10104.8,10107.3,10105.1,10094.8,10062.6,10031.6,10000.3,9964.99,9943.72,9912.98,9880.77,9845.07,9816.38,9805.93,9791.28,9786.04,9786.05,9782.33,9798.31,9824.3,9853.29,9889.99,9913.95,9928.44,9957.68,9988.37,10015.1,10050.1,10077.3,10117.7,10141,10184.1,10216.9,10225.4,10227.3,10234.2,10235,10220,10211.3,10207.1,10181.7,10153.2,10133.4,10100.8,10048.9,9997.9,9944.63,9882.96,9818.66,9756.93,9716.25,9666.33,9645.29,9621.12,9585.83,9560.34,9557.36,9546.3,9549.26,9592.24,9617.52,9608.4,9532.21,9441.31,9307.35,9129.88,8996.46,8857.03,8702.37,8570.45,8481.71,8448.02,8469.85,8561.97,8696.35,8792.21,8898.32,9022.25,9146.59,9272.57,9400.99,9452.2,9484.33,9499.67,9510.48,9523.18,9522.73,9518.4,9489.01,9460.22,9445.28,9400.01,9350.07,9300.91,9243.82,9192.04,9130.84,9057.59,8981.74,8923.11,8856.44,8792.78,8728.17,8663.83,8598.16,8410.72,8157.24,6704.34,809.852,1342.5,567.086,4298.23,3960.39,3910.23,3868.5,3859.96,3864.73,3850.86,3833.49,3813.13,3815.01,3829.69,4003.17,4282.88,4606.72
33,11,22,242,561,1122,1518,0,0,0,0,0,0,0,0,0,0,22,0,0,0,0,11,66,231,373.994,545.716,615.918,824.466,1849.15,2505.07,492.492,58.554,16.656,0,0,0,0,0,0,0,0,0,0,0,0,0,0,0,0,0,0,0,33,2849,10131,11000,11000,11000,11000,11000,11000,11000,11000,11000,11000,11000,11000,11000,11000,11000,11000,11000,11000,11000,11000,11000,11000,11000,11000,11000,11000,11000,11000,11000,11000,11000,11000,11000,10824.6,8657.59,572.619,44.595,39.089,286.761,640.19,3990.85,3965.34,3948.57,3934.05,3939.69,3939.45,3950.08,3962.33,3937.91,3916.68,3911.46,3912.58,3915.5,3913.01,3897.49,3885.18,3882.06,3890.35,3896.66,327.367,132,11000,11000,11000,11000,11000,11000,11000,11000,11000,11000,11000,11000,11000,11000,11000,11000,11000,11000,11000,11000,11000,11000,11000,11000,11000,11000,11000,11000,11000,11000,11000,11000,11000,11000,11000,11000,11000,11000,11000,11000,11000,11000,11000,11000,11000,11000,11000,11000,11000,11000,11000,11000,11000,11000,11000,11000,11000,11000,11000,11000,11000,11000,11000,11000,11000,11000,11000,11000,11000,11000,11000,11000,11000,11000,11000,11000,11000,11000,11000,11000,11000,11000,10618.8,10371.8,10662.4,11000,11000,11000,11000,11000,11000,11000,11000,11000,11000,11000,11000,11000,11000,11000,11000,11000,11000,11000,11000,11000,11000,11000,11000,11000,11000,11000,11000,11000,11000,11000,11000,11000,11000,11000,11000,11000,11000,11000,11000,11000,11000,11000,11000,11000,11000,11000,11000,11000,11000,11000,10619.6,10259.7,9983.47,9759.14,9622.42,9444.54,9360.75,9323.51,9299.53,9294.53,9311.49,9319.23,9343.73,9382.74,9409.72,9449.56,9510.79,9568.73,9628.8,9694.55,9755.89,9808.68,9865.31,9923.88,9973.73,10013.1,10057,10097.3,10112.9,10128.4,10129.6,10124.7,10111.1,10097.9,10073.4,10045.3,10023.2,10011,9994.61,9985.91,9993.29,9993.71,9998.98,10022.3,10042.7,10056.9,10068.3,10090,10097.2,10088.3,10083.6,10069.2,10038.6,10009.6,9977.21,9943.61,9927.33,9897.24,9867.68,9843.79,9819.83,9815.3,9799.23,9804.57,9805.81,9804.41,9825,9855.38,9885.73,9923.65,9955.31,9973.69,10003.5,10033,10058.7,10083.2,10114.7,10151.3,10174.2,10213.3,10246.4,10248.4,10253.7,10257.9,10256.9,10238.6,10228.4,10219.3,10188,10155.4,10136.5,10100,10037.9,9983.29,9929.06,9870.19,9802.16,9737.35,9695.26,9655.25,9636.2,9611.77,9579.83,9550.71,9555.51,9546.79,9556.91,9602.55,9629.87,9623.37,9535.36,9437.8,9291.36,9104.32,8946.4,8800.07,8633.06,8487.09,8391.83,8364.18,8387.42,8484.23,8621.08,8725.62,8836.58,8970.77,9098.89,9222.56,9352.32,9405.48,9439.62,9439.76,9462.44,9473.28,9490.87,9492.41,9471.41,9447.61,9433.17,9402.36,9355.26,9307.77,9256.71,9206.59,9139.56,9054.45,8985.73,8912.95,8846.16,8776.92,8699.79,8634.2,8554.91,8337.29,8027.73,6392.83,1113.3,1571.36,899.901,4290.02,3969.18,3915.71,3871.7,3861.2,3865.03,3849.99,3834.33,3814.07,3816.54,3828.73,4006.19,4284.94,4605.9
11,33,0,0,11,66,44,0,0,0,0,0,0,0,0,0,0,0,0,0,0,0,0,0,11,11,33,54.614,74.967,209.286,95.785,0,7.895,0,0,0,0,0,0,0,0,0,0,0,0,0,0,0,0,0,0,0,0,0,5049,10483,9933,5918,5247,8382,7656,11000,11000,11000,11000,11000,11000,11000,11000,11000,11000,11000,11000,11000,11000,11000,11000,11000,11000,11000,11000,11000,11000,11000,11000,11000,11000,11000,11000,11000,9658.57,5401.6,5077.47,795.371,1059.79,430.437,1839.04,3973.5,3954.48,3939.28,3943.71,3941.55,3951.48,3958.85,3935.94,3914.2,3910.69,3913.45,3918.14,3916.28,3898.48,3890.62,3887.16,3898.42,3902.95,371.469,275,11000,11000,11000,11000,11000,11000,11000,11000,11000,11000,11000,11000,11000,11000,11000,11000,11000,11000,11000,11000,11000,11000,11000,11000,11000,11000,11000,11000,11000,11000,11000,11000,11000,11000,11000,11000,11000,11000,11000,11000,11000,11000,11000,11000,11000,11000,11000,11000,11000,11000,11000,11000,11000,11000,11000,11000,11000,11000,11000,11000,11000,11000,11000,11000,11000,11000,11000,11000,11000,11000,11000,11000,11000,11000,11000,11000,11000,11000,11000,11000,11000,10767.7,10449.1,10200.5,10470.7,10869.2,11000,11000,11000,11000,11000,11000,11000,11000,11000,11000,11000,11000,11000,11000,11000,11000,11000,11000,11000,11000,11000,11000,11000,11000,11000,11000,11000,11000,11000,11000,11000,11000,11000,11000,11000,11000,11000,11000,11000,11000,11000,11000,11000,11000,11000,11000,11000,11000,11000,11000,10653.8,10294.9,10024.2,9792.14,9651.36,9463.21,9364.27,9324.09,9291.31,9284.14,9298.63,9308.63,9335.62,9372.13,9400.4,9443.51,9508.48,9566.05,9631.92,9694.12,9752.92,9807.97,9857.56,9916.78,9968.53,10007.4,10054.5,10093,10117.4,10136.9,10145,10142.7,10139.5,10127.1,10110.2,10089.4,10073.4,10062.8,10050.9,10052.8,10057.8,10053.7,10050.3,10066.4,10081.7,10091.5,10090.8,10100.4,10098,10081.8,10072.4,10056.3,10022.4,9994.79,9959.22,9928.29,9920.12,9892.98,9868.63,9847.44,9832.26,9825.74,9818.56,9819.3,9830.96,9829.99,9853.05,9887.24,9919.9,9962.78,9992.92,10012.2,10038.5,10067.1,10092.6,10114.6,10141.8,10170.4,10194.8,10229.8,10261.7,10262.2,10256.4,10258.3,10252.1,10234.3,10214.7,10200.9,10168,10131.2,10101.5,10064.8,10001.5,9941.56,9889.25,9827.69,9764.24,9697.44,9659.7,9620.46,9601.24,9587.35,9557.46,9537.93,9540.25,9534.74,9548.54,9595.32,9623.42,9619.1,9517.46,9407.82,9250.67,9058.44,8892.15,8734.12,8553.98,8401.17,8299.3,8281.79,8309.54,8409.24,8533.41,8654.88,8768.03,8912.88,9043.47,9171.73,9284.46,9346.82,9365.74,9380.95,9416.78,9429.68,9442.92,9468.34,9464.41,9450.91,9451.19,9416.08,9378.03,9335.72,9287.68,9236,9147.52,9072.66,8987.64,8910.44,8838.56,8759.12,8672.4,8601.38,8507.51,8267.76,7902.19,5373.15,1161.67,2239.6,1713.43,4285.39,3978.78,3921.05,3873.94,3862.14,3864.14,3847.96,3833.47,3813.59,3815.75,3828.16,4010.86,4288.02,4607.25
0,0,33,0,0,0,0,0,0,0,0,0,0,0,0,0,0,0,0,0,0,0,0,0,0,0,0,0,0,19.864,0,0,0,0,0,0,0,0,0,0,0,0,0,0,0,0,0,0,0,0,0,0,0,0,0,484,924,44,176,682,5599,11000,10857,11000,11000,11000,11000,11000,11000,11000,11000,11000,11000,11000,11000,11000,11000,11000,11000,11000,11000,11000,11000,11000,11000,11000,11000,11000,11000,10648.6,6072.55,4942.48,3989.56,727.052,494.126,232.554,668.358,3981.39,3960.39,3942.69,3947.31,3941.92,3952.97,3954.99,3933.07,3912.27,3910.15,3914.95,3920.12,3920.54,3904.64,3895.56,3894.24,3908.41,3911.45,628.667,66,10659,11000,11000,11000,11000,11000,11000,11000,11000,11000,11000,11000,11000,11000,11000,11000,11000,11000,11000,11000,11000,11000,11000,11000,11000,11000,11000,11000,11000,11000,11000,11000,11000,11000,11000,11000,11000,11000,11000,11000,11000,11000,11000,11000,11000,11000,11000,11000,11000,11000,11000,11000,11000,11000,11000,11000,11000,11000,11000,11000,11000,11000,11000,11000,11000,11000,11000,11000,11000,11000,11000,11000,11000,11000,11000,11000,11000,11000,11000,11000,10856.2,10499.9,10199.4,9988.7,10224.2,10601.7,11000,11000,11000,11000,11000,11000,11000,11000,11000,11000,11000,11000,11000,11000,11000,11000,11000,11000,11000,11000,11000,11000,11000,11000,11000,11000,11000,11000,11000,11000,11000,11000,11000,11000,11000,11000,11000,11000,11000,11000,11000,11000,11000,11000,11000,11000,11000,11000,11000,11000,10664.6,10316.9,10050.6,9821.59,9680.12,9488.61,9375.12,9333.19,9294.62,9287.76,9299.68,9306.34,9337.32,9376.11,9406.74,9451.51,9512.21,9570.04,9636.18,9700.17,9760.65,9807.69,9859.46,9919.11,9968.54,10004.6,10059,10097,10127.6,10147.3,10161.2,10165.9,10169.6,10161.6,10153.1,10137.5,10127.3,10119.7,10111.1,10114.3,10121.1,10108,10105.8,10113,10122.6,10123.4,10119.8,10121.5,10105.8,10084.5,10072.6,10054.5,10022.3,9997.51,9964.64,9935.28,9923.54,9903.09,9878.15,9866.92,9851.02,9844.58,9836.58,9847.78,9857.85,9858.57,9887.07,9923.12,9955.34,9990.93,10025.8,10042,10066.6,10091.4,10113.4,10137.1,10155,10176.5,10194.3,10226.5,10255.2,10254.5,10247.9,10246.5,10238.7,10215.2,10190.9,10172.4,10134.7,10083.8,10049.1,10002.3,9938.17,9875.42,9821.11,9760.89,9697.51,9637.61,9598.66,9567.27,9554.51,9542.54,9522.04,9507.14,9519.09,9519.82,9539.91,9588.48,9614.24,9608.45,9495.85,9376.21,9213.96,9011.78,8833.15,8667.52,8474.11,8317.69,8209.54,8203.54,8239.2,8334.69,8458.78,8577.73,8701.43,8854.25,8984.45,9135.76,9222.42,9269.36,9303.06,9331.46,9363.87,9384.97,9402.08,9421.43,9441.5,9447.23,9447.87,9420.05,9392.45,9360.02,9315.48,9265.72,9179.36,9089.08,9002.01,8918.32,8838.92,8751.9,8658.7,8583.42,8482.8,8220.26,7802.57,4508.34,1115.07,2566.9,2256.12,4281.61,3986.65,3926.05,3876.97,3863.46,3863.36,3847.21,3833.46,3813.38,3815.18,3828.1,4014.26,4292.6,4611.24
0,0,0,0,0,0,0,0,0,0,0,0,0,0,0,0,0,0,0,0,0,0,0,0,0,0,0,0,0,0,0,0,0,0,0,0,0,0,0,0,0,0,0,0,0,0,0,0,0,0,0,0,0,0,0,22,33,33,33,33,44,836,1683,8932,8470,8305,11000,11000,11000,11000,11000,11000,11000,11000,11000,11000,11000,11000,11000,11000,11000,11000,11000,11000,11000,11000,11000,11000,10879,8173.6,3245.57,3865.8,1052.09,902.97,1215.63,391.12,3032.28,4008.6,3983.43,3959.22,3958.27,3946.25,3954.94,3951.31,3929.48,3910.81,3909.45,3915.82,3921.71,3927.11,3911.3,3907.12,3909.61,3924.9,3926.3,489.988,407,11000,11000,11000,11000,11000,11000,11000,11000,11000,11000,11000,11000,11000,11000,11000,11000,11000,11000,11000,11000,11000,11000,11000,11000,11000,11000,11000,11000,11000,11000,11000,11000,11000,11000,11000,11000,11000,11000,11000,11000,11000,11000,11000,11000,11000,11000,11000,11000,11000,11000,11000,11000,11000,11000,11000,11000,11000,11000,11000,11000,11000,11000,11000,11000,11000,11000,11000,11000,11000,11000,11000,11000,11000,11000,11000,11000,11000,11000,11000,11000,10656.8,10261.8,9994,9806.97,9977.01,10269.3,10698.8,11000,11000,11000,11000,11000,11000,11000,11000,11000,11000,11000,11000,11000,11000,11000,11000,11000,11000,11000,11000,11000,11000,11000,11000,11000,11000,11000,11000,11000,11000,11000,11000,11000,11000,11000,11000,11000,11000,11000,11000,11000,11000,11000,11000,11000,11000,11000,11000,11000,10685,10352.2,10094.1,9869.54,9725.7,9528,9408.49,9360.02,9322.12,9310.93,9323.29,9330.35,9365.09,9401.68,9435.93,9481.07,9548.08,9604.88,9674.13,9734.01,9788.92,9837.12,9882.24,9938.08,9983.17,10015.9,10068.5,10106.8,10143.4,10167.5,10180.1,10189.2,10197.2,10197.1,10193.5,10181.7,10177.9,10171.5,10163.3,10169.8,10175.9,10162.8,10154.8,10157.1,10158.3,10154.1,10146.5,10140.6,10114,10083.4,10075.4,10055,10023.8,10001.1,9969.54,9942.87,9934.79,9907.28,9889.65,9871.5,9862.16,9860.36,9849.35,9862.3,9877.04,9877.32,9909.5,9946.88,9978.05,10007,10035.8,10053.1,10072.9,10096.5,10113.9,10134.9,10143.1,10160.4,10177,10206.2,10226.9,10225.5,10214.6,10204.3,10191.8,10165.9,10135.8,10108.6,10062.6,10005.3,9959.13,9908.05,9842.67,9779.63,9722.86,9666.26,9608.34,9556.77,9524.89,9502.22,9497.95,9492.22,9479.68,9475.75,9493.82,9502.13,9529.12,9576.1,9604.6,9592.24,9469.45,9347.14,9167.94,8970.89,8777.67,8604.52,8401.08,8237.66,8127.21,8131.35,8165.55,8264.31,8382.64,8508.57,8634.03,8791.5,8927.14,9087.78,9149.05,9198.88,9246.81,9276.31,9306.47,9329.98,9353.91,9380.82,9397.92,9423.96,9429.63,9420.28,9401.13,9381.51,9342.17,9300.01,9202.87,9111.19,9021.6,8941.34,8860.65,8767.28,8661.18,8580.35,8471.86,8204.21,7773.04,4453.29,1185.24,2537.72,2326.69,4276.78,3990.1,3929.35,3877.99,3863.99,3862.07,3846.19,3833.15,3812.88,3814.33,3827.1,4016.29,4296.38,4616.78
0,0,0,0,0,0,0,0,0,0,0,0,0,0,0,0,0,0,0,0,0,0,0,0,0,0,0,0,0,0,0,0,0,0,0,0,0,0,0,0,0,0,0,0,0,0,0,0,11,11,22,22,22,22,44,55,44,55,55,55,55,1276,495,1232,2904,9328,11000,11000,11000,11000,10857,11000,11000,11000,11000,11000,11000,11000,11000,11000,11000,11000,11000,11000,11000,11000,11000,9798,4219.84,1461.27,275.571,81.296,11.547,11.523,249.447,1408.57,3957.62,4027.05,3996.02,3965.93,3958.82,3945.84,3954.26,3947.97,3925.21,3909.56,3907.72,3916.03,3923.16,3929.29,3919.08,3917.16,3924.43,3932.64,3902.94,1180.77,55,8162,11000,11000,11000,11000,11000,11000,11000,11000,11000,11000,11000,11000,11000,11000,11000,11000,11000,11000,11000,11000,11000,11000,11000,11000,11000,11000,11000,11000,11000,11000,11000,11000,11000,11000,11000,11000,11000,11000,11000,11000,11000,11000,11000,11000,11000,11000,11000,11000,11000,11000,11000,11000,11000,11000,11000,11000,11000,11000,11000,11000,11000,11000,11000,11000,11000,11000,11000,11000,11000,11000,11000,11000,11000,11000,11000,11000,11000,11000,11000,10475.7,10077.1,9807.89,9645.02,9748.43,9972.23,10355.2,10841.4,11000,11000,11000,11000,11000,11000,11000,11000,11000,11000,11000,11000,11000,11000,11000,11000,11000,11000,11000,11000,11000,11000,11000,11000,11000,11000,11000,11000,11000,11000,11000,11000,11000,11000,11000,11000,11000,11000,11000,11000,11000,11000,11000,11000,11000,11000,11000,11000,10714.6,10402.6,10162.5,9937.31,9784.61,9586.42,9466.11,9413.5,9371.28,9360.17,9367.52,9379.05,9415.85,9446.24,9480.59,9528.74,9592.11,9650.01,9717.68,9774.96,9822.88,9861.74,9904.55,9948.85,9991.42,10019.3,10069.5,10106.2,10143.9,10174.7,10190.6,10205.8,10215.5,10223.2,10226.7,10222.5,10220.1,10218,10217.5,10228.9,10237.2,10214.4,10213.9,10208.6,10202.8,10195.1,10182.6,10169.3,10137.4,10106.1,10092.4,10068.2,10041.7,10020.9,9990.05,9963.29,9959.9,9933.37,9910.55,9897.75,9882.46,9876.35,9861.55,9877.55,9889.9,9889.39,9919.94,9954.9,9981.15,10004.9,10026.2,10038.8,10054.1,10073.3,10088.5,10101.9,10105.1,10118.7,10133.1,10154.8,10173.7,10169.3,10151.7,10142.9,10125.2,10094.5,10063,10032.9,9981.7,9918.67,9864.28,9810.95,9741.94,9675.67,9625.91,9573.12,9520.81,9476.84,9453.21,9436.29,9436.54,9440.75,9436.9,9442.18,9465.77,9482.85,9514.11,9562.25,9583.63,9566.97,9435.19,9310.41,9129.05,8926.96,8723.17,8541.34,8328.17,8166.71,8051.48,8061.3,8098.65,8195.51,8309.09,8440.62,8568.07,8735.65,8874.68,9011.96,9091.7,9142.27,9194.94,9229.93,9258.63,9285.69,9316.31,9352.64,9376.55,9399.02,9428.45,9426.94,9420.64,9395.96,9378.86,9327.18,9243.19,9147.33,9058.53,8970.53,8891.51,8775.68,8672.91,8579.37,8479.77,8196.75,7746.02,4452.93,1388.13,2518.3,2315.48,4267.1,3988.63,3929.58,3878.63,3863.36,3861.03,3846.17,3832.05,3811.34,3811.42,3823.94,4012.38,4292.56,4614.89
0,0,0,0,0,0,0,0,0,0,0,0,0,0,0,0,0,0,0,0,0,0,0,0,0,0,0,0,0,0,0,0,0,0,0,0,0,0,0,0,0,0,0,0,0,11,11,33,33,33,33,33,33,33,44,55,55,55,55,55,55,2871,77,1507,5192,10483,11000,11000,8052,9515,6985,5786,5478,6985,5555,6490,4026,5005,8151,7205,8107,5918,2970,1012,198,44,220,44,88,354.194,72.996,201.338,512.371,2485.04,3945.83,4162.2,4119.18,4040.47,4003.28,3969.43,3956.54,3942.7,3952.48,3943.69,3921.34,3908,3906.23,3915.92,3923.12,3929.77,3924.62,3924.17,3933.98,3941.22,3560.64,463.496,22,429,8855,11000,11000,11000,11000,11000,11000,11000,11000,11000,11000,11000,11000,11000,11000,11000,11000,11000,11000,11000,11000,11000,11000,11000,11000,11000,11000,11000,11000,11000,11000,11000,11000,11000,11000,11000,10703,10813,11000,11000,11000,11000,11000,11000,11000,11000,11000,10824,10208,10857,11000,11000,11000,11000,11000,11000,11000,11000,11000,11000,11000,11000,11000,11000,11000,11000,11000,11000,11000,11000,11000,11000,11000,11000,11000,11000,11000,11000,10852.1,10379,9963.15,9682.36,9521.05,9601.25,9812.53,10192.3,10665.6,11000,11000,11000,11000,5797,1991,55,55,264,2156,7359,8888,2255,781,231,3179,9966,10725,11000,11000,11000,7667,6149,9372,9548,11000,11000,11000,11000,11000,11000,11000,11000,11000,11000,11000,11000,11000,11000,11000,11000,11000,11000,11000,11000,11000,11000,11000,10737,10446.7,10220.5,9992.73,9836.22,9643.33,9526.62,9473.05,9435.94,9423.18,9427.35,9435.56,9476.11,9505.28,9536.61,9584.74,9648.25,9709.82,9773.63,9821.67,9864.42,9896.42,9925.98,9965.41,10003.3,10026.8,10071,10102.4,10147.1,10181.1,10199.7,10218.4,10234.5,10242.9,10255.8,10253.1,10261.9,10260.7,10258.2,10273.2,10286.4,10269.9,10263.8,10255.3,10248.4,10235.5,10220,10200.6,10166.6,10130.2,10114.8,10089.9,10064.4,10052.6,10018.8,9994.23,9986.07,9960.6,9930.99,9917.54,9902.8,9889.6,9871.7,9883.05,9887.47,9884.5,9911.63,9944.71,9960.13,9976.65,9994.86,10003.4,10015.8,10027.3,10038.8,10047.6,10054.5,10061.5,10073.1,10091.4,10101.9,10090.6,10072.4,10058.7,10042,10008.6,9971.05,9936.53,9880.64,9815.13,9756.9,9694.24,9631.79,9570.39,9513.27,9469.4,9422.86,9383.94,9368.55,9363.28,9372.48,9381.51,9387.71,9398.83,9429.39,9452.38,9489.93,9538.04,9553.3,9532.77,9393.37,9264.42,9081.71,8882.71,8676.42,8484.51,8266.49,8100.97,7982.06,8000.73,8036.52,8132.49,8239.24,8370.69,8507.38,8683.09,8829.55,8976.41,9050.98,9098.81,9154.69,9191.21,9222.53,9249.45,9285.69,9327.87,9363.67,9394.58,9421.68,9432.24,9432.32,9428.85,9402.24,9349.54,9288.16,9186.39,9098.19,9008.43,8926.63,8814.66,8703.93,8607.75,8502.73,8222.99,7771.5,4660.78,1356.75,2298.58,2111.62,4253.24,3983.36,3928.26,3878.25,3862.4,3859.63,3845.61,3831.57,3809.79,3808.69,3820.62,4002.34,4278.52,4602.75
0,0,0,0,0,0,0,0,0,0,0,0,0,0,0,0,0,0,0,0,0,0,0,0,0,0,0,0,0,0,0,0,0,0,0,0,0,0,0,0,0,0,0,11,11,33,33,33,33,33,33,33,33,33,33,55,33,33,55,55,363,1364,132,3762,11000,11000,11000,11000,11000,11000,11000,10241,9658,10054,10516,10285,10076,9735,8789,9724,8668,2453,748,66,11,231,286,44,442.245,154.62,71.436,38.074,254.391,2334.23,4238.19,4180.5,4102.63,4045.27,4007.28,3973.61,3957.19,3938.71,3951.92,3939.44,3917.77,3906.89,3905.6,3915.84,3922.64,3929.62,3925.35,3924.19,3937.61,3945.93,226.503,0,0,209,869,7810,9449,10516,10670,11000,11000,11000,11000,11000,11000,11000,11000,11000,11000,11000,11000,11000,11000,11000,11000,11000,11000,11000,11000,11000,11000,11000,11000,11000,11000,11000,11000,11000,11000,11000,11000,11000,11000,11000,11000,11000,11000,11000,11000,11000,11000,11000,11000,11000,11000,11000,11000,11000,11000,11000,11000,11000,11000,11000,11000,11000,11000,11000,11000,11000,11000,11000,11000,11000,11000,11000,11000,11000,11000,11000,11000,11000,10825.7,10329.1,9885.77,9586.32,9408.62,9485.63,9697.68,10084.3,10521,11000,11000,11000,8767,935,154,88,242,1364,3509,5808,5489,8305,6666,5775,10098,11000,11000,11000,11000,11000,11000,11000,11000,11000,11000,11000,11000,11000,11000,11000,11000,11000,11000,11000,11000,11000,11000,11000,11000,11000,11000,11000,11000,11000,11000,11000,11000,10745.2,10473.8,10254.6,10038.6,9878.61,9698.81,9586.2,9532.17,9494.78,9492.28,9494.99,9504.9,9540.31,9568.92,9600.83,9654.24,9713.43,9773.14,9839.69,9881.45,9915.72,9940.12,9969.24,10003.4,10033.3,10050.4,10086.9,10120.3,10164.3,10197.7,10217,10236.1,10254.1,10264.7,10276,10277.8,10288.2,10289.5,10285.3,10306.7,10319.2,10308.8,10298.4,10295.3,10289.3,10277.5,10248.8,10234.7,10200.1,10154.7,10135.6,10103.1,10083.3,10070.2,10043.1,10021.2,10011.2,9981.9,9953,9931.52,9911.88,9893.76,9868.22,9869.19,9870.68,9863.73,9883.97,9913.97,9922.05,9930.58,9946.22,9950.02,9953.17,9966.89,9977.54,9991.9,9988.63,9998.09,10007.1,10017.3,10028.5,10016.4,9999.21,9983.64,9960.28,9926.13,9886.99,9851.28,9796.25,9730.09,9663.83,9598.47,9535.44,9472.13,9420.36,9380.61,9339.7,9309.39,9295.61,9301.02,9315.61,9331.02,9340.55,9358.45,9395.12,9419.26,9461.95,9507.81,9519.01,9487.93,9343.5,9218.23,9037.29,8845.9,8634.14,8440.74,8214.59,8051.03,7928.31,7956.25,7994.37,8084.13,8187.04,8335.61,8463.68,8655.41,8803.99,8957.99,9030.96,9083.59,9141.33,9182.16,9211.38,9240.91,9279.19,9333.66,9389.21,9422.48,9452.69,9443.18,9454.71,9458.49,9435.18,9395.34,9312.3,9224.05,9134.3,9045.31,8966.03,8849.67,8737.9,8639.6,8532.45,8258.58,7809.07,4914.73,970.682,2193.82,1792.17,4237.32,3975.8,3924.93,3876.84,3861.03,3858.86,3846.36,3831.43,3809.31,3806.19,3817.97,3985.49,4257.53,4583.17
0,0,0,0,0,0,0,0,0,0,0,0,0,0,0,0,0,0,0,0,0,0,0,0,0,0,0,0,0,0,0,0,0,0,0,0,0,0,0,0,0,11,11,22,33,33,33.687,33.67,34.351,34.35,34.349,33,33,33,33,22,0,33,55,55,143,6501,3729,9196,11000,11000,11000,11000,11000,11000,11000,11000,11000,11000,10439,10637,10670,10384,10153,9031,5379,2750,1089,528,253,330,55,101.917,79.499,20.026,115.261,79.468,50.135,2005.35,4033.37,4075.82,4088.19,4050.07,4014.84,3979.61,3958.77,3935.39,3951.18,3935.82,3915.01,3905.95,3905.24,3915.41,3920.45,3928.15,3926.55,3922.32,3938.84,3947.71,3948.29,1592.37,0,33,44,55,176,132,935,1705,4587,9262,10461,10802,10868,11000,9471,10483,11000,11000,11000,11000,11000,11000,11000,11000,11000,11000,11000,11000,11000,11000,11000,11000,11000,11000,11000,11000,11000,11000,11000,11000,11000,11000,11000,11000,11000,11000,11000,11000,11000,11000,11000,11000,11000,11000,11000,11000,11000,11000,11000,11000,11000,11000,11000,11000,11000,11000,11000,11000,11000,11000,11000,11000,11000,11000,11000,11000,11000,11000,11000,11000,10830.2,10309.3,9847.54,9516.93,9314.17,9369.21,9574.17,9947.21,10361.4,10810.3,11000,11000,10307,3234,198,99,539,2860,3619,3861,7865,10857,10296,10098,11000,11000,11000,11000,11000,11000,11000,11000,11000,11000,11000,11000,11000,11000,11000,11000,11000,11000,11000,11000,11000,11000,11000,11000,11000,11000,11000,11000,11000,11000,11000,11000,11000,10787,10541.7,10323.5,10107.8,9949.52,9783.22,9670.42,9616.52,9580.76,9577.81,9577.69,9581.89,9624.98,9654.33,9685.15,9735.13,9796.47,9853.9,9914.09,9958.1,9991.4,10005.3,10027,10057.1,10079.2,10094,10120.8,10147,10184.5,10217.2,10233,10242.8,10253.2,10252.9,10260.8,10262.8,10271.2,10269.5,10266.2,10285.1,10300.8,10292.6,10290,10279.3,10270.3,10254.8,10232.4,10214.5,10176,10131.1,10110.2,10088.2,10070.8,10065,10039.8,10023.7,10009,9983.28,9953.91,9928.96,9909.66,9887.58,9853.13,9849.04,9848.33,9834.67,9856.34,9882.58,9888.44,9888.09,9901.91,9905.42,9914.06,9917.95,9925.98,9939.19,9938.67,9945.88,9955.44,9961.85,9960.25,9947.74,9929.32,9911.6,9885,9851.89,9811.87,9771.51,9716.47,9653.39,9589.11,9521.42,9457.45,9395.16,9350.19,9304.28,9273.12,9250.78,9239.48,9250.41,9263.5,9283.98,9299.85,9327.46,9361.55,9379.36,9428.36,9475.51,9481.39,9442.01,9294.79,9171.64,8995.96,8814.47,8604.28,8409.61,8176.7,8014.85,7898.57,7928.98,7969.56,8055.7,8165.29,8320.97,8444.53,8647.51,8809.92,8971.86,9045.46,9107.6,9175.65,9217.98,9229.2,9264.55,9312.17,9364.33,9409.72,9444.02,9468.96,9464.36,9469.13,9479.63,9467.4,9413.08,9347.37,9254.39,9170.66,9084.67,9000.29,8887.33,8773.24,8677.36,8563.9,8308.11,7843.6,5238.74,754.617,1928.29,1421.71,4224.93,3968.72,3920.65,3875.1,3860.05,3858.88,3847.53,3832,3810.02,3804.7,3816.92,3964.12,4229.89,4552.16
0,0,0,0,0,0,0,0,0,0,0,0,0,0,0,0,0,0,0,0,0,0,0,0,0,0,0,0,0,0,0,0,0,0,0,0,0,0,0,0,0,22,33,33,33,33.677,36.515,27.605,27.616,27.491,38.445,34.97,33,33,0,0,11,33,44,22,33,2178,7293,10879,11000,11000,11000,11000,11000,11000,11000,11000,11000,11000,11000,11000,10736,10703,10428,8107,6072,5027,3751,1672,1463,187,0,10.857,64.05,373.352,441.862,852.262,802.028,3047.86,3834.03,4104.74,4093.62,4058.37,4020.94,3985.72,3960.48,3934.74,3950.61,3934.33,3913.18,3905.84,3904.53,3914.49,3917.97,3925.25,3925.37,3918.88,3937.95,3947.15,3924.07,2114.78,22,33,88,88,99,110,110,143,165,528,2112,4367,6391,8569,9548,5390,7447,10582,10472,10813,11000,11000,11000,11000,11000,11000,11000,11000,11000,11000,11000,11000,11000,11000,11000,11000,11000,11000,11000,11000,11000,11000,11000,11000,11000,11000,11000,11000,11000,11000,11000,11000,11000,11000,11000,11000,11000,11000,11000,11000,11000,11000,11000,11000,11000,11000,11000,11000,11000,11000,11000,11000,11000,11000,11000,11000,11000,11000,11000,11000,10801.2,10248.2,9767.72,9409.9,9203.5,9251.51,9473.07,9863.92,10277.4,10730.3,11000,11000,11000,10483,7238,5467,7832,9614,8580,9405,11000,11000,11000,11000,11000,11000,11000,11000,11000,11000,11000,11000,11000,11000,11000,11000,11000,11000,11000,11000,11000,11000,11000,11000,11000,11000,11000,11000,11000,11000,11000,11000,11000,11000,11000,11000,11000,10763.4,10541.4,10337.6,10131.6,9993.87,9846.34,9739.82,9687.91,9653.6,9650.96,9649.75,9655.52,9702.61,9735.75,9763.52,9815.71,9878.36,9936.81,9998.13,10041.8,10076.6,10082.9,10100.7,10124.9,10136,10138.4,10159.8,10165,10186.5,10202.2,10202.3,10193.1,10185.8,10173.7,10172.9,10169.9,10180.5,10178.3,10181.4,10206.2,10226.2,10220.8,10226.7,10222.3,10214.1,10197.3,10171.5,10149.3,10110.8,10072.7,10057,10035,10028.3,10027.9,10016,10002.4,9994.55,9963.06,9944.92,9927.09,9902.83,9874.77,9840.33,9832.82,9825.91,9813.79,9832.16,9848.52,9846.04,9848.14,9850.83,9858.29,9861.77,9867.04,9873.3,9886.16,9890.87,9897.91,9907.87,9911.23,9904.74,9885.13,9867.14,9845.65,9823.79,9789.67,9754.03,9710.28,9663.07,9600.41,9541.17,9479.95,9419.06,9352.97,9300.85,9261.16,9234.14,9220.23,9231.78,9242.24,9259.4,9283.09,9303.28,9330.11,9357.16,9383.95,9417.42,9447.28,9444.69,9398.52,9255.71,9136.48,8967.96,8796.62,8589.4,8398.88,8169.45,8000.12,7880.34,7915.49,7955.75,8050.69,8157.92,8301.58,8448.23,8663.09,8838.01,9007.72,9102.84,9172.74,9230.8,9270.04,9300.86,9319.97,9356.34,9394.85,9437.24,9471.87,9494.22,9491.95,9497.57,9502.42,9492.54,9462.05,9396.16,9293.33,9203.44,9116.84,9022.88,8911.98,8796.94,8697.79,8584.51,8328.12,7830.85,4995.77,457.565,1714.97,1476.75,4201.53,3962.27,3917.43,3874.83,3859.45,3858.95,3849.58,3833.7,3811,3803.66,3815.89,3941.89,4191.85,4501.95
0,0,0,0,0,0,0,0,0,0,0,0,0,0,0,0,0,0,0,0,0,0,0,0,0,0,0,0,0,0,0,0,0,0,0,0,0,0,0,0,0,22,22,0,11,11,11.677,25.444,4.847,6.869,39.877,37.02,34.303,33,0,0,0,11,44,22,22,1716,5225,11000,11000,11000,11000,11000,11000,11000,11000,11000,11000,11000,11000,11000,10560,10318,9328,8547,7942,6798,3839,3498,627,66,0,96.133,465.129,976.247,1406.2,1667.44,1943.53,2755.9,3912.26,4045.52,4111.55,4071.66,4032.7,3991.66,3962.21,3934.32,3949.57,3933.02,3911.5,3905.26,3903.87,3913.17,3914.45,3920.56,3923.88,3915.69,3937.13,3947.38,3638.9,1123.94,44,66,99,99,132,154,143,143,308,495,1441,4653,7920,8998,9889,9988,7227,8657,10461,10626,10824,11000,11000,11000,11000,11000,11000,11000,11000,11000,11000,11000,11000,11000,11000,11000,11000,11000,11000,11000,11000,11000,11000,11000,11000,11000,11000,11000,11000,11000,11000,11000,11000,11000,11000,11000,11000,11000,11000,11000,11000,11000,11000,11000,11000,11000,11000,11000,11000,11000,11000,11000,11000,11000,11000,11000,11000,11000,11000,11000,10847.5,10256,9742.76,9357.16,9141.56,9171.61,9400.49,9800.7,10240.2,10706.8,11000,11000,11000,11000,11000,11000,11000,11000,11000,11000,11000,11000,11000,11000,11000,11000,11000,11000,11000,11000,11000,11000,11000,11000,11000,11000,11000,11000,11000,11000,11000,11000,11000,11000,11000,11000,11000,11000,11000,11000,11000,11000,11000,11000,11000,11000,11000,10741.7,10546.6,10355.1,10160.2,10046.8,9917.5,9813.03,9758.46,9726.87,9718.95,9711.31,9722.21,9770.21,9800.67,9831.69,9885.19,9951.99,10011.3,10068.2,10116.9,10149.2,10157,10174.7,10197,10198.9,10194.9,10197.3,10190.3,10198.5,10192.9,10172.5,10144.2,10113.2,10087.8,10074.7,10069.6,10076.9,10074.5,10083.7,10111.4,10134.1,10138.3,10148.7,10149,10134.5,10114.5,10098,10079.9,10049.9,10020.1,10007.9,9989.6,9989,9994.88,9985.24,9977.96,9967.14,9939.78,9921.4,9909.86,9888.89,9857.09,9822.8,9806.06,9796.87,9783.1,9794.99,9806.33,9804.04,9797.57,9803.97,9809.93,9818.34,9815.4,9825.95,9838.17,9838.12,9847.6,9858.09,9852.14,9841.98,9824.46,9803.97,9786.88,9769.06,9734.21,9694.78,9668.38,9624.37,9573.87,9518.65,9459.32,9396.07,9331.1,9281.9,9248.1,9223.31,9213.67,9211.49,9229.9,9251.84,9276.63,9294.91,9321.85,9350.27,9370.53,9401.14,9430.28,9423.3,9369.56,9222.99,9101.55,8940.6,8775.25,8573.97,8394.95,8179.61,8030.91,7875.02,7918.93,7965.9,8069.08,8161.75,8300.96,8445.06,8664.92,8855.31,9071.9,9150.64,9206.12,9270.31,9306.88,9327.1,9356.97,9392.83,9425.83,9464.75,9495.7,9512.81,9513.38,9514.68,9509.66,9492.34,9462.86,9374.89,9284.08,9192.93,9102.77,9007.41,8895.95,8783.76,8689.81,8574.64,8280.6,7701.81,4461.53,372.997,1679.75,1751.86,4167.67,3954.15,3913.56,3874.33,3859.14,3859.24,3851.58,3835.35,3812.16,3803.37,3815.76,3921.1,4150.02,4439.62
0,0,0,0,0,0,0,0,0,0,0,0,0,0,0,0,0,0,0,0,0,0,0,0,0,0,0,0,0,0,0,0,0,0,0,0,0,0,0,0,0,22,11,0,0,11,22,24.053,35.051,39.188,28.838,37.023,34.304,11,0,0,0,11,33,22,22,1936,3916,9108,11000,11000,11000,11000,11000,11000,11000,11000,11000,11000,11000,11000,10868,10153,9416,9306,9295,7062,5291,2662,319,0,0,395.23,923.284,1467.41,1350.88,1432.91,1711.8,2619.17,3612.66,4160.53,4121.24,4085.02,4039.49,3995.21,3962.13,3932.52,3946.52,3929.88,3908.64,3903.79,3902.66,3910.88,3909.94,3916.29,3921.8,3913.55,3937.54,3948.4,236.229,8.102,66,88,99,176,363,836,1045,539,550,1265,2321,6424,9427,10472,10681,10802,10802,10395,10483,11000,11000,11000,11000,11000,11000,11000,11000,11000,11000,11000,11000,11000,11000,11000,11000,11000,11000,11000,11000,11000,11000,11000,11000,11000,11000,11000,11000,11000,11000,11000,11000,11000,11000,11000,11000,11000,11000,11000,11000,11000,11000,11000,11000,11000,11000,11000,11000,11000,11000,11000,11000,11000,11000,11000,11000,11000,11000,11000,11000,11000,11000,10336.3,9787.02,9345.47,9092.44,9098.64,9328.16,9738.08,10192.1,10691.6,11000,11000,11000,11000,11000,11000,11000,11000,11000,11000,11000,11000,11000,11000,11000,11000,11000,11000,11000,11000,11000,11000,11000,11000,11000,11000,11000,11000,11000,11000,11000,11000,11000,11000,11000,11000,11000,11000,11000,11000,11000,11000,11000,11000,11000,11000,10872.1,10668.9,10483.6,10305.5,10120.4,10023.6,9906.65,9802.18,9744.05,9710.99,9696.16,9680.28,9681.12,9717.96,9746.93,9777.39,9830.59,9894.59,9958.04,10023.2,10078.3,10123,10135.1,10164.9,10187.3,10194.6,10192.7,10197.4,10180.9,10180.8,10166.8,10132.8,10089.6,10044.4,10001,9972,9956.06,9951.48,9939.82,9947.09,9972.45,9999.27,10014.9,10042.3,10047.6,10051.8,10050,10047.7,10049.3,10033.8,10018,10015.4,10009.3,10012.9,10019.3,10012,10000.1,9990.61,9960.8,9943.67,9930.78,9901.61,9860.98,9815.51,9794.12,9776.83,9754.94,9763.92,9768.18,9757.9,9746.36,9747.16,9759.08,9765.89,9767.93,9771.15,9783.13,9789.45,9800.99,9811.78,9803.8,9782.45,9756.75,9735.06,9720.02,9703.34,9668.43,9628.27,9602.73,9571.2,9529.55,9485.03,9430.47,9366.24,9308.4,9265.07,9237.94,9218.4,9212.19,9206.67,9225.25,9245.53,9267.67,9285.73,9306.6,9334.63,9355.05,9384.14,9406.02,9396.45,9342.3,9193.49,9075.58,8915.13,8761.87,8566.66,8390.19,8182.82,8032.4,7886.78,7932.3,7982.38,8071.7,8157.21,8303.45,8436,8685.3,8895.24,9107.95,9185.13,9247.83,9306.09,9338.68,9356.77,9379.28,9402.67,9434.9,9470.06,9494.89,9509.02,9499.86,9489.97,9501.47,9480.46,9430.11,9350.87,9263.03,9166.25,9073.31,8976.21,8869.37,8761.68,8670.38,8548.09,8175.92,7496.82,3766.74,290.934,1405.04,2080.68,4134.89,3947.62,3911.48,3874.76,3860.35,3860.64,3854.52,3837.1,3813.94,3804.1,3816.98,3899.16,4106.26,4376.29
0,0,0,0,0,0,0,0,0,0,0,0,0,0,0,0,0,0,0,0,0,0,0,0,0,0,0,0,0,0,0,0,0,0,0,0,0,0,0,0,0,22,22,22,22,33,33,35.052,35.051,39.185,39.836,37.021,34.305,0,0,0,0,22,33,22,66,2860,3850,6160,10802,11000,11000,11000,10758,11000,11000,11000,11000,11000,11000,11000,11000,10450,9625,9240,8448,8140,4653,1265,44,0,19.364,460.424,680.628,976.139,595.105,626.381,861.28,1692.54,3028.51,3939.75,4132.89,4091.83,4042.01,3994.32,3959.7,3931.64,3944.29,3927.63,3907.14,3902.68,3901.66,3909.02,3906.15,3913.69,3920.23,3908.42,3934.82,3945.4,64.402,0,33,66,110,176,341,583,1155,1342,781,748,1980,3663,7832,10142,10681,10802,10868,10879,10604,10791,11000,11000,11000,11000,11000,11000,11000,11000,11000,11000,11000,11000,11000,11000,11000,11000,11000,11000,11000,11000,11000,11000,11000,11000,11000,11000,11000,11000,11000,11000,11000,11000,11000,11000,11000,11000,11000,11000,11000,11000,11000,11000,11000,11000,11000,11000,11000,11000,11000,11000,11000,11000,11000,11000,11000,11000,11000,11000,11000,11000,11000,10468.4,9849.64,9376.83,9078.62,9063.16,9283.25,9681.74,10159.5,10696.9,11000,11000,11000,11000,11000,11000,11000,11000,11000,11000,11000,11000,11000,11000,11000,11000,11000,11000,11000,11000,11000,11000,11000,11000,11000,11000,11000,11000,11000,11000,11000,11000,11000,11000,11000,11000,11000,11000,11000,11000,11000,11000,11000,11000,11000,11000,10813.4,10592.1,10406.5,10227.3,10054.3,9977,9872.18,9767.33,9704.58,9669.81,9647,9620.99,9617.55,9647.56,9673.13,9700.36,9755,9817.23,9880.08,9953.32,10017.7,10069.9,10097.6,10130.1,10165.1,10178.1,10184.2,10186.3,10165.4,10154.3,10131.5,10084.8,10025.4,9965.91,9908.12,9862.67,9834.26,9825.51,9815.98,9819.55,9843.37,9871.98,9895.02,9935.78,9956.33,9973.78,9988.96,10005.2,10017.6,10025,10027.1,10039.3,10034,10045.7,10051.9,10045.7,10035.8,10011.1,9975.02,9957.66,9937.39,9907.41,9867.55,9821.53,9797.32,9775,9755.08,9763.49,9765.68,9754.48,9742.27,9750.79,9761.57,9774.02,9776.32,9781.1,9789.63,9790.34,9802.66,9805.95,9791.43,9758.13,9721.27,9699.19,9676.83,9659.18,9623.54,9584.47,9555.23,9528.45,9499.97,9464.89,9417.26,9361.18,9310.41,9273.94,9256.71,9246.58,9244.92,9250.97,9273.74,9298.03,9328.69,9348.51,9368.41,9389.27,9405.62,9428.31,9449.22,9439.79,9388.64,9238.25,9114.02,8956.14,8801.33,8610.83,8438.25,8224.62,8065.56,7908.45,7959.66,8008.31,8084.11,8165.62,8296.17,8436.22,8673.57,8899.6,9134.02,9216,9285.71,9348.81,9381.45,9403.91,9427.9,9456.29,9488.31,9517.23,9536.25,9543.71,9517.26,9528.51,9516.15,9474.03,9417.77,9335.88,9239.13,9141.98,9042.78,8942.55,8832.65,8729.85,8641.72,8517.44,8122.62,7410.9,3393.17,686.211,1418.73,2206.89,4114.09,3944.18,3909.63,3876.1,3860.68,3861.87,3858.3,3838.9,3815.38,3805.1,3817.91,3878.97,4062.6,4323.94
0,0,0,0,0,0,0,0,0,0,0,0,0,0,0,0,0,0,0,0,0,0,0,0,0,0,0,0,0,0,0,0,0,0,0,0,0,0,0,0,0,33,33,33,33,33,33,35.053,35.052,39.19,39.128,37.028,23.309,0,0,0,0,22,22,22,704,3872,3542,8096,10868,10791,10868,9559,2794,10692,11000,11000,11000,11000,11000,11000,11000,11000,10780,9372,9152,6754,3058,1243,209,0,39.257,781.824,1118.23,1269.52,775.503,911.048,1093.03,1969.68,3181.12,4003,4109.4,4085.77,4035.54,3986.98,3953.77,3930.66,3941.71,3926.14,3906.75,3902.54,3901.61,3907.16,3903.42,3909.56,3912.62,3899.6,3924.72,3940.03,24.205,0,33,88,132,143,308,429,934.095,1527.93,1769.93,1582.93,1538.93,3266.26,5620.26,9020,10516,10802,10846,11000,11000,10868,11000,11000,11000,11000,11000,11000,11000,11000,11000,11000,11000,11000,11000,11000,11000,11000,11000,11000,11000,11000,11000,11000,11000,11000,11000,11000,11000,11000,11000,11000,11000,11000,11000,11000,11000,11000,11000,11000,11000,11000,11000,11000,11000,11000,11000,11000,11000,11000,11000,11000,11000,11000,11000,11000,11000,11000,11000,11000,11000,11000,11000,10482.5,9887.37,9383.89,9071.76,9081.53,9296.63,9691.81,10158.8,10719.7,11000,11000,11000,11000,11000,11000,11000,11000,11000,11000,11000,11000,11000,11000,11000,11000,11000,11000,11000,11000,11000,11000,11000,11000,11000,11000,11000,11000,11000,11000,11000,11000,11000,11000,11000,11000,11000,11000,11000,11000,11000,11000,11000,11000,11000,11000,10698.3,10473.5,10297.7,10130.9,9968.69,9913.28,9823.63,9720.85,9656.2,9621.47,9589.97,9556.25,9546.84,9568.57,9592.12,9618.12,9671.17,9735.66,9802.32,9875.83,9952.28,10009.8,10047.5,10089.6,10136.2,10161.3,10171.6,10176.4,10151.9,10134.5,10100,10039.5,9970.51,9895.14,9819.4,9763.01,9725.2,9716.98,9701.76,9706.13,9732.08,9761.38,9795.93,9846.51,9874.97,9907.75,9929.62,9960.15,9984.03,10009.1,10027.2,10046.9,10048.6,10061.7,10067.8,10059.9,10039.1,10008.8,9972.59,9947.96,9929.74,9899.84,9864.93,9819.23,9797.56,9776.17,9763.31,9770.09,9769.18,9760.33,9755.91,9763.38,9783.28,9797.18,9798.59,9797.48,9803.72,9807.38,9816.22,9813.25,9788.23,9746.95,9701,9670.26,9650.46,9630.62,9597.02,9559.92,9534.96,9516.19,9495.35,9467.11,9428.66,9380.56,9338.89,9311.73,9301.34,9296.94,9300.08,9309.98,9334.29,9360.77,9389.67,9412.05,9433.23,9454.08,9473.46,9490.47,9511.25,9507.12,9461.58,9299.61,9176.33,9012.3,8862.03,8670.47,8496.78,8284.99,8109.18,7945.04,7995.85,8038.02,8111.03,8182.31,8315.48,8444.32,8680.96,8903.08,9152.83,9235.93,9308.14,9378.05,9412.67,9437.27,9464.41,9496.75,9529.65,9559.04,9564.86,9567.13,9554.74,9545.05,9515.19,9474.15,9413.89,9326.89,9218.93,9117.87,9013.96,8902.66,8790.48,8684.74,8601.73,8466.22,8029.63,7106.86,1557.34,886.183,2409.05,3433.66,4107.5,3948.38,3909.96,3878.11,3862.49,3863.07,3861.55,3840.32,3816.69,3805.85,3818.39,3864.08,4022.46,4278.67
0,0,0,0,0,0,0,0,0,0,0,0,0,0,0,0,0,0,0,0,0,0,0,0,0,0,0,0,0,0,0,0,0,0,0,11,11,0,0,0,0,22,33,33,33,33,33,24.057,13.057,17.196,39.85,15.039,1.311,0,0,0,0,22,22,22,1529,5357,2970,5852,10527,10868,11000,10373,6666,8063,11000,11000,11000,11000,11000,11000,11000,11000,11000,10626,8855,5170,2706,2464,308,32.921,109.212,1769.49,1961.56,2186.31,1569.52,1699.69,1889.81,2684.39,3627.36,4108.89,4109.04,4069.19,4022.14,3976.67,3944.97,3930.32,3940.02,3925.3,3906.8,3902.59,3902.24,3907.37,3902.62,3909.91,3908.29,3894.72,3918.93,3935.74,36.203,0,55,77,121,132,220,473,759,1320,2439.93,2935.06,3034.06,2924.33,5157.33,7315,10076,10692,10835,10879,11000,11000,11000,11000,11000,11000,11000,11000,11000,11000,11000,11000,11000,11000,11000,11000,11000,11000,11000,11000,11000,11000,11000,11000,11000,11000,11000,11000,11000,11000,11000,11000,11000,11000,11000,11000,11000,11000,11000,11000,11000,11000,11000,11000,11000,11000,11000,11000,11000,11000,11000,11000,11000,11000,11000,11000,11000,11000,11000,11000,11000,11000,11000,10485.6,9915.7,9396.35,9097.16,9113.22,9341.46,9729.34,10178.5,10750.9,11000,11000,11000,11000,11000,11000,11000,11000,11000,11000,11000,11000,11000,11000,11000,11000,11000,11000,11000,11000,11000,11000,11000,11000,11000,11000,11000,11000,11000,11000,11000,11000,11000,11000,11000,11000,11000,11000,11000,11000,11000,11000,11000,11000,11000,10797,10534.3,10325.2,10157.8,9998.21,9873.58,9845.41,9768.59,9669.78,9607.07,9565.19,9523.92,9490.55,9479.43,9495.98,9512.55,9538.46,9590.66,9653.33,9719.78,9799.38,9881.31,9946.67,9992.47,10045.9,10102.7,10136.4,10153.6,10158.8,10135.3,10110.2,10072.6,10000.3,9913.35,9834.14,9741.74,9674.36,9630.23,9612.37,9601.79,9608.36,9634.15,9669.17,9705.16,9758.53,9802.62,9838.04,9866.18,9903.21,9942.46,9974.76,10006.5,10034.3,10040,10051.6,10055.6,10043.9,10027.2,9993.39,9948.96,9929.65,9911.98,9890.3,9854.41,9814.37,9796.96,9779.53,9772.81,9780.82,9780,9773.7,9776.79,9789.99,9813.13,9833.01,9831.4,9834.36,9835.09,9834.48,9842.53,9835.24,9804.52,9751.19,9698.8,9665.2,9638.8,9623.7,9590.67,9556.98,9534.28,9518.11,9504.85,9489,9459.29,9420.9,9380.08,9353.54,9345.73,9343.77,9353.04,9367.84,9387.44,9415.59,9444.07,9469.22,9492.45,9517.44,9534.83,9551.08,9571.88,9584.59,9546.14,9380.52,9250.68,9086.02,8931.11,8744.23,8568.5,8356.69,8171.41,7992.52,8045.23,8083.02,8148.88,8220.02,8342.89,8470.82,8702.96,8935.45,9167.32,9251.29,9330.36,9400.03,9433.71,9465.6,9495.24,9532.9,9563.75,9579.45,9583.55,9586.99,9581.63,9549.27,9515.73,9469.67,9402.44,9305.09,9190.68,9081.51,8964.39,8851.47,8737.07,8626.05,8543.41,8370.85,7550.37,2430.31,551.332,1271.67,4021.59,4254.37,4116.05,3960.82,3914.44,3881.84,3864.56,3863.84,3864.16,3841.4,3817.43,3806.35,3818.67,3853.95,3987.5,4239.35
0,0,0,0,0,0,0,0,0,0,0,0,0,0,0,0,0,0,0,0,0,0,0,0,0,0,0,11,11,22,11,22,11,0,0,44,11,11,0,0,0,0,11,33,33,33,33,11.7,12.379,5.545,6.201,2.016,0.664,0,0,0,0,11,22,264,7546,9108,7590,9504,10428,11000,11000,11000,11000,11000,11000,11000,11000,11000,11000,11000,11000,11000,11000,11000,11000,9108,6490,3674,594,11,118.834,2941.74,3065.87,3204.08,2780.44,2893.47,3098.52,3642.69,4078.29,4128.42,4088.94,4048.68,4005.74,3964.96,3936.61,3930.75,3938.97,3924.89,3907.3,3902.4,3903.03,3906.58,3903.09,3911.83,3904.6,3892.53,3917.04,3930.71,168.053,4.218,88,132,154,154,198,407,913,1493.55,2175.32,3154.32,4144.44,3957.67,4386.67,6875,8635,10252,10846,11000,11000,11000,11000,11000,11000,11000,11000,11000,11000,11000,11000,11000,11000,11000,11000,11000,11000,11000,11000,11000,11000,11000,11000,11000,11000,11000,11000,11000,11000,11000,11000,11000,11000,11000,11000,11000,11000,11000,11000,11000,11000,11000,11000,11000,11000,11000,11000,11000,11000,11000,11000,11000,11000,11000,11000,11000,11000,11000,11000,11000,11000,11000,11000,10440,9891.89,9385.44,9107.89,9121.06,9383.24,9759.83,10216.3,10778.8,11000,11000,11000,11000,11000,11000,11000,11000,11000,11000,11000,11000,11000,11000,11000,11000,11000,11000,11000,11000,11000,11000,11000,11000,11000,11000,11000,11000,11000,11000,11000,11000,11000,11000,11000,11000,11000,11000,11000,11000,11000,11000,11000,11000,10845.1,10612.2,10351.2,10155.5,10002.8,9862.36,9767.11,9766.58,9697.19,9600.12,9537.37,9493.68,9452.22,9418.83,9407.47,9423.43,9442.93,9465.89,9520.88,9585.57,9653.92,9741.17,9825.1,9894.29,9947.94,10013.2,10080.8,10120.3,10144.5,10153.6,10123.2,10086.5,10042.2,9960.46,9867,9779.86,9677.97,9599.61,9553.58,9530.3,9515.62,9529.98,9560.02,9591.83,9627.35,9687.72,9730.02,9772.29,9808.26,9844.05,9890.74,9935.98,9974.22,10003.3,10009.9,10025,10028.6,10012.7,9995.99,9958.48,9917.58,9904.98,9890.33,9877.72,9854.97,9817.95,9807.44,9798.33,9792.76,9805.67,9806.32,9805.92,9809.96,9826.39,9857.41,9877.4,9875.47,9878.69,9876.79,9874.23,9873.92,9862.8,9825.7,9769.59,9714.11,9678.84,9653.9,9638.12,9608.65,9573.24,9554.62,9544.41,9539.25,9525.39,9503.63,9472.42,9437.94,9417.63,9407.43,9407.48,9414.14,9423.67,9444.77,9474.16,9502.67,9526.32,9553.06,9578.26,9598.47,9622.81,9644.56,9673.19,9644.42,9476.77,9340.12,9175.08,9017.9,8829.1,8651.56,8439.76,8239.78,8050.43,8102.65,8139.45,8199.47,8263.39,8372.54,8490.15,8719.14,8938.93,9170.24,9264.41,9345.15,9417.24,9458.08,9493.67,9527.42,9567.22,9593.24,9607.81,9635.81,9638.34,9602.56,9567.33,9525.16,9467.03,9381.94,9277.54,9147.92,9033.88,8911.44,8790.39,8678.17,8574.95,8485.88,8110.11,4932.48,1807.78,777.672,1558.4,4792.43,4414.11,4137,3977.29,3917.91,3883.31,3865.32,3863.61,3864.62,3840.86,3817.01,3805.32,3817.79,3846.31,3957.45,4205.27
0,0,0,0,0,0,0,0,0,0,0,0,0,0,0,0,0,0,0,0,0,0,0,0,0,0,0,22,44,55,77,55,11,11,33,99,33,22,11,0,0,11,0,11,33,33,11,0,0,0,0,0.663,0,0,0,0,11,77,143,2893,9878,10659,9383,10472,10813,11000,11000,11000,11000,11000,11000,11000,11000,11000,11000,11000,11000,11000,11000,11000,11000,10857,9526,6160,1397,55,27.734,3340.32,3574.27,3663.98,3421.35,3662.18,3702.34,4101.65,4156.52,4083.29,4070.97,4026.07,3986.78,3951.48,3928.72,3930.44,3937,3923.3,3906.62,3901.42,3902.25,3904.27,3902,3911.18,3901.65,3891.94,3917.7,3937.32,722.413,4.189,99,143,154,176,176,308,987.436,1636.21,2406,3121,4686,6025.1,7018,6765,8624,9691,10758,11000,11000,11000,11000,11000,11000,11000,11000,11000,11000,11000,11000,11000,11000,11000,11000,11000,11000,11000,11000,11000,11000,11000,11000,11000,11000,11000,11000,11000,11000,11000,11000,11000,11000,11000,11000,11000,11000,11000,11000,11000,11000,11000,11000,11000,11000,11000,11000,11000,11000,11000,11000,11000,11000,11000,11000,11000,11000,11000,11000,11000,11000,11000,11000,10379.2,9861.09,9378.46,9128.05,9163.18,9466.26,9865.45,10358.2,11000,11000,11000,11000,11000,11000,11000,11000,11000,11000,11000,11000,11000,11000,11000,11000,11000,11000,11000,11000,11000,11000,11000,11000,11000,11000,11000,11000,11000,11000,11000,11000,11000,11000,11000,11000,11000,11000,11000,11000,11000,11000,11000,11000,11000,10743.4,10470,10205.1,10024.7,9877.3,9744.89,9669.05,9675.78,9614.73,9523.36,9462.74,9419.85,9382.48,9352.96,9345.03,9362.9,9381.52,9407.07,9462.76,9529.6,9598.85,9685.75,9769.1,9845.41,9905.23,9975.28,10045.4,10091.3,10123.7,10129.2,10096.2,10060.3,10003,9917.56,9825.89,9730.62,9627.58,9545.58,9499.2,9481.86,9471.84,9481.95,9511.42,9532.73,9576.32,9635.53,9683.5,9718.15,9753.74,9794,9840.29,9884.32,9929.58,9963.64,9974.6,9983.97,9979.4,9964.71,9942.75,9906.94,9868.33,9855.31,9840.04,9840.26,9825.75,9804.34,9801.96,9793.8,9797.48,9816.21,9824.89,9832.12,9840.87,9861.06,9896.2,9918.26,9920.63,9917.49,9915.2,9908.69,9906.08,9884.62,9844.25,9786,9720.36,9680.67,9651.04,9646.54,9616.81,9586.93,9571.29,9566.88,9570.59,9571.57,9557.3,9534.34,9505.47,9483.09,9476.02,9475.84,9483.22,9493.77,9513.29,9540.43,9571.13,9593.62,9621.73,9650.82,9673.82,9698.59,9722.48,9765.27,9745.99,9578.49,9438.22,9267.84,9109.58,8917.12,8735.92,8521.68,8313.76,8114.61,8166.5,8200.75,8259.35,8317.54,8415.29,8528.89,8741.91,8968.98,9190.84,9273.09,9355.67,9428.71,9469.8,9508.1,9547.23,9594.92,9622.39,9651.11,9657.75,9656.46,9625.76,9582.43,9529.13,9457.32,9362.57,9252.83,9112.87,8983.88,8852.97,8730.04,8617.91,8523.94,8432.37,8270.91,7831.55,5929.58,2725.48,1408.7,2211.19,2597.06,4168.99,3996.58,3921.4,3884.27,3864.64,3861.47,3863.04,3839.02,3815.7,3802.86,3815.42,3840.13,3931.32,4173.97
0,0,0,0,0,0,0,0,0,0,0,0,0,0,0,0,0,0,0,0,0,0,0,11,11,11,22,66,88,110,176,143,33,66,77,165,99,33,33,22,22,11,0,11,33,33,0,0,0,0,0,0,0,0,0,11,66,165,44,1584,9185,9658,7920,10054,10736,11000,11000,11000,11000,11000,11000,11000,11000,11000,11000,11000,11000,11000,11000,11000,11000,11000,10494,8756,4979.66,861.17,27.231,1802.36,3381.6,3947.29,3979.06,4102.44,4145.81,4198.8,4150.97,4031.31,4048.47,4006.01,3968.85,3938.89,3921.67,3929.75,3934.66,3919.95,3904.64,3900.29,3900.83,3901.01,3901.96,3907.54,3898.96,3890.34,3920.99,3953.49,713.203,15.218,98.997,121,175.437,154,318.437,483.617,844.24,1493.13,2372.72,3211.62,5092.8,7502,8492,8888,9328,10098,10714,11000,11000,11000,11000,11000,11000,11000,11000,11000,11000,11000,11000,11000,11000,11000,11000,11000,11000,11000,11000,11000,11000,11000,11000,11000,11000,11000,11000,11000,11000,11000,11000,11000,11000,11000,11000,11000,11000,11000,11000,11000,11000,11000,11000,11000,11000,11000,11000,11000,11000,11000,11000,11000,11000,11000,11000,11000,11000,11000,11000,11000,11000,11000,10878.3,10296.2,9817.63,9372.93,9160.41,9232.61,9577.94,10023.3,10535,11000,11000,11000,11000,11000,11000,11000,11000,11000,11000,11000,11000,11000,11000,11000,11000,11000,11000,11000,11000,11000,11000,11000,11000,11000,11000,11000,11000,11000,11000,11000,11000,11000,11000,11000,11000,11000,11000,11000,11000,11000,11000,11000,11000,10885.8,10670,10366.7,10084.7,9891.17,9737.01,9614.91,9554.95,9571.95,9516.55,9428.65,9377.99,9338.08,9300.05,9275.78,9272.24,9295.3,9315.58,9341.05,9399.22,9461.11,9532.23,9621.84,9704.59,9778.17,9844.86,9922.24,10000,10044.3,10076.1,10086.2,10052.6,10022.8,9969.79,9885.04,9789.07,9710.65,9609,9534.52,9493.75,9478.42,9472.13,9484.23,9514.07,9532.24,9569.06,9635.66,9683.59,9718.7,9750.5,9786.64,9827.67,9866.11,9909.87,9937.89,9939.19,9941.38,9931.83,9908.97,9884.56,9850.03,9815.43,9801.35,9793.71,9800.94,9797.06,9778.69,9788.51,9792.4,9803.55,9828.42,9843.45,9852.68,9865.22,9890.91,9933.18,9957.75,9958.89,9957.1,9948.4,9943.78,9935.85,9910.04,9866.46,9803.82,9738.41,9696.47,9666.01,9654.29,9634.14,9603.29,9595.98,9590.32,9603.63,9615.46,9606.44,9591.25,9568.13,9555.02,9548.27,9551.75,9564.16,9572.99,9583.7,9608.69,9638.45,9666.07,9700.45,9729.17,9755.17,9788.19,9819.39,9868.44,9861.34,9692.38,9547.31,9371.29,9208.91,9011.83,8825.93,8606.76,8395.16,8184.52,8229.13,8263.34,8322.35,8378.47,8456.61,8555.42,8761.25,8958.2,9181.61,9267.66,9342.65,9410.85,9456.63,9497.84,9543.08,9592.32,9626.27,9642.97,9645.28,9638.73,9602.08,9559.14,9498.02,9416.7,9310.53,9188.91,9050.54,8914.2,8777.56,8653.57,8538.47,8441.99,8355.08,8191.61,7814.27,7111.62,4179.19,2381.18,1522.65,1652.33,4201.34,4015.08,3925.77,3884.57,3862.7,3858.25,3859.48,3836.43,3813.02,3798.64,3811.75,3830.84,3902.13,4142.88
0,0,0,0,0,0,0,0,0,0,0,0,0,0,0,0,0,0,0,0,0,0,22,33,55,77,88,99,99,176,220,231,121,165,176,264,121,66,33,55,33,33,22,11,11,33,0,0,0,0,0,0,0,0,0,11,66,297,11,748,7139,6369,5995,8734,10615,11000,11000,11000,11000,11000,11000,11000,11000,11000,11000,11000,11000,11000,11000,11000,11000,11000,10571,9173.42,5807.9,1650.07,41.164,1278.94,2507.04,3732.73,4024.81,4236.79,4214.41,4179.62,4115.65,3997.46,4025.45,3983.85,3949.83,3926.48,3912.37,3928.7,3930.91,3917.57,3903.51,3899.14,3900.22,3898.56,3902.44,3904.82,3895.08,3890.72,3949.57,4052.97,918.266,36.339,55,163.056,110,251.932,417.264,560.617,811.17,931.759,1331,2772,4895,6413,8555.32,9614,10164,10559.1,10670,10736,11000,11000,11000,11000,11000,11000,11000,11000,11000,11000,11000,11000,11000,11000,11000,11000,11000,11000,11000,11000,11000,11000,11000,11000,11000,11000,11000,11000,11000,11000,11000,11000,11000,11000,11000,11000,11000,11000,11000,11000,11000,11000,11000,11000,11000,11000,11000,11000,11000,11000,11000,11000,11000,11000,11000,11000,11000,11000,11000,11000,11000,11000,10798,10234.2,9780.88,9387.37,9228.2,9344.91,9692.64,10168.5,10710.8,11000,11000,11000,11000,11000,11000,11000,11000,11000,11000,11000,11000,11000,11000,11000,11000,11000,11000,11000,11000,11000,11000,11000,11000,11000,11000,11000,11000,11000,11000,11000,11000,11000,11000,11000,11000,11000,11000,11000,11000,11000,11000,11000,11000,11000,10737.2,10416.4,10097.9,9869.72,9681.35,9543,9472.97,9495.02,9437.62,9351.05,9303.33,9271.58,9236.56,9218.9,9219.01,9238.07,9261.05,9293.37,9349.26,9413.45,9484.54,9576.22,9654.33,9728.42,9798.49,9878.98,9959.96,10009.5,10051.2,10069.3,10050.7,10030.6,9990.22,9919.97,9842.13,9765.17,9679.16,9615.02,9574.88,9557.09,9551.65,9558.85,9581.29,9601.02,9632.59,9685.86,9722.33,9755.67,9783.38,9816.89,9849.54,9883.59,9912.18,9936.64,9929.11,9923.92,9909.07,9878.47,9847.79,9810.05,9772.55,9758.94,9750.69,9759.84,9758.46,9749.61,9766.85,9772.45,9796.4,9826.37,9850.22,9866.12,9890.2,9922.28,9964.76,9993,9996.55,9995.8,9981.7,9969.76,9957.43,9922.51,9878.04,9817.69,9759.18,9721.29,9681.16,9675.62,9639.56,9611.45,9609.38,9610.08,9622.32,9638.51,9631.21,9625,9610.68,9605.5,9600.04,9602.52,9611.1,9617.18,9631.44,9659.16,9685.88,9714.22,9752.14,9780.92,9820.57,9856.68,9892.67,9954,9960.68,9794.8,9643.63,9468.76,9303.14,9106.87,8917.3,8683.17,8480.35,8251.11,8295.65,8327.33,8385.52,8434.84,8503.16,8593,8773.61,8955.63,9151.28,9234.47,9299.07,9375.48,9409.2,9453.11,9495.03,9559.28,9589.4,9601.6,9590.1,9593.56,9558.91,9506.93,9436.83,9351.63,9235.79,9115.48,8977.16,8840.28,8704.37,8580.83,8470.87,8379.61,8290.35,8122.99,7778.6,7286.86,4486.77,2747,1943.73,1653.29,4242.41,4032.31,3928.1,3883,3860,3854.8,3853.54,3831.9,3809.18,3793.62,3807.74,3823.12,3881.11,4129.71
0,0,0,0,0,0,0,0,0,0,0,0,0,0,0,0,0,0,0,0,0,0,11,33,55,88,88,110,110,176,231,308,220,308,330,330,187,110,77,88,44,44,33,0,0,0,0,0,0,0,0,0,0,0,0,11,44,132,11,165,4422,8514,6677,6457,10296,11000,11000,11000,11000,10835,11000,11000,11000,11000,11000,11000,11000,11000,11000,10868,11000,10791,10384,8975.62,5796.3,2036.31,160.925,1171.43,1871.61,2454.63,3690.45,4119.41,4186.11,4140.44,4086.98,4000.44,3999.42,3961.09,3931.04,3914.41,3904.7,3928.3,3927.19,3914.09,3902.04,3897.39,3899.65,3895.65,3901.96,3902.27,3890.68,3894.61,4016.95,4231.18,961.896,41.376,108.039,163.474,186.095,373.804,725.437,791.617,1163.05,934.437,1319.26,3091,5071,7579,8995.44,10340,10791,10834.3,10802,10879,11000,11000,11000,11000,11000,11000,11000,11000,11000,11000,11000,11000,11000,11000,11000,11000,11000,11000,11000,11000,11000,11000,11000,11000,11000,11000,11000,11000,11000,11000,11000,11000,11000,11000,11000,11000,11000,11000,11000,11000,11000,11000,11000,11000,11000,11000,11000,11000,11000,11000,11000,11000,11000,11000,11000,11000,11000,11000,11000,11000,11000,11000,10688.1,10135.1,9699.58,9379.98,9276.55,9426.44,9789.86,10280.1,10837.5,11000,11000,11000,11000,11000,11000,11000,11000,11000,11000,11000,11000,11000,11000,11000,11000,11000,11000,11000,11000,11000,11000,11000,11000,11000,11000,11000,11000,11000,11000,11000,11000,11000,11000,11000,11000,11000,11000,11000,11000,11000,11000,11000,11000,11000,10801,10467,10110.5,9836.62,9605.51,9455.48,9394.01,9416.94,9362.13,9282.58,9240.96,9213.93,9188,9181.85,9184.06,9207.14,9228.78,9258.99,9316.24,9379.13,9446.19,9534.07,9607.82,9682.2,9750.52,9828.76,9905.24,9965.86,10007.6,10035.7,10029.3,10016.1,9992.59,9939.48,9882.06,9826.15,9752.21,9698.21,9664.7,9647.41,9636.99,9640.98,9658.92,9672.95,9687.75,9724.88,9749.99,9782.66,9801.73,9822.06,9839.9,9866.95,9886.22,9895.21,9881.64,9862.15,9838.67,9807.2,9775.5,9738.45,9695.53,9680.2,9671.69,9681.81,9693.69,9686.01,9706.3,9723.85,9751.03,9791.16,9815.8,9839.13,9867.18,9899.05,9942.95,9974.89,9980.84,9975.56,9962.5,9947.83,9932.86,9904.77,9857.59,9795.83,9738.93,9702.99,9670.85,9641.14,9606.98,9605.62,9598.06,9599.18,9617.56,9634.81,9632.05,9634.24,9624.51,9629.81,9623.96,9629.53,9630.71,9645.85,9651.1,9677.29,9695.3,9722.61,9752.64,9788.2,9820.8,9864.23,9904.33,9973.35,9985.51,9833.75,9692.95,9523.38,9367.17,9184.31,9000.81,8760.06,8558.57,8321.94,8364.5,8383.18,8440.15,8491.36,8554.72,8631.38,8798.51,8956.96,9125.76,9200.55,9258.71,9316.07,9365.25,9397.95,9444.47,9513.11,9543.71,9547.95,9555.77,9560.26,9527,9474.44,9401.04,9314.92,9198.75,9079.24,8947.62,8811.59,8675.98,8554.58,8445.76,8351.72,8251.15,8097.73,7805.71,7378.48,5316.12,3327.02,1748.37,1038.61,4287.94,4050.16,3929.78,3880.63,3856.05,3850.21,3846.18,3826.04,3803.67,3788.2,3800.78,3814.25,3863.77,4125.95
0,0,0,0,0,0,0,0,0,0,0,0,0,0,0,0,0,0,0,0,0,0,11,44,88,110,121,154,154,187,317.426,316.717,176,484,374,440,341,209,132,143,22,33,22,11,11,0,22,33,44,55,77,44,0,0,0,22,55,110,0,88,3212,9108,7997,9196,10604,10857,11000,11000,11000,10857,11000,11000,11000,11000,11000,11000,10879,10868,10802,10714,10681,10549,9889,8030,4869.87,1970.47,262.213,1158.42,1487.08,1571.92,3392.29,3914.44,4117.96,4100.99,4047.63,3994.71,3970.66,3937.43,3913.11,3902.23,3897.32,3926.57,3923.68,3910.12,3899.88,3895.43,3899.49,3892.86,3901.32,3900.62,3887.91,3916.05,4123.48,3302.42,465.117,42.469,184.317,358.763,373.068,824.068,1396.44,1704.8,1814.62,2383.76,2694.26,3211.09,5819,8786.8,9943.44,10769,11000,11000,11000,11000,11000,11000,11000,11000,11000,11000,11000,11000,11000,11000,11000,11000,11000,11000,11000,11000,11000,11000,11000,11000,11000,11000,11000,11000,11000,11000,11000,11000,11000,11000,11000,11000,11000,11000,11000,11000,11000,11000,11000,11000,11000,11000,11000,11000,11000,11000,11000,11000,11000,11000,11000,11000,11000,11000,11000,11000,11000,11000,11000,11000,11000,11000,10571.1,10022.9,9613.72,9351.67,9299.78,9490.15,9858.67,10336.5,11000,11000,11000,11000,11000,11000,11000,11000,11000,11000,11000,11000,11000,11000,11000,11000,11000,11000,11000,11000,11000,11000,11000,11000,11000,11000,11000,11000,11000,11000,11000,11000,11000,11000,11000,11000,11000,11000,11000,11000,11000,11000,11000,11000,11000,11000,10876.6,10574,10189.1,9877.46,9618.43,9453.21,9389.26,9421.66,9374.93,9305.04,9272.45,9254.69,9240.69,9248.35,9263.81,9289.84,9313.82,9343.78,9398.12,9458.09,9519.94,9600.63,9661.45,9721.23,9780.01,9847.91,9918.5,9964.78,9997.97,10018.3,10012.2,10003.9,9990.44,9946.5,9905.91,9862.77,9805.07,9770.46,9747.14,9738.94,9731.83,9737.2,9751.41,9758.71,9760.2,9777.29,9787.75,9801.97,9797.86,9796.58,9790.49,9795.56,9795.25,9788.71,9760.45,9737.87,9709.64,9682.18,9660.52,9629.34,9598.26,9589.2,9587.13,9611.55,9629.67,9641.11,9667.25,9691.83,9728.56,9771.5,9805.11,9834.92,9870.5,9904.36,9943.22,9969.85,9977.47,9973.5,9961.71,9943.58,9924.23,9893.19,9852.98,9796.36,9744.52,9712.66,9682.03,9665.98,9645.76,9627.93,9624.44,9628.08,9638.47,9655.28,9654.74,9658.26,9644.32,9640.16,9633.16,9627.12,9628.63,9627.8,9634.89,9651.51,9669.27,9690.67,9722.49,9759.01,9787.57,9836.53,9882.24,9952.07,9976.3,9846.02,9719.64,9559.86,9413.25,9243.02,9064.41,8818.32,8578.87,8394.55,8428.33,8436.54,8477.5,8532.48,8582.69,8661.25,8811.27,8952.29,9102.21,9154.88,9216.84,9281.63,9321.99,9363.68,9411.14,9466.91,9506.98,9515.58,9520.27,9521.07,9491.09,9437.64,9364.05,9274.37,9165.69,9047.9,8913.06,8782.93,8649.19,8532.72,8422,8331.52,8228.23,8088.54,7837.26,7516.14,5809.55,3615,1675.5,764.328,4332.77,4065.19,3927.88,3876.58,3847.9,3845.52,3838.23,3820.29,3797.91,3781.27,3793.13,3805.39,3844.34,4119.11
