1853.41,1852.09,1852.03,1852.16,1851.99,1851.86,1852.47,1852.59,1852.98,1852.98,1851.51,1849.67,1846.95,1845.3,1844.29,1842.57,1840.66,1839.21,1838.07,1838.46,1840.11,1842.29,1845.08,1848.45,1852.14,1858.06,1864.38,1869.23,1872.35,1876.94,1880.15,1881.16,1880.94,1881.34,1880.52,1879.97,1880.33,1881.52,1880.77,1881.07,1882.71,1884.69,1884.96,1885.57,1885.75,1886.51,1887.69,1888.5,1888.42,1887.58,1885.16,1883.05,1881.39,1881.35,1880.19,1878.35,1877.63,1877.95,1879.06,1880.17,1882.07,1883.7,1883.88,1881.93,1880.54,1876.98,1873.22,1870.53,1867.26,1864.75,1861.64,1857.93,1856.39,1854.43,1856.27,1857.82,1857.78,1859.15,1859.89,1861.88,1863.83,1864.75,1866.13,1867.41,1867.43,1867.67,1867.28,1867.01,1867.1,1867.86,1870.51,1873.1,1873.05,1876.11,1876.44,1876.14,1875.77,1873.34,1870.59,1866.67,1863.22,1861.29,1858.74,1857.34,1857.37,1857.59,1859.14,1860.53,1861.72,1862.36,1862.69,1863.42,1864.49,1865.06,1864.67,1864.53,1867.65,1869.26,1871.08,1872.27,1874.55,1873.49,1872.76,1872.33,1870.06,1866.64,1862.85,1857.54,1853.06,1848.78,1847.33,1846.07,1845.35,1846.01,1846.14,1846.22,1847.68,1848.32,1849.77,1850.72,1853.84,1857.17,1858.86,1861.5,1863.18,1864.79,1868.05,1872.78,1876.9,1877.76,1877.62,1876.79,1877.12,1877.97,1878.13,1876.99,1874.51,1873.16,1874.01,1876,1877.06,1877.86,1878.09,1879.37,1879.88,1882.02,1883.1,1884.09,1885.14,1889.28,1890.98,1892.94,1893.25,1892.51,1890.31,1888.89,1886.32,1883.29,1879.06,1876.22,1873.31,1871.39,1872.89,1875.71,1876.98,1878.04,1878.6,1880.1,1882.64,1885.39,1887.43,1887.64,1886.82,1886.47,1886.47,1886.85,1887.35,1885.74,1885.41,1885.32,1884.93,1884.29,1884.33,1884.06,1883.46,1883.48,1883.44,1882.69,1882.36,1882.18,1881.11,1880.37,1880.13,1879.02,1879.91,1881.97,1880.53,1881.99,1882.75,1884.76,1886.86,1889.83,1893.39,1895.55,1897.45,1898.89,1899.49,1899.67,1899.5,1899.08,1897.96,1896.42,1895.29,1894.61,1893.47,1891.61,1888.55,1886.63,1885.15,1884.28,1883.38,1883.28,1881.92,1881.95,1882.61,1883.69,1883.16,1881.63,1880.41,1879.78,1878.39,1877.61,1877.38,1877.1,1876.84,1877.8,1879.27,1879.67,1879.96,1880.74,1881.1,1881.19,1879.81,1878.81,1878.82,1879.27,1879.18,1879.54,1879.93,1880.71,1881.9,1882.91,1884.83,1887.68,1889.18,1890.08,1890.5,1890.12,1888.43,1886.99,1887.23,1886.47,1885.22,1885.13,1886.2,1886.97,1888.43,1891.22,1893.85,1895.21,1896.13,1897.03,1898.42,1900.21,1900.99,1901.86,1901.01,1898.7,1898.73,1898.57,1898.4,1896.82,1895.81,1895.12,1894.1,1893.38,1893.09,1891.88,1890.5,1888.89,1887.52,1886.16,1886.36,1886.23,1886.8,1889.68,1891.06,1891.7,1893.02,1895.36,1896.79,1897.93,1898.5,1898.36,1896.77,1895.09,1894.32,1893.07,1890.58,1888.39,1885.01,1882.3,1880.26,1879.21,1879.29,1878.52,1877.03,1876.29,1876.31,1877.48,1879.27,1880.05,1880.36,1880.75,1881.23,1881.64,1881.88,1881.68,1881.98,1881.65,1881.12,1881.06,1881.33,1881.85,1882.96,1884.37,1884.93,1884.44,1885.16,1885.69,1886.27,1886.53,1886.79,1887.1,1887.56,1888.57,1889.8,1890.87,1892.94,1894.12,1894.76,1894.75,1894.54,1893.42,1892.23,1890.88,1889.24,1887.67,1886.41,1885.24,1883.98,1882.63,1882.03,1881.85,1882.18,1882.33,1882.54,1883.32,1884.77,1886.51,1888.41,1890.15,1891.62,1892.7,1893.68,1893.96,1892.68
1845.95,1845.04,1845.46,1845.63,1846,1846.33,1847.3,1847.81,1848.5,1852.83,1846.69,1844.21,1840.94,1838.57,1836.73,1834.71,1831.66,1829.14,1827.84,1828.16,1829.9,1831.99,1834.74,1838.28,1842.23,1848.04,1854.41,1859.32,1862.44,1866.41,1868.96,1870.02,1869.69,1869.91,1869.15,1868.77,1869.15,1869.76,1869.35,1870.08,1871.94,1874.76,1875.26,1876.33,1875.82,1877.32,1878.61,1879.33,1878.91,1877.76,1875.44,1873.26,1871.17,1871.21,1870.13,1868.49,1867.73,1868.18,1869.08,1869.3,1871.07,1872.83,1872.66,1870.21,1867.82,1863.14,1858.08,1855.14,1852.23,1849.65,1846.83,1843.53,1843.02,1842.31,1844.65,1847.75,1848.75,1850.95,1852.48,1855.29,1857.69,1858.93,1860.61,1861.93,1861.94,1861.99,1861.12,1860.71,1860.98,1862.34,1865.12,1867.38,1866.48,1869.36,1869.39,1869.13,1868.48,1866.25,1863.35,1858.9,1854.27,1851.4,1848.15,1847.08,1847.17,1847.31,1848.33,1849.97,1851.73,1852.72,1853.46,1854.43,1855.76,1856.51,1856.6,1857.49,1860.67,1862.25,1863.96,1865.07,1866.96,1865.98,1865,1864.54,1862.37,1859.27,1855.77,1850.92,1846.46,1841.91,1840.42,1839.04,1837.92,1838.6,1838.73,1838.56,1839.84,1840.36,1841.71,1842.53,1845.52,1847.98,1850.07,1851.85,1853.22,1855.22,1858.88,1862.96,1866.88,1868.09,1869.14,1869.62,1870.52,1872.32,1873.35,1873.45,1872.15,1871.94,1873.13,1873.7,1874.34,1875.04,1875.54,1876.98,1876.82,1878.11,1878.37,1879.34,1880.78,1883.41,1884.19,1884.5,1883.26,1881.8,1879.22,1877.22,1875.25,1873.19,1869,1867.87,1866.34,1865.59,1868.02,1870.18,1871.58,1872.74,1874.04,1876.1,1878.47,1882.07,1884.3,1883.23,1883.31,1883.51,1883.44,1883.79,1883.95,1882.62,1882.06,1881.61,1880.85,1880.14,1879.67,1878.78,1877.77,1877.5,1876.56,1875.73,1875.88,1875.95,1874.86,1874.16,1874.36,1873.99,1875.09,1877.28,1877,1877.47,1877.75,1879.94,1881.92,1883.42,1885.82,1888.04,1889.41,1890.26,1890.73,1891.36,1891.61,1891,1889.39,1887.79,1886.35,1886.12,1885.06,1883.78,1881.02,1879.46,1878.41,1877.85,1877.35,1877.32,1876.61,1875.96,1876.86,1877.83,1877.46,1876.57,1876.26,1876.15,1875.54,1874.86,1874.81,1874.32,1873.81,1874.86,1876.62,1877.11,1876.92,1877.19,1877.26,1876.9,1875.82,1875,1874.78,1874.53,1873.97,1874.07,1874.03,1875.16,1876.04,1876.51,1877.83,1879.31,1880.62,1881.57,1882,1882.01,1880.5,1880.13,1880.61,1880.5,1880.53,1880.95,1881.88,1882.45,1883.75,1886.38,1889.72,1891.23,1892.18,1893.53,1894.85,1895.59,1896.3,1896.69,1895.87,1894.08,1893.64,1893.39,1892.65,1891.29,1890.41,1889.56,1888.76,1888.43,1888.15,1887.07,1886.22,1885.4,1884.84,1883.83,1883.93,1883.5,1883.42,1885.08,1885.72,1885.57,1886.37,1888.91,1890.42,1890.95,1891.42,1891.19,1888.89,1887.3,1886.93,1886.05,1883.85,1882.13,1879.4,1876.97,1874.8,1873,1872.1,1871.03,1869.59,1868.72,1868.26,1869.32,1870.68,1871.43,1871.81,1872.49,1873.28,1873.8,1873.85,1873.26,1873.06,1872.55,1872.03,1871.99,1872.33,1872.92,1873.92,1875.45,1876.76,1876.93,1878.09,1878.78,1879.34,1879.9,1880.71,1881.68,1882.44,1883.33,1884.27,1885.28,1887.24,1888.84,1889.51,1889.52,1888.91,1887.87,1886.77,1885.41,1883.86,1882.42,1881.13,1879.75,1878.49,1877.02,1876.17,1875.92,1876.11,1876.14,1876.58,1877.48,1879.05,1880.54,1881.9,1883.09,1883.82,1884.34,1884.88,1884.84,1883.16
1839.57,1838.92,1839.6,1840.25,1840.99,1841.69,1842.98,1843.36,1844,1848.07,1846.39,1838.29,1835.46,1832.68,1830.17,1827.84,1824.75,1821.06,1818.19,1817.85,1819.38,1821.53,1824.06,1827.68,1832.1,1837.5,1843.55,1848.49,1852,1856.1,1858.56,1860.07,1860.08,1860.27,1860.23,1859.93,1860.45,1860.68,1860.55,1861.22,1862.61,1865.09,1865.82,1867.65,1867.06,1868.43,1870.11,1870.67,1869.73,1868.29,1865.59,1863.5,1861.05,1861.31,1860.13,1858.66,1857.53,1857.85,1858.56,1859.02,1860.49,1861.95,1861.24,1857.74,1854.47,1849.38,1845.01,1842.16,1839.48,1836.99,1834.46,1833.06,1833.18,1833.85,1837.02,1840.2,1841.06,1843.24,1845.42,1849.52,1851.99,1853.64,1855.22,1855.57,1855.2,1855.19,1853.49,1852.87,1853.48,1855.53,1857.91,1860.04,1859.48,1861.77,1861.78,1861.46,1860.97,1858.58,1855.04,1850.4,1845.67,1843.18,1839.96,1838.06,1838.22,1838.24,1839.05,1840.66,1842.64,1843.86,1844.67,1846.32,1848.05,1850.27,1850.66,1852.49,1855.32,1856.78,1858.02,1858.96,1859.83,1858.7,1856.7,1855.99,1853.57,1851.08,1847.78,1843.76,1840.11,1836.08,1834.47,1832.72,1831.76,1832.42,1832.48,1832.98,1834.12,1834.66,1835.7,1836.9,1839.45,1840.17,1841.24,1842.14,1843.41,1845.5,1849.11,1852.98,1856.54,1857.98,1860.26,1861.56,1863.31,1865.37,1867.33,1868.36,1868.46,1869.28,1870.76,1871.05,1871.92,1872.8,1873.39,1874.52,1873.74,1874.47,1874.38,1875.37,1875.95,1878.06,1878.52,1878.11,1875.97,1873.92,1871.54,1869.44,1867.53,1866.59,1863.19,1862.29,1861.06,1860.7,1863.08,1865.03,1865.91,1867.02,1868.05,1869.93,1872.31,1875.49,1877.15,1876.33,1877.35,1878.13,1877.92,1878.31,1878.95,1877.55,1877.21,1876.99,1876.56,1875.69,1875.24,1873.68,1872.03,1871.07,1869.1,1868.03,1868.2,1868.53,1868.23,1868.54,1869.4,1869.72,1870.91,1872.94,1872.25,1872.2,1871.49,1872.84,1874.27,1876.09,1878.53,1880.3,1881.12,1881.33,1881.33,1881.84,1881.74,1881,1880.16,1878.73,1877.58,1877.39,1877.23,1876.41,1874.47,1873.3,1872.51,1871.91,1871.64,1871.76,1871.29,1871.07,1871.71,1872.95,1872.95,1872.2,1872.25,1872.47,1871.97,1871.89,1872.31,1872.43,1872.21,1872.65,1873.77,1874.18,1873.7,1873.74,1873.63,1873.19,1872.31,1871.79,1870.97,1870.39,1868.87,1868.9,1868.09,1868.63,1868.59,1868.33,1869.55,1871.22,1872.18,1872.77,1873.11,1873.39,1872.98,1873.36,1873.97,1874.42,1874.71,1875.29,1876.5,1877.5,1878.62,1880.95,1883.8,1885.41,1886.28,1887.64,1889.24,1889.89,1890.29,1890.64,1889.21,1886.19,1885.8,1885.65,1884.93,1883.18,1882.9,1882.45,1882.02,1882.6,1882.96,1882.63,1882.41,1882.06,1881.44,1880.02,1879.61,1879.08,1878.48,1879.06,1878.87,1878.29,1878.28,1879.42,1880.25,1880.72,1881.52,1881.85,1880.82,1880.54,1880.85,1880.53,1878.53,1877.45,1875.36,1873.17,1870.97,1868.37,1866.8,1865.31,1863.57,1862.29,1861.3,1861.67,1862.66,1863.09,1863.38,1863.53,1864.12,1864.84,1864.92,1863.87,1863.67,1863.15,1862.91,1862.86,1863.45,1863.84,1864.62,1866.11,1867.59,1868,1869.82,1870.97,1871.87,1872.77,1874.21,1876.1,1877.09,1878.04,1879.01,1879.75,1881.5,1882.93,1883.62,1883.32,1882.14,1880.87,1879.88,1878.75,1877.3,1875.74,1874.19,1872.95,1871.78,1870.43,1869.47,1868.69,1868.65,1868.62,1869.03,1869.94,1871.17,1872.33,1873.36,1874.14,1874.46,1874.54,1874.57,1874.22,1872.99
1833.34,1833.28,1833.69,1834.49,1835.58,1836.46,1837.89,1838.22,1838.35,1838.3,1836.47,1833.03,1829.23,1825.94,1823.04,1819.94,1816.39,1813.29,1810.49,1809.13,1809.99,1811.93,1813.83,1817.3,1822.76,1827.67,1833.51,1838.19,1841.53,1845.84,1848.66,1850.96,1851.74,1850.89,1851.25,1851.25,1852.19,1852.46,1852.5,1853.35,1854.7,1857.59,1858.5,1860.3,1859.83,1861.04,1862.39,1862.57,1861.2,1859.39,1856.88,1854.76,1852.48,1852.31,1851.14,1849.34,1848.18,1848.18,1848.51,1848.98,1849.36,1849.63,1849.12,1845.27,1842.06,1837.84,1833.88,1831.91,1829.5,1827.16,1825.15,1824.38,1825.4,1826.51,1829.66,1832.5,1832.76,1834.8,1837.07,1842.08,1844.45,1846.13,1847.74,1847.82,1847.35,1847.15,1845.23,1844.76,1845.58,1847.1,1848.8,1850.43,1850.56,1852.56,1852.87,1852.84,1852.8,1849.95,1846.4,1842.34,1838.09,1836.03,1833.46,1831.42,1831.39,1831.22,1831.96,1832.29,1834.29,1835.65,1837.05,1839.26,1843.18,1845.08,1846.16,1847.95,1850.06,1851.41,1852.12,1852.25,1852.15,1850.71,1848.42,1847.3,1845.25,1842.84,1839.88,1836.36,1833.12,1829.87,1827.85,1826.39,1826.39,1827.03,1827.24,1827.9,1828.52,1828.94,1830.18,1830.92,1832.72,1831.81,1831.95,1832.31,1833.19,1835.18,1838.45,1841.39,1844.24,1845.97,1848.98,1850.91,1853.27,1856.03,1858.55,1860.51,1861.99,1863.59,1865.81,1865.96,1867.47,1868.51,1869.47,1870.23,1869.12,1869.18,1868.65,1869.55,1869.64,1871.42,1871.61,1870.85,1868.2,1866.23,1863.83,1861.88,1860.26,1859.75,1856.44,1855.61,1854.6,1854.75,1857.34,1858.73,1859.23,1859.88,1860.56,1862.16,1863.83,1866.26,1867.61,1866.25,1867.38,1868.59,1868.24,1868.72,1870.07,1869.66,1869.91,1870.17,1870.08,1869.41,1868.92,1867.28,1865.85,1864.97,1862.76,1861.28,1861.28,1861.28,1861.48,1862.48,1863.75,1864.37,1865.72,1867.76,1867.26,1867.34,1866.93,1867.3,1867.41,1867.85,1869.18,1870.29,1870.29,1869.85,1869.19,1869.92,1870.34,1869.85,1869.26,1868.73,1867.99,1868.45,1868.88,1868.64,1867.21,1866.49,1865.86,1865.43,1865.22,1865.63,1865.45,1865.4,1865.77,1866.66,1867.13,1867.27,1867.77,1868.31,1868.41,1868.94,1869.94,1870.46,1870.4,1870.47,1870.91,1870.96,1870.69,1870.5,1870.3,1869.7,1868.8,1868.24,1867.5,1866.79,1864.76,1864.12,1862.91,1862.73,1861.74,1860.89,1861.35,1862.5,1863.2,1864.43,1865.12,1865.56,1865.51,1866,1867.17,1867.89,1868.32,1869.09,1870.65,1871.88,1873.27,1875.4,1877.35,1878.49,1879.07,1880.16,1880.99,1880.86,1880.77,1880.49,1878.74,1876.8,1876.37,1875.92,1875.46,1875.02,1875.23,1875.05,1875.1,1875.84,1876.36,1876.42,1876.52,1876.45,1875.87,1874.48,1873.6,1872.55,1871.71,1871.54,1870.96,1869.91,1869.21,1870.02,1870.62,1871.42,1872.48,1873.34,1873.23,1873.55,1874.37,1874.55,1873.18,1872.74,1870.87,1868.79,1866.58,1864.4,1862.55,1860.98,1859.33,1857.88,1856.3,1855.75,1855.76,1855.61,1855.66,1855.66,1855.8,1856.34,1856.23,1855.17,1855.04,1854.22,1853.87,1854.16,1854.64,1855,1855.93,1857.52,1858.93,1859.65,1861.51,1863.45,1864.65,1865.77,1868.01,1870.02,1871.27,1872.41,1873.34,1874.02,1875.55,1876.71,1877.11,1876.26,1874.99,1873.56,1872.49,1871.35,1870.13,1868.4,1866.95,1865.65,1864.64,1863.56,1862.61,1861.81,1861.44,1861.32,1861.52,1862.16,1863,1863.71,1864.06,1864.36,1864.55,1864.57,1864.53,1864.09,1863.02
1826.82,1826.93,1827.43,1828.32,1829.82,1831.06,1832.72,1833.34,1833.36,1832.75,1831.06,1827.49,1823.39,1819.52,1816.05,1812.57,1808.96,1805.05,1801.88,1800.44,1801.18,1802.66,1804.72,1808.02,1813.29,1817.7,1822.81,1827.48,1830.64,1835.16,1838.56,1841.5,1842.66,1841.9,1842.7,1843.08,1843.84,1844.37,1844.69,1845.69,1846.85,1849.13,1850.85,1852.78,1852.85,1854.55,1855.8,1855.65,1853.84,1852.38,1849.75,1847.83,1845.55,1845.1,1843.71,1842.21,1841.24,1841,1840.32,1840.36,1840.03,1839.75,1837.75,1834.65,1831.66,1827.41,1823.8,1823.18,1821.02,1819.03,1817.04,1816.94,1817.82,1818.66,1821.18,1823.76,1824.02,1825.87,1828.15,1833.28,1835.17,1836.99,1838.86,1838.99,1838.74,1838.55,1836.82,1836.14,1836.51,1837.78,1838.83,1840.27,1841.21,1843.19,1843.72,1844.36,1844.07,1841.06,1837.06,1833.02,1829.43,1827.42,1825.31,1824.42,1824.31,1824.33,1825.08,1824.45,1826.75,1828.41,1830.68,1833.31,1835.71,1838.35,1839.92,1842.02,1844.36,1845.52,1846.37,1845.82,1844.79,1843.01,1840.42,1838.24,1835.89,1833.74,1830.54,1827.36,1824.49,1821.6,1819.86,1818.87,1819.48,1820.5,1821.09,1822.01,1822.49,1823.11,1824.13,1824.82,1825.66,1823.09,1821.83,1821.49,1822.02,1823.59,1826.36,1828.71,1831.28,1833.02,1836.84,1839.26,1841.59,1844.24,1847.11,1849.57,1851.99,1854.45,1857.83,1858.77,1860.79,1861.98,1863.11,1863.79,1862.64,1862.79,1862.05,1862.06,1861.86,1863.13,1863.37,1862.36,1859.86,1857.48,1854.88,1852.82,1851.69,1851.5,1848.99,1848.06,1847.47,1847.88,1850.14,1851.59,1851.95,1852.6,1853.2,1854.48,1856.23,1858.3,1859.19,1857.63,1858.27,1859.14,1858.71,1859.16,1860.98,1861.54,1862.3,1862.51,1862.58,1862.23,1861.71,1860.55,1859.06,1856.53,1856.07,1853.94,1853.68,1853.31,1853.56,1854.84,1856.62,1857.66,1859.24,1861.91,1860.84,1861.23,1861.35,1861.42,1860.73,1860.39,1860.42,1860.54,1860.08,1859.63,1859.23,1859.83,1860.31,1860.27,1860.1,1860.15,1859.99,1860.87,1861.48,1861.57,1860.7,1860.21,1859.93,1859.73,1859.66,1860.24,1860.28,1860.16,1860.03,1860.42,1861.24,1862,1862.58,1863.16,1863.65,1864.75,1865.99,1866.49,1866.26,1866.26,1866.6,1866.59,1866.27,1866.04,1865.65,1864.97,1864.34,1863.84,1863.19,1862.4,1859.86,1858.72,1856.65,1855.86,1854.23,1852.83,1852.55,1852.99,1853.42,1855.03,1856.05,1857.1,1856.98,1857.93,1859.22,1860.34,1861.16,1862.1,1863.72,1865.07,1866.23,1868.37,1870.33,1871.29,1871.62,1872.75,1872.7,1871.71,1871.16,1870.47,1868.58,1867.3,1866.67,1866.19,1865.69,1865.8,1866.3,1866.42,1866.84,1867.84,1868.49,1868.83,1869.09,1869.04,1869.05,1867.74,1866.72,1865.25,1864,1863.23,1862.08,1859.68,1858.2,1859.02,1860.08,1861.19,1862.68,1863.7,1864.48,1865.38,1866.75,1867.43,1867,1867.08,1866.17,1864.17,1862.06,1859.33,1857.21,1855.53,1853.67,1851.84,1850.15,1848.95,1848.69,1848.23,1848.19,1848.61,1848.77,1848.83,1848.49,1847.54,1847.39,1846.52,1845.76,1845.73,1845.93,1845.99,1846.9,1848.18,1849.67,1850.02,1852.11,1854.19,1856.04,1857.4,1859.88,1862.16,1863.72,1864.66,1865.81,1866.41,1867.58,1868.58,1868.93,1867.97,1866.45,1865.09,1864.18,1863.21,1861.94,1860.52,1859.2,1858,1856.98,1856.09,1855.24,1854.18,1853.69,1853.4,1853.54,1853.94,1854.43,1854.85,1854.89,1855.05,1855.1,1854.9,1854.7,1854.27,1853.28
1819.93,1819.92,1820.36,1821.32,1822.93,1824.44,1826.14,1826.78,1826.75,1825.97,1824.01,1820.66,1816.51,1812.42,1808.91,1805.12,1801.4,1797.93,1794.99,1793.55,1793.74,1795.05,1796.79,1799.98,1805,1809,1813.48,1818.25,1821.67,1826.48,1829.72,1832.86,1834.49,1834.36,1835.46,1836.01,1836.2,1836.61,1836.66,1837.94,1839.65,1842.2,1844.37,1846.15,1846.66,1848.59,1849.64,1849.22,1847.51,1846.03,1843.59,1841.44,1839.26,1838.09,1836.37,1834.89,1833.87,1833.34,1832.18,1832.03,1831.58,1831.37,1829.54,1825.98,1823,1818.72,1815.4,1814.85,1812.96,1811.13,1809.35,1809.1,1809.58,1810.65,1812.98,1815.42,1815.67,1817.39,1819.25,1823.49,1825.01,1826.7,1828.22,1828.22,1828.1,1827.7,1826.1,1825.24,1825.34,1826.35,1827.41,1829.85,1830.33,1833.36,1833.79,1834.6,1834.28,1831.23,1827.39,1823.39,1819.92,1818.49,1816.47,1815.88,1815.88,1816.12,1816.91,1816.53,1818.96,1821.18,1823.81,1827.71,1830.34,1832.82,1834.94,1836.95,1838.85,1839.7,1839.93,1838.68,1836.82,1834.69,1831.48,1828.86,1826.1,1824.52,1821.13,1818.16,1815.49,1813.8,1812.55,1812.69,1814.17,1815.48,1816.37,1817.39,1818.01,1818.65,1818.58,1818.09,1817.84,1814.85,1812.44,1811.11,1811.04,1811.73,1813.75,1815.61,1817.99,1819.7,1823.62,1826.67,1828.72,1831.36,1834.8,1837.71,1840.56,1843.95,1847.86,1849.79,1851.61,1853.47,1854.99,1855.61,1854.79,1854.98,1853.96,1853.54,1852.9,1854.41,1854.88,1853.91,1850.93,1848.71,1846.24,1844.55,1843.4,1843.03,1841.27,1840.56,1840.13,1840.83,1842.75,1844.18,1844.61,1845.44,1845.75,1846.8,1848.05,1849.39,1850.46,1849.19,1849.78,1850.39,1849.76,1850.1,1852.03,1852.87,1853.75,1853.49,1853.58,1853.16,1852.65,1851.26,1849.82,1847.89,1846.13,1845.35,1845.66,1845.74,1846.45,1847.43,1849.28,1850.33,1851.38,1853.19,1854.07,1854.44,1854.76,1854.96,1853.94,1852.86,1851.88,1850.99,1850.35,1849.87,1849.36,1849.9,1850.16,1850.29,1850.93,1851.54,1852.11,1852.49,1852.98,1853.16,1852.57,1852.33,1852.66,1852.57,1852.76,1853.17,1853.52,1853.45,1853.62,1854.16,1855.44,1856.24,1857.15,1858.04,1859.07,1860.54,1861.69,1861.77,1861.54,1861.45,1861.78,1861.75,1861.03,1860.58,1859.96,1859.14,1858.48,1857.98,1857.14,1856.26,1853.68,1852.15,1849.64,1848.35,1846.52,1844.83,1844.21,1844.23,1844.26,1845.45,1846.38,1847.36,1847.53,1848.75,1850.23,1851.64,1852.71,1854.15,1856,1857.81,1859.07,1861.11,1862.97,1863.85,1864.16,1865.14,1864.75,1863.51,1863.04,1862.22,1860.47,1859.12,1858.43,1857.75,1857.23,1857.49,1858.01,1858.22,1858.68,1859.42,1860.03,1860.48,1860.75,1860.78,1862.66,1861.39,1860.17,1858.16,1856.43,1855.03,1853.19,1849.74,1847.81,1846.33,1847.62,1849.12,1850.82,1852.45,1854.56,1855.98,1858.35,1860.12,1860.21,1860.81,1860.36,1858.96,1857.28,1854.95,1852.79,1850.87,1849.03,1848.34,1845.59,1844.14,1843.86,1843.14,1842.72,1842.45,1841.97,1841.51,1840.67,1839.88,1839.64,1839.03,1838.54,1838.41,1838.62,1838.39,1839.14,1840.01,1841.31,1841.42,1843.1,1845.29,1847.31,1848.9,1851.5,1854.18,1856.07,1857.45,1858.86,1859.63,1860.53,1861.29,1861.39,1860.24,1858.3,1856.72,1855.6,1854.38,1853.26,1851.68,1850.2,1849.1,1848.22,1847.37,1846.66,1845.99,1845.52,1845.06,1845.02,1845.15,1845.42,1845.68,1845.61,1845.58,1845.49,1845.27,1845.11,1844.56,1843.77
1812.58,1812.82,1813.37,1814.18,1815.71,1817.43,1818.81,1819.17,1819,1818.16,1815.99,1812.7,1808.74,1804.73,1800.78,1797.21,1793.97,1790.95,1788.15,1786.64,1786.55,1787.58,1789.01,1792.3,1797.15,1800.5,1804.39,1809.03,1812.88,1817.61,1821.32,1824.8,1826.51,1826.73,1828.02,1828.49,1828.16,1828.21,1828.06,1829.2,1830.85,1833.31,1835.81,1838.13,1839.12,1841.42,1842.84,1842.42,1840.61,1839.17,1837.39,1835.5,1833.06,1831.42,1829.7,1828.67,1827.61,1826.92,1825.32,1824.34,1823.22,1822.95,1821.53,1818.83,1814.95,1810.61,1807.31,1806.53,1805.04,1803.47,1801.62,1801.15,1801.14,1802.35,1804.66,1806.76,1806.46,1807.71,1809.18,1812.97,1813.88,1815.75,1816.33,1815.47,1815.33,1814.88,1813.51,1812.7,1813.09,1814.69,1816.93,1820.07,1819.38,1820.95,1821.18,1822.18,1822.24,1819.9,1817.83,1813.8,1810.1,1809.33,1807.54,1807.5,1807.77,1808.51,1809.58,1808.73,1811.29,1813.92,1816.75,1820.56,1823.34,1825.99,1828.19,1830.02,1831.56,1832.5,1832.21,1830.64,1828.25,1825.46,1821.48,1818.25,1815.6,1814.24,1811.07,1808.64,1806.2,1805.44,1805.15,1806.47,1808.19,1809.87,1811.22,1812.31,1813.13,1813.65,1813.25,1812.33,1811.13,1806.68,1803.95,1802.2,1801.89,1801.77,1802.96,1804.31,1805.81,1807.52,1811.05,1814.2,1816.02,1818.14,1821.81,1824.95,1828.6,1832.72,1837.08,1839.64,1841.64,1843.61,1845.48,1846.52,1846.27,1846.71,1845.91,1845.47,1844.77,1845.71,1846.22,1845.42,1842.74,1840.32,1837.52,1835.74,1834.57,1834.19,1832.42,1833.46,1833.51,1834.4,1836.56,1838.25,1838.57,1839.35,1839.64,1840.24,1840.21,1840.95,1841.87,1840.88,1841.08,1841.73,1840.7,1841.25,1842.6,1843.82,1844.63,1844.23,1844.18,1843.62,1843.24,1841.89,1840.5,1839.02,1837.19,1836.47,1836.88,1837.29,1838.16,1839.68,1841.55,1842.78,1844.14,1845.96,1846.93,1847.39,1847.71,1847.97,1847.67,1846.93,1846.12,1845.3,1844.51,1843.67,1843,1843.58,1843.63,1843.66,1843.98,1844.11,1843.96,1843.85,1844.11,1844.33,1844.18,1844.44,1845.11,1845.44,1846.01,1846.78,1847.58,1848.14,1849.04,1849.95,1850.91,1851.49,1852.12,1852.85,1853.69,1854.82,1856.22,1856.35,1856.24,1856.21,1856.6,1856.46,1855.32,1854.33,1853.56,1851.76,1850.95,1850.41,1849.58,1848.95,1846.61,1845,1842.66,1840.68,1838.34,1836.32,1835.27,1834.79,1834.34,1835.14,1835.97,1837.35,1837.88,1839.45,1841.41,1842.94,1843.99,1845.7,1847.96,1850.04,1851.27,1853.23,1855.22,1856.32,1856.68,1857.53,1856.98,1855.27,1854.48,1853.57,1851.86,1850.5,1849.51,1848.82,1848.45,1848.77,1849.04,1849.18,1849.46,1850.01,1850.62,1851.12,1851.54,1851.46,1853.68,1851.86,1850.39,1848.26,1846.79,1845.1,1842.82,1838.84,1836.15,1834.14,1835.42,1836.78,1838.56,1840.14,1843.02,1845.66,1848.83,1851.43,1852.03,1853.25,1853.6,1852.38,1850.95,1848.9,1847.02,1845.32,1843.64,1842.93,1840.5,1838.74,1838.11,1837.09,1836.2,1835.28,1834.61,1834.05,1832.48,1831.32,1831.09,1830.54,1830.22,1830.25,1830.52,1830.69,1831.35,1832.2,1833.5,1833.32,1834.64,1836.71,1838.82,1840.73,1843.21,1846.26,1848.5,1850.01,1851.68,1852.62,1853.54,1853.86,1853.67,1852.24,1849.66,1847.95,1846.73,1845.55,1844.19,1842.97,1841.5,1840.27,1839.33,1838.65,1837.72,1836.72,1836.22,1835.85,1835.75,1835.92,1836.27,1836.32,1836.05,1836.01,1835.83,1835.56,1835.44,1835.03,1834.19
1804.97,1805.19,1805.78,1806.42,1807.69,1809.08,1810.42,1810.45,1810.14,1809.34,1807.33,1803.95,1800.16,1796.85,1793.92,1790.7,1787.61,1784.65,1782.03,1780.58,1780.4,1781.18,1781.96,1784.56,1789.09,1792.22,1796.03,1800.68,1805,1809.74,1813.28,1817.24,1818.79,1819.54,1820.57,1820.52,1819.89,1819.77,1820.05,1821.22,1822.83,1825.14,1827.49,1830.75,1832.25,1834.32,1835.44,1834.94,1833.52,1832.4,1831.3,1829.49,1826.66,1824.57,1822.69,1821.47,1819.56,1818.41,1816.42,1814.96,1813.17,1812.56,1811.34,1808.74,1805.35,1801.19,1797.93,1797.59,1796.28,1794.91,1793.31,1792.86,1792.89,1793.92,1795.53,1797.19,1797.01,1797.64,1798.49,1801.71,1802.36,1803.81,1803.95,1802.16,1802.19,1801.87,1800.45,1800.08,1801.99,1803.91,1805.3,1807.37,1807.56,1808.56,1808.64,1809.54,1809.15,1806.2,1803.33,1800.02,1796.77,1796.27,1795.28,1795.81,1796.38,1797.16,1798.64,1800.63,1803.6,1807.18,1810.72,1814.49,1817.24,1819.93,1821.8,1823.26,1824.22,1824.33,1823.38,1821.18,1818.13,1815.26,1811.13,1807.9,1805.35,1804.96,1801.69,1799.73,1797.79,1797.7,1797.89,1799.4,1801.23,1803.4,1805.2,1806.37,1806.9,1807.14,1806.24,1804.92,1802.91,1798.69,1794.36,1791.5,1791.06,1790.99,1791.84,1793.15,1794.63,1796.56,1799.79,1803.24,1804.64,1806.27,1809.07,1812.01,1816.06,1820.6,1824.78,1827.48,1829.26,1831.71,1834.17,1836.01,1836.4,1836.88,1836.21,1836.51,1836.31,1837.21,1837.79,1837.51,1834.47,1832.61,1829.3,1827.07,1826.03,1825.49,1823.32,1824.85,1825.18,1826.5,1829.04,1830.08,1830.61,1831.13,1831.62,1832.11,1831.6,1831.86,1832.48,1831.09,1831.33,1832.02,1831.77,1832.23,1833.02,1834.02,1834.44,1834,1834.03,1833.29,1832.74,1831.59,1830.43,1829.23,1827.26,1826.69,1827.33,1827.85,1829.28,1831.06,1833.25,1835.04,1836.39,1839.09,1840.31,1840.28,1840.33,1840.56,1840.12,1839.88,1839.78,1839.65,1839.2,1838.42,1837.77,1837.72,1837.23,1836.61,1836.34,1836.02,1835.68,1835.46,1835.85,1836.1,1836.32,1837.02,1838.22,1839,1840.16,1841.52,1842.79,1843.81,1844.76,1845.71,1846.31,1846.8,1847.19,1847.22,1847.45,1848.42,1849.88,1849.74,1849.45,1849.18,1849.02,1848.69,1847.29,1846.44,1845.35,1843.39,1842.79,1842.55,1841.91,1841.15,1838.4,1836.47,1833.93,1831.88,1829.1,1826.78,1825.4,1824.41,1823.4,1824.06,1824.98,1826.78,1827.8,1830.02,1832.25,1833.82,1835.15,1837.39,1840.4,1843.28,1844.47,1846.12,1847.58,1848.79,1849.11,1849.93,1848.89,1846.98,1846.04,1845.05,1843.13,1841.73,1840.34,1839.42,1839.11,1839.32,1839.51,1839.51,1839.95,1840.54,1840.82,1841.4,1841.82,1841.64,1843.65,1841.88,1840.09,1838.1,1836.58,1834.9,1832.6,1828.38,1825.54,1823.29,1824.72,1825.98,1827.79,1828.98,1831.71,1835.07,1838.16,1841.38,1842.67,1844.06,1844.84,1844.27,1843.74,1841.96,1839.62,1838.14,1836.6,1836.22,1834.07,1832.4,1831.68,1830.65,1829.73,1828.59,1827.83,1826.92,1825.35,1824.35,1824.03,1823.01,1822.15,1821.88,1822.05,1821.58,1821.98,1822.99,1824.26,1825.02,1826.44,1828.69,1831.2,1833.48,1836.17,1839.61,1842.16,1843.95,1845.93,1846.88,1847.47,1847.15,1846.46,1844.83,1841.48,1839.31,1838.09,1836.78,1835.49,1833.8,1832.37,1831.04,1829.96,1829.15,1828.31,1827.4,1827.08,1827.16,1827.31,1827.99,1828.3,1828.05,1827.45,1827.2,1827.05,1826.47,1826.12,1825.68,1824.75
1796.34,1796.96,1797.65,1798.33,1799.5,1800.69,1801.68,1801.45,1801.3,1800.51,1798.07,1795.05,1791.89,1788.8,1785.71,1782.71,1779.94,1777.65,1775.37,1774.08,1773.69,1773.99,1774.85,1777.18,1780.36,1783.55,1787.57,1792.34,1796.85,1801.88,1805.77,1809.59,1810.98,1811.61,1812.42,1812.37,1811.89,1811.65,1812.14,1812.69,1814.12,1816.27,1818.93,1823.07,1824.94,1826.68,1827.57,1827.12,1826.16,1825.44,1825.03,1823.12,1820.45,1817.94,1815.85,1814.29,1811.83,1810.02,1807.67,1805.29,1802.74,1801.88,1800.72,1798.41,1795.46,1792.04,1789.49,1788.63,1787.4,1786.15,1784.88,1784.45,1784.4,1785.48,1786.76,1787.72,1788,1788.36,1788.65,1790.03,1790.47,1791.28,1791.32,1790.1,1790.27,1789.91,1788.83,1788.68,1790.25,1791.11,1791.55,1793.26,1793.84,1794.44,1794.58,1795.31,1795.02,1792.81,1790.53,1788.66,1785.74,1785.61,1785.36,1786.4,1787.19,1788.4,1790.3,1792.63,1795.73,1799.66,1803.73,1807.75,1810.68,1813.43,1815.47,1816.7,1817.05,1816.51,1815.06,1812.05,1808.44,1805.58,1801.07,1797.76,1795.76,1795.87,1793.27,1791.47,1790.12,1790.31,1790.68,1792.4,1795.28,1798.21,1799.7,1800.75,1800.93,1800.58,1798.48,1796.44,1793.41,1788.77,1783.56,1780.47,1780.17,1780.11,1780.86,1781.7,1783.32,1785.29,1788.62,1792.15,1792.93,1793.69,1795.47,1798.4,1802.61,1807.75,1811.49,1813.81,1815.05,1817.81,1820.59,1822.8,1823.94,1824.74,1824.16,1825.36,1825.94,1827.29,1829.36,1829.33,1826.97,1824.84,1821.86,1819.41,1818.1,1817.46,1815.87,1815.9,1816.05,1817.05,1818.85,1819.72,1820.04,1820.68,1821.1,1821.8,1821.48,1821.44,1821.86,1819.8,1820.16,1821.17,1821.1,1821.59,1822.1,1822.77,1823.12,1822.71,1823.08,1821.99,1821.45,1820.47,1819.86,1819.34,1816.72,1816.23,1817.53,1818.48,1820.64,1823.1,1825.73,1827.59,1829.64,1832.68,1834.08,1834.1,1833.77,1834.02,1833.1,1832.37,1831.98,1831.64,1831.07,1830.3,1829.85,1829.61,1828.95,1828.45,1828.43,1828.22,1828.1,1828.15,1828.57,1828.79,1828.99,1829.86,1831.27,1832.22,1833.58,1835.08,1836.58,1838.01,1839.2,1840.05,1840.86,1841.15,1841.15,1841.27,1841.34,1842.1,1842.52,1841.72,1840.99,1840.35,1839.85,1839.32,1837.7,1836.71,1836.05,1834.28,1833.99,1834.17,1833.58,1832.98,1830,1828.25,1825.24,1822.8,1819.89,1816.97,1815.13,1814.09,1812.22,1812.85,1813.38,1815.28,1816.5,1818.75,1821.33,1823.28,1824.94,1827.71,1831.35,1834.97,1836.67,1838.44,1840.21,1841.07,1841.22,1841.52,1840.49,1838.12,1836.55,1835.4,1833.39,1831.92,1830.11,1829.21,1829.05,1829.27,1829.53,1829.56,1830.04,1830.73,1831.02,1831.79,1832.49,1832.45,1833.23,1831.41,1829.39,1827.51,1826.14,1824.75,1822.9,1819.16,1815.57,1813.82,1815.13,1816.18,1817.6,1818.69,1821.41,1824.07,1826.78,1830.68,1832.56,1834.04,1835.74,1836.06,1835.55,1834.27,1832.61,1831.67,1830.5,1830.01,1828.18,1826.77,1826.1,1825.06,1823.85,1822.61,1821.58,1820.69,1819.19,1817.9,1817.3,1816.43,1815.74,1815.4,1815.28,1814.74,1814.98,1815.09,1816.09,1816.15,1817.64,1819.96,1822.62,1825.19,1828.1,1831.73,1834.63,1836.55,1838.39,1839.08,1839.22,1838.81,1837.94,1836.62,1833.42,1830.93,1829.56,1828.3,1826.8,1825.15,1823.45,1822.04,1821.18,1820.83,1820.14,1819.42,1819.57,1819.73,1819.74,1820.05,1820.18,1820.06,1819.65,1819.59,1819.64,1819.26,1818.75,1818.39,1817.2
1786.9,1787.77,1788.37,1788.82,1790.22,1791.35,1791.94,1791.37,1790.96,1790.24,1788.01,1784.82,1782.26,1779.25,1776.83,1774.57,1772.63,1771.12,1769.2,1768.11,1767.53,1767.51,1768.06,1770.15,1772.57,1775.35,1779.25,1783.95,1789.1,1794.52,1798.71,1802.45,1804.18,1804.82,1805.58,1805.21,1804.7,1804.28,1804.19,1804.37,1805.77,1807.52,1810.21,1814.76,1816.8,1818.84,1819.67,1819.21,1818.66,1818.4,1818.15,1816.58,1814.02,1811.19,1808.67,1806.86,1803.77,1801.68,1798.54,1795.31,1792.22,1791.08,1790.32,1788.35,1785.35,1782.6,1780.85,1779.57,1778.74,1778.44,1777.63,1777.33,1776.81,1777.9,1778.85,1779.39,1779.33,1779.3,1779.06,1779.32,1779.75,1780.28,1779.87,1779.14,1779.23,1778.98,1778.28,1778.2,1779.27,1779.51,1779.77,1781.05,1781.64,1781.79,1781.71,1781.96,1781.71,1779.72,1778.01,1777,1775.07,1775.4,1776.04,1776.92,1778,1779.64,1781.76,1784.4,1787.94,1792.26,1796.56,1800.37,1803.17,1805.81,1807.73,1808.95,1809.21,1808.54,1806.77,1803.04,1799.08,1796.34,1792.07,1789.03,1787.34,1786.04,1783.69,1782.26,1781.58,1782.01,1782.88,1785.89,1789.94,1792.7,1793.84,1794.49,1794.22,1793.25,1790.88,1788.14,1784.25,1779.18,1774.31,1771.36,1771.36,1771.91,1772.89,1773.43,1774.29,1775.59,1777.99,1780.92,1781.45,1781.12,1782.14,1783.76,1787.38,1792.31,1795.7,1798.85,1800.57,1803.88,1806.99,1809.42,1811.52,1813.42,1813.71,1815.17,1815.75,1817.73,1819.9,1819.79,1818.06,1816.04,1812.95,1810.35,1809.17,1808.49,1807.01,1807.9,1807.77,1808.18,1809.79,1810.31,1810.27,1810.65,1810.86,1811.03,1810.45,1809.88,1810.15,1808.81,1809.17,1810.41,1809.52,1809.31,1809.31,1810.59,1811.76,1811.68,1812.46,1811.31,1810.48,1809.75,1809.16,1808.64,1806.86,1806.59,1808.27,1809.39,1811.45,1813.81,1816.7,1819.1,1821.4,1823.86,1825.8,1826.82,1827.12,1827.57,1827.12,1826.18,1825.67,1824.84,1824.39,1823.56,1823.21,1823.25,1822.44,1821.87,1822.2,1821.93,1821.81,1821.83,1821.87,1821.87,1822.21,1823.4,1824.79,1825.54,1826.71,1828.27,1830.07,1831.97,1833.59,1834.54,1835.11,1835.44,1835.38,1835.33,1835.04,1835.12,1834.49,1832.98,1831.7,1830.62,1829.74,1829.25,1827.35,1826.55,1825.88,1824.58,1824.8,1825.41,1824.97,1824.51,1821.7,1819.87,1816.59,1813.55,1810.59,1807.6,1805.29,1803.6,1801.19,1801.63,1801.75,1803.71,1805.04,1807.05,1809.83,1812.03,1813.96,1817.5,1821.48,1825.32,1827.59,1829.58,1831.15,1831.89,1832.03,1831.99,1830.71,1828.55,1827.01,1825.37,1823.61,1822.18,1820.5,1819.56,1819.54,1820.07,1820.44,1820.63,1821.15,1821.64,1821.99,1822.61,1823.02,1822.67,1822.08,1820.1,1817.83,1815.89,1814.92,1813.58,1811.75,1808.73,1805.01,1803.22,1804.42,1805.93,1807.43,1808.81,1810.83,1813.15,1817.55,1822.22,1824.4,1825.69,1826.58,1826.72,1826.43,1825.56,1824.45,1823.64,1822.67,1822.8,1821.15,1819.97,1819.13,1818.36,1817.19,1815.83,1814.65,1813.66,1812.24,1811.05,1810.16,1809.1,1808.28,1807.82,1807.38,1806.33,1806.32,1806.49,1807.61,1809.17,1811.22,1813.68,1816.15,1818.76,1821.65,1824.75,1827.36,1829.11,1830.42,1830.05,1829.69,1829.36,1828.83,1827.84,1825.19,1822.69,1821.14,1819.92,1818.55,1817.01,1815.35,1813.75,1813.1,1812.72,1811.96,1810.96,1810.46,1810.29,1810.14,1810.3,1810.5,1810.47,1810.09,1810.16,1810.49,1810.25,1810.06,1809.81,1809.5
1778.01,1778.36,1778.58,1778.74,1779.82,1780.73,1780.93,1780.09,1779.34,1778.82,1777.34,1775.28,1773.43,1770.88,1768.77,1766.99,1765.78,1764.73,1763.02,1761.7,1760.82,1760.62,1761.16,1763.14,1765.21,1767.66,1771.07,1775.79,1780.94,1786.32,1790.7,1794.11,1795.78,1796.73,1797.43,1797.06,1796.07,1795.07,1794.45,1794.66,1796.08,1798.06,1800.91,1806.04,1808.71,1810.87,1811.94,1811.64,1811.35,1811.23,1811.52,1809.96,1807.27,1803.84,1800.86,1798.65,1795.38,1793.09,1790.12,1786.16,1782.98,1781.69,1780.94,1779.52,1777.09,1775.33,1773.88,1772.91,1772.84,1773.31,1772.59,1772.33,1771.64,1772.34,1772.85,1773.2,1773.09,1772.9,1772.18,1771.57,1771.78,1772.01,1771.32,1770.56,1770.43,1770,1769.22,1768.92,1769.07,1768.85,1768.21,1769.59,1770.23,1769.88,1769.86,1769.85,1769.73,1768.1,1767.13,1766.56,1765.43,1766.21,1767.39,1768.85,1770.41,1772.17,1774.77,1777.64,1781.1,1785.39,1789.74,1793.41,1795.7,1797.76,1798.93,1799.83,1800.01,1799.12,1797.46,1793.8,1790.25,1787.68,1783.52,1780.6,1779,1777.7,1775.84,1774.79,1774.45,1774.98,1776.1,1779.14,1783.07,1785.61,1786.79,1787.16,1786.7,1784.96,1782.31,1779.48,1775.86,1770.76,1766.08,1763.56,1763.47,1764.24,1765.13,1765.76,1766.48,1767.15,1768.66,1771.04,1770.92,1769.99,1769.27,1769.8,1772.08,1776.45,1779.81,1783.57,1786.18,1790.11,1793.65,1796.89,1800.42,1803.6,1804.4,1806.05,1806.9,1807.95,1809.22,1810.51,1809.4,1807.76,1804.67,1801.59,1800.27,1799.61,1798,1796.51,1795.85,1796.28,1796.69,1796.94,1796.6,1796.96,1797.33,1797.39,1796.69,1796.23,1796.57,1796.6,1797.02,1797.78,1797.43,1797.18,1797,1798.43,1799.16,1798.96,1799.06,1798.28,1797.43,1796.55,1796.18,1795.86,1795.02,1795.15,1796.76,1798.24,1800.48,1803.17,1806.2,1808.88,1811.99,1814.55,1816.29,1817.06,1817.54,1818.31,1818.09,1817.52,1817.07,1816.42,1815.87,1815.43,1815.08,1814.87,1814.12,1813.68,1814.06,1813.99,1813.99,1813.93,1813.75,1813.56,1814.14,1815.48,1817.3,1818.54,1819.66,1821.75,1823.69,1826.06,1828.24,1829.26,1829.81,1829.95,1829.64,1829.2,1828.38,1827.19,1825.42,1823.28,1821.77,1820.49,1819.39,1818.85,1817.41,1816.64,1816.25,1815.73,1816.27,1816.45,1815.66,1814.67,1812.11,1809.52,1806.07,1802.66,1799.33,1795.93,1793.38,1791.37,1789.05,1789.04,1789.14,1791.12,1792.56,1794.3,1797.37,1800.18,1802.64,1806.65,1810.3,1813.78,1815.99,1817.99,1819.55,1820.1,1820.07,1819.81,1818.58,1816.86,1815.22,1813.58,1812.09,1810.83,1809.43,1808.43,1808.19,1808.35,1808.45,1808.6,1808.97,1809.23,1809.56,1810.2,1810.49,1810.13,1811.48,1809.52,1806.85,1805.06,1804.14,1802.85,1800.35,1797.18,1794.1,1792.01,1793.71,1795.69,1797.3,1798.55,1801.08,1804.7,1808.5,1811.62,1813.98,1815.3,1816.33,1817.05,1816.92,1816.52,1815.8,1815.67,1815.39,1815.64,1814.22,1813.26,1812.64,1811.97,1810.85,1809.42,1808.29,1807.42,1806.55,1805.82,1804.94,1803.9,1802.81,1802.15,1801.62,1800.7,1800.55,1800.46,1802.18,1804.07,1805.86,1808.39,1810.42,1812.07,1814.68,1817.24,1819.42,1821.34,1822.61,1822.47,1820.39,1819.78,1819.42,1818.64,1817.14,1815.09,1813.51,1812.22,1810.57,1809.14,1807.38,1805.51,1804.38,1803.77,1803,1802.18,1802.13,1802.47,1802.33,1802.68,1802.87,1802.55,1802.34,1802.52,1802.67,1802.29,1801.74,1801.54,1800.97
1769.34,1769.26,1769.14,1769.09,1769.88,1770.61,1770.47,1769.25,1768.4,1767.81,1766.6,1765.11,1763.85,1761.78,1759.93,1758.56,1757.73,1757,1755.72,1755.01,1754.27,1753.86,1754.43,1756.75,1758.78,1760.8,1764.23,1768.86,1773.73,1778.31,1782.14,1785.13,1786.76,1787.81,1788.07,1787.52,1786.12,1784.74,1784.34,1784.49,1786.11,1788.17,1791.04,1795.73,1798.68,1801.11,1802.53,1802.27,1802.21,1802.06,1802.33,1800.97,1798.32,1794.66,1791.63,1789.32,1786.06,1783.94,1781.09,1777.83,1774.91,1773.64,1773.14,1771.82,1770.22,1769.27,1768.57,1768.03,1768.61,1769.01,1768.51,1768.31,1767.64,1768.08,1768.14,1768.15,1768.13,1767.6,1766.46,1765.05,1764.43,1764.52,1763.34,1762.43,1761.8,1760.97,1760.14,1759.68,1759.91,1759.46,1758.14,1758.8,1759.35,1758.79,1758.71,1758.42,1758.53,1757.45,1756.74,1756.73,1756.29,1757.44,1759.1,1760.94,1762.75,1764.99,1768.01,1771.06,1774.56,1778.48,1782.35,1785.61,1787.57,1789.23,1789.69,1790.2,1790.13,1789.08,1787.18,1783.76,1780.85,1778.48,1775.04,1772.72,1771.68,1770.7,1769.4,1768.67,1768.64,1769.39,1770.69,1773.68,1777.23,1779.1,1779.48,1779.14,1778.55,1776.79,1773.92,1771.32,1768.06,1762.93,1758.33,1756.2,1755.94,1756.19,1756.86,1757.46,1757.91,1757.97,1758.84,1760.9,1759.83,1758.44,1756.43,1756.16,1757.97,1762.66,1766.73,1770.83,1773.81,1778.14,1782.31,1786.51,1791.42,1795.54,1796.51,1797.59,1797.53,1798.56,1800.7,1801.16,1799.2,1796.77,1793.82,1790.8,1789.18,1787.86,1786.15,1784.55,1783.59,1783.98,1784.55,1785.05,1784.95,1785.34,1785.73,1786,1785.02,1784.2,1784.46,1783.94,1784.05,1785.21,1784.46,1784.36,1784.27,1785.37,1785.98,1785.41,1785.68,1784.81,1784.18,1783.99,1784,1783.75,1783.35,1784.07,1786.66,1789.29,1792.47,1795.16,1797.73,1800.46,1804.19,1806.91,1808.83,1809.62,1809.95,1810.59,1810.44,1809.63,1808.98,1807.93,1807.6,1807.57,1807.64,1807.84,1807.41,1807.22,1808.09,1808.58,1808.89,1808.82,1808.53,1807.91,1807.91,1808.82,1809.88,1810.67,1811.82,1813.88,1816.29,1818.7,1820.5,1821.71,1822.01,1822.15,1821.66,1821.56,1820.06,1817.73,1815.24,1813.25,1811.53,1810.07,1808.75,1808.06,1806.82,1805.92,1805.76,1805.15,1805.03,1804.72,1803.71,1802.71,1800.18,1797.52,1794.41,1791.4,1788.5,1784.93,1782.02,1780.22,1777.61,1777.18,1777.33,1778.88,1780.41,1782.16,1785.86,1789.25,1791.8,1795.58,1799.33,1802.67,1804.95,1806.97,1808.7,1808.59,1808.27,1808.37,1807.03,1804.89,1803.4,1801.98,1800.59,1799.54,1798.52,1797.54,1797.42,1797.61,1797.93,1798.39,1799.07,1799.48,1799.91,1800.69,1800.92,1800.41,1799.8,1798.2,1796.06,1794.66,1793.82,1792.76,1790.79,1786.99,1783.91,1782.64,1784.29,1786.27,1788.14,1789.74,1792.11,1794.86,1798.74,1803.79,1806.15,1807.36,1808.74,1809.31,1809.13,1808.81,1808.13,1807.94,1807.6,1807.29,1806.06,1805.37,1804.77,1804.41,1803.55,1802.57,1801.61,1800.78,1800.21,1799.84,1799.18,1798.21,1797.14,1796.44,1795.54,1794.37,1794.1,1793.96,1795.11,1796.43,1798.93,1802.04,1804.56,1806.65,1808.98,1810.72,1812.22,1813.39,1814.44,1814.08,1811.64,1810.89,1810.76,1810.12,1808.97,1807.43,1805.88,1804.13,1802.29,1800.78,1798.69,1796.79,1795.77,1795.24,1795.33,1795.06,1795.33,1795.67,1795.42,1795.7,1795.91,1795.72,1795.65,1795.68,1795.65,1795.29,1794.87,1794.76,1794.18
1760.55,1760.13,1759.81,1759.44,1760.16,1760.51,1759.78,1758.37,1757.79,1757.49,1756.45,1755.15,1754.35,1752.61,1751.19,1749.68,1749.37,1748.94,1748.2,1747.76,1747.21,1746.94,1747.58,1749.83,1752.04,1753.95,1757.07,1761.14,1765.46,1769.5,1772.79,1775.08,1776.21,1777.05,1777.09,1776.36,1774.95,1773.86,1773.77,1773.98,1775.45,1777.32,1779.64,1783.73,1786.74,1789.32,1790.67,1790.28,1790.32,1790.21,1790.97,1790.03,1787.75,1784.53,1781.78,1779.69,1777.15,1775.23,1773.14,1770.16,1767.44,1766.36,1765.83,1764.76,1763.92,1764.44,1764.31,1763.76,1764.39,1764.71,1764.25,1764.16,1763.66,1763.8,1763.5,1763.44,1763.37,1762.53,1761.05,1759.13,1757.68,1757.36,1755.38,1754.21,1753.38,1752.18,1751.08,1750.38,1750.46,1749.88,1749.14,1749.82,1750.09,1749.54,1749.38,1747.45,1747.45,1746.49,1746.24,1746.77,1747.03,1748.28,1750.68,1753.01,1755.34,1758.38,1761.69,1764.86,1768.21,1771.95,1775,1777.44,1779.05,1780.23,1779.88,1780.1,1779.96,1778.8,1777,1774.48,1772.12,1770.07,1766.98,1765.25,1764.65,1764.8,1764.67,1764.82,1765.02,1766,1767.14,1769.19,1772,1773.15,1772.61,1770.97,1770.09,1767.98,1765.16,1763.02,1759.9,1755.21,1750.39,1748.46,1748.33,1748.46,1748.6,1749.16,1749.16,1748.9,1749.22,1751.34,1749.67,1747.57,1744.92,1744.01,1745.02,1750.67,1755.75,1760.29,1763.86,1768.81,1773.59,1778.28,1784.44,1789.13,1790.02,1790.83,1791.03,1791.57,1792.28,1791.8,1789.98,1786.85,1783.39,1780.2,1778.31,1776.87,1775.27,1773.89,1772.99,1773.48,1774.04,1774.54,1774.57,1775.07,1775.72,1776.23,1775.78,1775.15,1775.46,1775.15,1775.03,1775.72,1774.87,1774.54,1773.68,1774.36,1774.51,1773.94,1773.88,1773.09,1772.83,1773.27,1773.8,1773.99,1774.44,1776.06,1779.21,1782.21,1785.32,1787.87,1790.49,1792.94,1795.64,1797.94,1799.73,1800.68,1801.1,1801.82,1801.92,1801.33,1800.83,1800.02,1799.93,1800.17,1800.45,1800.9,1801.02,1801.15,1802.51,1803.28,1803.38,1803.05,1802.53,1801.6,1800.94,1801.23,1801.47,1801.68,1802.22,1804.37,1806.54,1808.49,1809.73,1811.24,1811.66,1811.71,1811.3,1811.08,1809.01,1806.29,1803.48,1801.39,1799.52,1797.8,1796.47,1795.92,1795.27,1794.7,1794.97,1794.38,1794.51,1794.77,1793.78,1792.44,1790.14,1786.88,1784.36,1781.26,1778.7,1775.43,1772.74,1771.03,1768.57,1767.41,1766.99,1768.34,1769.57,1771.25,1774.61,1777.73,1780.14,1783.93,1787.82,1791.44,1793.8,1795.85,1798.17,1797.78,1797.86,1798.07,1797.26,1795.49,1793.87,1792.59,1791.44,1790.39,1789.5,1788.25,1788.12,1788.1,1788.31,1788.66,1789.13,1789.32,1789.59,1790.14,1790.31,1789.73,1788.71,1787.4,1785.62,1784.16,1783.41,1782.43,1780.71,1777.87,1775.03,1773.78,1775.17,1777.12,1778.8,1780.62,1783.01,1786.74,1792.04,1795.5,1797.63,1798.85,1799.62,1799.95,1799.72,1799.31,1798.77,1798.3,1797.98,1797.65,1796.78,1796.34,1795.91,1795.98,1795.6,1795.13,1794.76,1794.34,1794.01,1793.91,1793.47,1792.69,1791.62,1790.81,1790.21,1788.84,1788.44,1788.68,1789.51,1789.54,1791.62,1794.42,1797,1799.12,1801.31,1803,1804.25,1805.11,1806.02,1805.48,1802.49,1801.58,1801.85,1801.58,1800.44,1798.92,1797.34,1795.29,1793.2,1791.63,1789.73,1787.71,1786.68,1786.46,1786.58,1786.38,1786.63,1787.09,1787.19,1787.62,1787.92,1787.79,1787.82,1787.72,1787.47,1787.17,1786.88,1786.69,1786.33
1751.24,1750.63,1750.29,1749.61,1750.11,1750.06,1749,1747.36,1746.89,1747.08,1746.14,1745.39,1744.71,1743.27,1742.3,1741.72,1742.18,1742.12,1741.79,1741.62,1741.19,1741.12,1741.76,1743.61,1745.14,1746.32,1748.9,1752.58,1756.51,1760.3,1763.01,1764.55,1765.34,1766.34,1765.99,1764.82,1763.86,1762.87,1763.02,1763.22,1764.8,1766.16,1768.09,1771.83,1774.57,1776.57,1777.76,1776.97,1777.29,1777.46,1778.43,1778.03,1776.55,1774.25,1772.07,1770.24,1768.21,1766.82,1765.41,1763.16,1761.01,1759.99,1759.41,1758.55,1758.76,1760.46,1760.66,1759.94,1760.3,1760.6,1760.42,1760.66,1760.29,1760.11,1759.53,1759.43,1759.13,1757.75,1755.88,1753.34,1750.97,1749.76,1747.42,1746.04,1744.98,1743.68,1742.99,1742.22,1742.09,1741.39,1740.4,1740.88,1740.92,1739.86,1739.63,1737.99,1738.08,1737.74,1738.03,1738.93,1739.53,1740.78,1743.12,1745.32,1748.31,1751.72,1755.54,1758.62,1761.72,1765.14,1767.65,1769.44,1770.8,1771.64,1770.72,1770.55,1770.17,1768.87,1767.21,1765.5,1763.65,1761.77,1759.45,1758.39,1758.53,1759.65,1760.85,1761.15,1761.84,1762.51,1763.19,1764.61,1767.37,1767.71,1766.41,1763.82,1762.62,1760.02,1757.76,1755.94,1752.92,1747.88,1743.72,1742.28,1742.26,1742.21,1741.9,1741.93,1741.61,1740.79,1741.08,1742.59,1741.21,1739.44,1736.46,1735.56,1736.25,1740.74,1745.16,1750.13,1754.42,1759.94,1764.62,1769.83,1776.09,1781.06,1782.84,1785.13,1784.85,1784.54,1784.16,1783.67,1781.83,1778.46,1774.83,1771.32,1768.45,1766.98,1764.86,1763.43,1762.5,1763.24,1763.78,1764.42,1764.49,1765.31,1766.33,1767.16,1767.06,1766.86,1767.18,1766.95,1766.93,1767.23,1766.48,1765.57,1764,1764.16,1763.96,1763.07,1762.58,1761.9,1762.13,1762.96,1763.82,1765.04,1766.4,1768.67,1772.04,1775.44,1778.58,1780.97,1782.95,1785.22,1788.22,1790.5,1791.98,1792.36,1792.38,1793.09,1793.41,1792.93,1792.64,1792.12,1792.33,1792.82,1793.61,1794.49,1794.78,1795.15,1797.05,1798.07,1798,1797.02,1795.52,1793.54,1792.01,1791.67,1791.21,1790.57,1790.44,1792.2,1794.03,1795.71,1797,1798.79,1799.52,1799.68,1799.18,1798.73,1796.49,1793.4,1790.42,1788.64,1786.64,1785.15,1784.04,1783.93,1783.98,1783.15,1784.13,1784.16,1784.63,1784.46,1782.91,1781.27,1778.92,1776.09,1774.36,1771.46,1769.26,1766.53,1763.97,1762.44,1760.34,1759.05,1758.17,1759.07,1760.57,1761.98,1765.33,1768.12,1770.5,1773.87,1777.2,1780.57,1782.75,1784.62,1787.09,1786.59,1787.26,1787.2,1786.87,1785.31,1783.53,1782.49,1781.54,1780.51,1779.49,1778.52,1778.45,1778.46,1778.68,1779.01,1779.53,1779.89,1780.35,1781.46,1781.39,1780.75,1779.81,1778.48,1777.09,1776.08,1775.31,1774.54,1772.88,1770.87,1769.01,1767.64,1769.17,1771,1772.37,1774.33,1776.72,1780.14,1783.71,1786.98,1788.99,1789.78,1790.42,1790.74,1790.4,1790,1789.15,1788.58,1788.32,1788.1,1787.15,1786.58,1786.14,1786.21,1785.89,1785.79,1786.18,1785.97,1785.92,1786.18,1786.01,1785.49,1784.72,1784.28,1783.63,1782.36,1782.15,1782.61,1783.88,1784.23,1786.13,1788.64,1790.4,1792.41,1794.32,1795.95,1797.06,1797.72,1798.32,1797.91,1794.7,1793.83,1794.36,1794.19,1792.79,1790.71,1788.76,1786.31,1784.08,1782.3,1780.33,1778.24,1777.21,1776.92,1776.92,1776.71,1777.07,1777.72,1777.97,1778.57,1778.82,1778.77,1778.95,1779.16,1778.89,1778.53,1778.14,1777.9,1777.47
1742.31,1741.87,1741.54,1740.76,1741,1740.71,1739.79,1738.52,1738.02,1738.09,1737.73,1737.19,1736.75,1735.79,1735.15,1734.75,1735.34,1735.5,1735.19,1735.28,1735.08,1734.85,1735.87,1737.36,1738.7,1739.21,1741.27,1743.93,1747.12,1750.59,1752.9,1753.64,1754.11,1754.98,1753.95,1752.88,1752.19,1751.42,1751.67,1752.23,1753.6,1754.69,1756.31,1759.95,1762.31,1763.87,1764.69,1763.83,1764.09,1764.72,1766.01,1765.95,1765.2,1763.93,1762.51,1761.79,1760.77,1760.02,1759.09,1757.1,1755.67,1754.87,1754.27,1753.57,1754.6,1756.29,1756.35,1755.7,1756.07,1756.34,1756.37,1756.93,1756.68,1756.19,1755.16,1755.11,1754.5,1752.66,1750.4,1747.72,1744.77,1743.09,1741.2,1739.79,1738.43,1736.9,1736.28,1735.47,1735.09,1734.13,1732.98,1733.29,1732.94,1731.83,1731.69,1730.41,1730.9,1730.75,1731.5,1732.73,1733.44,1734.57,1737.05,1739.06,1741.69,1744.87,1748.33,1751.11,1753.69,1756.94,1759.28,1760.6,1761.55,1761.85,1760.79,1760.29,1759.6,1757.97,1756.2,1754.78,1753.67,1752.06,1750.24,1750.19,1751.07,1753.07,1755.31,1756.41,1757.58,1758.38,1759.04,1760.13,1762.19,1762.16,1760.07,1756.62,1755.29,1752.28,1750.08,1748.61,1746.01,1741.8,1737.84,1737.14,1737.5,1737.56,1737.04,1736.57,1735.4,1734.21,1734.41,1735.47,1734.41,1732.75,1728.63,1727.71,1728.52,1732.76,1737.57,1742.6,1747.15,1752.73,1757.8,1763.24,1769.61,1774.68,1777.16,1778.78,1778.38,1777.61,1777,1776.8,1774.64,1770.7,1766.7,1762.74,1758.42,1756.46,1753.77,1752.23,1750.82,1751.79,1752.86,1753.68,1753.98,1754.96,1756.23,1757.24,1756.95,1757.08,1757.52,1757.26,1757.15,1756.98,1756.13,1755.01,1753.35,1754.04,1753.9,1753.02,1752.51,1751.95,1752.76,1754.13,1755.88,1757.47,1759.36,1761.5,1764.92,1768.47,1771.75,1774.19,1775.58,1777.05,1779.92,1781.51,1782.49,1782.88,1783.31,1784.36,1785.02,1784.75,1785.41,1785,1785.41,1786.44,1787.37,1788.36,1788.81,1789.31,1791.12,1791.97,1791.78,1790.47,1787.95,1785.04,1782.44,1781.04,1779.84,1778.56,1779.85,1780.66,1782.08,1784.03,1785.59,1787.79,1789.3,1789.59,1788.7,1786.03,1783.6,1780.15,1777.17,1775.51,1773.81,1772.22,1770.95,1770.98,1771.36,1771.33,1772.59,1773.17,1773.69,1773.39,1772.11,1770.81,1768.89,1766.57,1765.15,1762.59,1760.73,1759.14,1757.21,1755.75,1754.13,1752.78,1751.68,1752.26,1753.65,1754.27,1756.37,1758.82,1760.68,1763.76,1766.81,1769.9,1771.84,1773.52,1775.52,1774.65,1775.59,1775.85,1775.68,1774.57,1773.11,1772.21,1771.43,1770.67,1770.02,1769.29,1769.41,1769.54,1769.86,1770.82,1772.07,1773.08,1773.83,1775.17,1774.91,1774.22,1773.41,1772.52,1771.26,1770.44,1769.16,1768.16,1765.95,1764.14,1762.44,1762.31,1763.2,1764.27,1765.39,1767.53,1769.64,1772.55,1775.66,1778.52,1780.16,1780.8,1781.48,1781.77,1781.16,1780.58,1779.58,1778.67,1778.4,1778.15,1777.28,1776.74,1776.43,1776.32,1775.76,1776.12,1777.3,1777.25,1777.06,1777.54,1777.84,1777.34,1777.23,1777.58,1777.15,1775.82,1775.79,1776.56,1778.06,1779.24,1781.45,1783.32,1783.46,1784.15,1785.73,1786.98,1787.75,1788.31,1788.58,1788,1785.19,1785.23,1786.46,1786.22,1784.64,1782.37,1780.26,1777.72,1775.4,1773.63,1771.59,1769.6,1768.55,1768.31,1768.22,1767.97,1768.37,1769.21,1769.41,1770.04,1770.45,1770.52,1770.88,1771.18,1770.87,1770.35,1769.73,1769.42,1768.94
1734.27,1733.76,1733.46,1732.93,1733.19,1733.05,1732.34,1731.32,1730.82,1730.98,1730.7,1730.3,1730.06,1729.27,1728.85,1728.89,1729.57,1729.85,1729.79,1729.88,1729.64,1729.58,1730.53,1731.59,1732.67,1733.21,1735.16,1737.3,1739.39,1741.99,1743.6,1743.66,1743.98,1744.62,1743.89,1743.07,1742.58,1742.03,1742.31,1743.14,1744.07,1744.73,1745.65,1748.63,1750.11,1751.23,1751.5,1750.5,1750.51,1751.49,1753.36,1753.36,1753.16,1753.1,1752.55,1752.29,1752.28,1752.18,1751.41,1749.52,1749.07,1748.7,1748.68,1748.05,1748.88,1750.55,1750.62,1750.22,1751.24,1751.65,1751.4,1751.71,1751.71,1750.84,1749.31,1748.94,1747.85,1745.55,1742.74,1740.58,1738.68,1737.44,1735.7,1733.99,1732.02,1730.13,1729.78,1729.2,1728.65,1727.93,1726.54,1726.42,1726.13,1724.86,1724.77,1723.16,1723.46,1723.61,1724.58,1726.22,1727,1728.17,1730.67,1732.86,1734.91,1737.54,1740.45,1742.68,1744.87,1747.75,1749.93,1751.08,1751.88,1751.82,1750.49,1750.46,1750.1,1748.84,1747.73,1746.19,1744.86,1743.9,1743.52,1743.83,1744.68,1746.43,1749.28,1750.99,1752.73,1753.71,1754.48,1755.42,1756.64,1756.14,1753.06,1749.18,1747.86,1745.22,1743.58,1742.57,1740.4,1736.49,1732.95,1732.92,1733.42,1733.3,1732.45,1731.15,1728.94,1727.81,1728.34,1728.93,1727.5,1725.81,1721.54,1720.5,1721.31,1725.7,1730.84,1735.71,1740.09,1745.03,1750.16,1755.63,1761.85,1766.81,1769.34,1770.88,1770.3,1769.07,1767.86,1766.96,1764.73,1760.86,1757.22,1751.97,1746.92,1744.56,1742.39,1740.71,1739.54,1740.09,1741.43,1742.02,1742.18,1742.82,1744.17,1745.15,1745.03,1745.16,1745.68,1745.03,1745.4,1745.22,1744.45,1743.65,1742.63,1743.47,1743.97,1743.49,1743.13,1742.96,1743.75,1745.28,1746.85,1748.78,1751.17,1753.97,1757.43,1760.93,1763.99,1766.54,1768.05,1769.16,1771.7,1772.79,1773.36,1773.52,1774.03,1774.93,1775.88,1775.76,1776.77,1776.65,1777.26,1778.43,1779.49,1780.78,1781.89,1782.74,1784.85,1785.71,1785.12,1783.17,1780.38,1777.04,1773.65,1771.42,1769.64,1767.71,1768.04,1768.47,1769.71,1771.52,1772.95,1774.9,1776.22,1776.54,1775.55,1772.66,1770.33,1766.65,1763.51,1762.19,1760.97,1759.8,1758.27,1758.6,1759.09,1759.29,1760.86,1762.26,1762.93,1762.55,1761.35,1760.79,1759.41,1757.67,1756.51,1754.34,1753,1751.64,1749.79,1748.59,1747.03,1745.74,1744.75,1745.01,1745.59,1745.8,1747.45,1750.15,1751.75,1754.22,1756.9,1759.81,1761.82,1763.38,1764.87,1764.07,1764.08,1764.73,1764.88,1764.09,1762.74,1764.75,1764.33,1763.84,1763.53,1760.27,1760.53,1760.81,1761.63,1762.89,1764.05,1765.42,1766.42,1767.29,1767.36,1767,1766.3,1765.91,1765.12,1764.66,1763.47,1762.27,1760.04,1758.25,1756.96,1756.83,1757.19,1757.88,1758.77,1760.68,1762.66,1765.71,1768.79,1771.1,1772.58,1773.41,1774.11,1774.09,1773.1,1772.19,1770.9,1769.59,1769.15,1768.79,1767.52,1766.73,1766.33,1766,1765.41,1765.64,1766.95,1767.02,1766.8,1767.67,1768.43,1768.32,1768.54,1769.46,1769.69,1768.83,1769.28,1770.71,1772.92,1774.45,1776.7,1778.24,1777.41,1776.46,1777.08,1777.36,1777.4,1776.98,1776.71,1776.13,1774.29,1774.9,1776.43,1776.31,1775.23,1773.61,1771.86,1769.62,1767.18,1765.31,1763.11,1761.09,1759.96,1759.58,1759.5,1759.29,1759.76,1760.53,1761,1761.68,1762.22,1762.49,1763.35,1763.66,1763.06,1762.5,1761.81,1761.47,1760.92
1726.74,1726.41,1726.28,1725.91,1726.5,1726.45,1725.42,1723.92,1723.52,1723.84,1723.9,1723.53,1723.43,1722.74,1722.34,1722.32,1723.47,1724.04,1723.85,1724.05,1723.83,1723.61,1725.01,1726.3,1727.3,1727.31,1728.45,1730.45,1732.51,1734.34,1735.46,1735.11,1735.33,1735.77,1735.33,1734.88,1734.38,1733.72,1733.76,1734.58,1735.15,1735.58,1736.03,1737.56,1738.25,1738.56,1738.6,1737.55,1737.48,1738.23,1739.79,1740.21,1740.77,1741.6,1742.31,1742.92,1744.06,1744.28,1744.1,1742.28,1742.09,1742.18,1742.35,1741.59,1741.81,1742.83,1743.28,1743.51,1744.75,1745.31,1744.71,1744.45,1744.06,1743.31,1741.53,1740.83,1739.75,1738.17,1736.06,1734.36,1731.69,1730.86,1728.67,1726.74,1725.07,1723.88,1723.72,1723.37,1722.66,1722.39,1721.05,1720.24,1719.92,1719.18,1719.44,1718.14,1718.39,1718.32,1719.11,1720.76,1722.26,1723.38,1725.24,1727.04,1729.12,1731.73,1733.86,1735.32,1737.33,1739.2,1740.57,1741.47,1741.91,1741.56,1740.02,1740.94,1741.17,1739.63,1738.91,1738.16,1737.63,1737.24,1737.28,1738.44,1739.66,1741.32,1743.65,1745.54,1747.72,1748.55,1748.78,1750.44,1751.15,1749.85,1745.42,1742.7,1741.69,1739.86,1738.28,1737.76,1735.8,1731.7,1728.78,1729.02,1729.17,1728.47,1727.01,1725.42,1723.43,1722.34,1722.14,1722.37,1720.68,1719.04,1715.56,1714.95,1715.48,1719.38,1725.24,1730.65,1735.72,1740.24,1744.87,1749.63,1755.18,1759.96,1762.06,1763.37,1762.14,1760.15,1758.5,1756.79,1754.34,1750.42,1745.53,1741.18,1737.69,1735.88,1734.17,1732.42,1731.13,1731.89,1733.2,1735.23,1735.16,1735.68,1736.9,1737.46,1737.49,1737.33,1737.49,1737.4,1737.16,1736.25,1735.85,1735.05,1734.5,1734.99,1735.86,1735.55,1735.31,1735.53,1736.16,1737.36,1738.73,1739.69,1741.88,1744.53,1748.12,1751.7,1754.5,1757.23,1758.95,1760.11,1762.91,1763.81,1764.08,1764.09,1764.64,1765.75,1766.75,1766.76,1767.98,1768.1,1768.78,1770.05,1771.14,1772.79,1773.94,1775.1,1777.44,1778.33,1777.15,1774.97,1771.65,1768.05,1764.16,1761.08,1758.68,1756.43,1755.99,1756.11,1757.38,1759.06,1760.18,1762.16,1763.56,1763.52,1762.19,1759.69,1757.4,1753.64,1750.21,1749.12,1747.97,1747.13,1745.98,1746.46,1747.61,1748.09,1749.97,1751.88,1752.51,1752.41,1751.34,1751.01,1750.36,1749.01,1748.04,1746.35,1745.41,1744.91,1743.58,1742.79,1741.59,1740.41,1739.43,1739.38,1739.47,1739.11,1739.87,1742.2,1743,1744.55,1746.5,1748.91,1750.68,1754.11,1755.59,1754.46,1755.05,1755.69,1755.43,1754.65,1756.46,1755.77,1754.57,1754.54,1754.68,1754.22,1751.56,1751.93,1752.76,1754.37,1755.55,1757.04,1758.12,1759.34,1759.5,1759.42,1759.27,1759.12,1758.74,1758.66,1757.67,1756.31,1753.79,1751.66,1750.51,1750.22,1750.26,1750.75,1751.4,1753.49,1755.37,1758.32,1761.61,1763.51,1764.62,1765.65,1766.3,1766,1764.66,1763.55,1761.82,1760.24,1759.57,1758.93,1757.32,1756.25,1755.75,1755.35,1754.48,1754.64,1755.89,1756.22,1756.31,1757.3,1758.43,1758.71,1759.37,1760.8,1761.38,1760.66,1762.24,1764.51,1767.52,1769.72,1771.97,1772.97,1772.03,1770.05,1769.92,1768.66,1767.67,1766.38,1765.46,1764.88,1763.82,1764.43,1766.44,1766.45,1765.8,1764.72,1763.12,1761.14,1758.68,1756.8,1754.31,1752.21,1751.16,1750.62,1750.43,1750.28,1750.75,1751.69,1752.2,1752.99,1753.89,1754.23,1755.06,1755.53,1754.83,1754.18,1753.34,1752.74,1752.11
1720.76,1719.9,1719.36,1718.51,1718.91,1718.84,1718.27,1717.33,1716.79,1716.89,1717.22,1717.31,1717.26,1716.82,1716.54,1716.59,1717.41,1717.89,1717.93,1717.97,1717.89,1717.86,1718.97,1720.04,1720.81,1720.74,1721.69,1723.55,1725.23,1726.79,1727.49,1726.9,1727.2,1727.95,1727.62,1727.18,1726.43,1725.7,1725.38,1726.33,1726.68,1726.61,1726.13,1726.86,1726.59,1726.28,1726.09,1725.26,1724.82,1725.08,1725.45,1726.38,1727.86,1729.86,1731.18,1732.29,1733.91,1734.74,1734.95,1734.63,1734.56,1734.67,1735.12,1734.67,1735.28,1736.56,1737.09,1737.88,1739.03,1739.37,1738.82,1738.26,1737.93,1737.22,1735.76,1734.81,1733.23,1731.1,1728.74,1727.41,1724.6,1723.69,1722.1,1720.68,1718.94,1717.58,1717.44,1717.26,1716.86,1717.21,1716.45,1715.87,1715.82,1715.45,1715.75,1715.12,1715.37,1715.27,1715.51,1716.37,1717.72,1718.77,1720.66,1722.31,1723.61,1725.62,1727.55,1728.75,1730.26,1731.44,1732.43,1732.85,1732.73,1732.12,1730.75,1731.79,1731.74,1730.25,1729.79,1729.6,1730.03,1730.19,1730.75,1732.8,1734.98,1736.84,1738.44,1739.63,1741.15,1742,1742.12,1742.47,1742.64,1741.09,1738.26,1735.55,1735.6,1734.04,1732.67,1732.89,1730.8,1727.3,1725,1725.6,1725.5,1724.64,1722.48,1720.61,1717.89,1716.23,1716.21,1716.51,1715.32,1714.12,1711.63,1711.19,1711.72,1714.81,1720.41,1725.95,1731.72,1736.17,1740.12,1744.17,1748.77,1753.38,1756.03,1756.97,1754.72,1751.87,1749.59,1747.17,1744.3,1739.76,1736.4,1733.44,1729.33,1726.87,1724.73,1723.08,1721.99,1723.18,1725.7,1727.25,1727.24,1727.9,1729.85,1730.92,1730.83,1730.53,1730.51,1729.91,1729.64,1728.45,1727.97,1726.98,1726.03,1727.09,1728.17,1728.03,1727.75,1728.33,1729.6,1730.76,1731.85,1732.76,1734.79,1737.06,1740.41,1743.37,1745.49,1747.66,1749.45,1750.63,1752.82,1753.67,1753.73,1753.88,1754.64,1755.47,1756.78,1756.94,1758.22,1758.27,1759.14,1760.56,1761.75,1763.44,1764.88,1765.78,1767.89,1769.05,1768.01,1765.66,1762.15,1758.18,1753.89,1749.82,1747,1745.02,1744.19,1744.29,1745.22,1746.44,1747.47,1749.36,1751.03,1750.85,1749.31,1746.5,1744.68,1741.39,1738.94,1738.37,1737.72,1737.31,1736.63,1737.13,1738.32,1738.87,1740.6,1742.22,1742.76,1742.8,1742.19,1742.26,1742.14,1741.13,1740.85,1739.8,1739.11,1739.21,1738.28,1737.69,1736.94,1735.79,1734.91,1734.83,1734.74,1734.5,1735.02,1736.66,1736.84,1737.69,1738.71,1740.11,1741.18,1743.38,1744.46,1743.3,1744.05,1744.64,1747.5,1744.47,1746.71,1746.65,1748.5,1748.9,1749.31,1746.32,1743.77,1744.17,1744.98,1746.1,1746.78,1748.34,1749.92,1751.07,1751.46,1751.68,1751.76,1751.85,1751.74,1752.1,1750.78,1749.43,1747.39,1745.6,1744.62,1744.42,1744.05,1744.2,1744.54,1746.43,1747.97,1750.85,1754.16,1755.65,1756.25,1757.38,1757.93,1757.4,1755.9,1754.59,1752.32,1750.38,1749.3,1748.32,1746.32,1744.7,1744.06,1743.52,1742.53,1742.96,1744.41,1744.98,1745.35,1746.96,1747.72,1748.07,1749.04,1751.19,1752.08,1751.6,1754.85,1757.99,1761.13,1763.93,1765.81,1766.27,1764.74,1762.42,1762.02,1760.25,1758.16,1755.78,1754.25,1753.54,1752.92,1753.75,1756.04,1756.11,1755.29,1754.4,1753.06,1751.26,1749.26,1747.37,1745.25,1743.46,1742.59,1742.05,1741.83,1741.75,1742.23,1743.05,1743.61,1744.38,1745.17,1745.47,1746.46,1746.82,1745.99,1745.09,1744.05,1743.4,1742.71
1715.01,1714.34,1714.09,1713.59,1713.79,1713.89,1713.41,1712.35,1712.12,1712.29,1712.56,1712.6,1712.56,1711.86,1711.31,1710.96,1711.79,1712.16,1712.08,1712.31,1712.37,1712.26,1713.03,1713.67,1713.83,1713.62,1713.91,1715.1,1716.06,1717.24,1717.57,1717,1717.5,1718.33,1718.34,1718.14,1717.64,1716.86,1716.42,1717.25,1717.06,1716.23,1715.03,1714.68,1713.78,1712.98,1712.7,1711.57,1711.1,1711.09,1711.33,1712.34,1713.93,1716.42,1718.46,1719.78,1721.57,1722.75,1723.53,1723.8,1724.19,1724.55,1725.07,1724.69,1725.4,1727.49,1728.52,1729.69,1731.37,1732.06,1731.57,1730.96,1730.71,1729.88,1727.75,1726.57,1724.95,1722.67,1720.34,1718.84,1716.29,1715.46,1714.11,1712.44,1711.01,1710.37,1710.22,1710.37,1710.36,1710.88,1710.65,1710.25,1710.53,1710.47,1710.95,1710.71,1711.03,1710.88,1711.23,1711.79,1712.72,1713.23,1714.65,1716.36,1717.69,1719.34,1720.79,1721.5,1722.29,1723.13,1723.74,1723.77,1723.12,1722.22,1721.07,1722.22,1722.33,1720.88,1720.8,1720.96,1721.34,1722.03,1723.1,1725.08,1727.67,1730.48,1733.35,1734.86,1736.24,1736.88,1736.8,1737.04,1736.73,1735.69,1731.32,1729.07,1729.3,1728.38,1727.26,1727.95,1726.51,1723.61,1721.57,1722.47,1722.28,1720.51,1717.7,1715.57,1712.09,1710.81,1711.28,1711.34,1710.63,1709.78,1708.51,1708.8,1709.14,1712.02,1716.94,1722.22,1727.73,1732.04,1735.69,1738.72,1742.5,1745.68,1747.59,1748.13,1746.54,1743.78,1741.09,1738.29,1735.22,1731.77,1728.13,1724.43,1720.55,1718.14,1716.32,1714.7,1713.85,1715.11,1717.51,1719.51,1719.97,1720.88,1723.13,1724.65,1724.55,1723.94,1723.61,1722.18,1722.02,1720.82,1720.11,1719.23,1718.36,1719.65,1721.07,1721.15,1721.04,1721.76,1722.85,1724.26,1725.39,1726.65,1728.7,1731.3,1734.46,1737.2,1738.79,1740.2,1741.22,1741.75,1743.19,1743.52,1743.3,1743.09,1743.53,1744.11,1745.27,1745.78,1746.85,1747.17,1748.08,1749.49,1750.85,1752.58,1754.31,1755.13,1757.25,1758.67,1757.48,1755.37,1751.71,1747.74,1743.43,1739.58,1737.33,1735.43,1734.28,1734.02,1734.55,1735.27,1735.83,1737.42,1738.96,1738.71,1737.46,1735.53,1734.26,1731.75,1729.6,1729.26,1728.91,1728.72,1728.3,1729.16,1730.38,1730.76,1732.96,1734.63,1735.26,1735.42,1735.14,1735.32,1735.53,1735.14,1735.33,1734.6,1734.36,1734.88,1734.11,1734.09,1733.7,1732.55,1731.76,1731.8,1731.75,1731.21,1731.45,1732.5,1732.03,1732.42,1733.14,1733.91,1734.34,1735.58,1735.96,1734.65,1735.41,1736.04,1739.05,1739.22,1739.02,1742.27,1740.9,1741.61,1742.56,1740.06,1740.53,1740.84,1738.69,1739.04,1739.43,1740.76,1742.05,1743.05,1743.46,1743.96,1744.41,1744.95,1745.27,1745.87,1744.76,1743.8,1742.42,1740.68,1740.06,1740.03,1739.54,1739.46,1739.56,1741.1,1742.28,1744.41,1746.83,1747.72,1747.83,1748.63,1749.2,1748.26,1746.69,1745.28,1743.44,1741.2,1740.32,1739.34,1736.81,1734.87,1734.11,1733.49,1732.65,1732.74,1734.45,1734.88,1735.25,1737.15,1738.55,1739.16,1740.31,1742.13,1743.16,1743.25,1746.05,1750.16,1753.17,1755.53,1757.33,1757.17,1755.12,1753.63,1753.2,1751.27,1748.06,1745.43,1743.84,1743.15,1742.82,1743.13,1744.85,1745.03,1746.55,1744.49,1743.66,1742.42,1741.29,1739.7,1738.26,1736.94,1736.13,1735.29,1734.4,1734.18,1734.47,1735.36,1735.89,1736.82,1737.77,1738.01,1738.97,1739.36,1738.19,1737.33,1736.32,1735.53,1734.69
1710.99,1710.47,1710.28,1709.73,1709.87,1709.87,1709.35,1708.31,1707.9,1707.72,1707.39,1706.94,1706.89,1706.11,1705.67,1705.2,1705.69,1705.98,1706.29,1706.8,1706.92,1706.89,1707.34,1707.65,1707.56,1707.29,1707.46,1707.98,1707.97,1707.9,1707.93,1707.73,1707.96,1708.71,1708.72,1708.64,1708.21,1707.79,1707.87,1708.09,1707.4,1705.75,1703.89,1702.99,1701.66,1700.39,1699.59,1698.17,1697.59,1697.61,1698.11,1699.35,1701.16,1703.47,1705.66,1707.35,1709.18,1710.57,1711.44,1711.85,1712.67,1713.07,1713.39,1713.2,1713.91,1715.82,1716.78,1718.4,1720.11,1720.84,1720.71,1720.41,1720.11,1719.02,1717.38,1716.33,1714.71,1712.4,1709.83,1708.72,1706.63,1705.72,1704.94,1703.84,1702.86,1702.5,1702.62,1703.24,1703.54,1704.46,1704.55,1704.35,1704.83,1705.03,1705.56,1705.58,1705.57,1705.29,1705.46,1705.74,1706.31,1706.49,1707.53,1708.63,1709.67,1710.85,1711.77,1712.21,1712.79,1713.31,1713.81,1713.68,1713.08,1712.26,1711.34,1712.69,1712.48,1711.17,1711.18,1711.57,1712.7,1713.59,1714.86,1717.01,1719.5,1722.02,1725.06,1727.02,1728.88,1729.54,1729.22,1730.27,1730.29,1728.98,1724.43,1722.27,1722.76,1722,1721.33,1722.93,1721.6,1719.23,1717.67,1718.49,1718.25,1715.86,1712.94,1710.83,1708.29,1707.05,1706.56,1706.68,1706.34,1706.34,1706.13,1706.76,1707.09,1709.83,1713.68,1717.99,1722.57,1725.82,1728.75,1730.73,1733.5,1736.91,1738.21,1738.64,1738.43,1736.53,1733.83,1731.21,1728.55,1724.92,1721.5,1718.45,1714.74,1710.16,1708.22,1707.66,1707.84,1709.17,1712.21,1714.43,1715.34,1717.11,1719.31,1720.37,1719.9,1718.84,1718,1716.01,1715.29,1714.31,1713.67,1713.08,1712.15,1713.14,1714.59,1715.21,1715.63,1716.92,1718.02,1719.13,1720.02,1721.4,1723.68,1726.66,1729.87,1731.83,1732.86,1733.17,1734.14,1733.95,1734.38,1734.52,1734.25,1733.74,1733.85,1734.27,1736.11,1736.77,1737.84,1738.37,1738.97,1739.94,1741.13,1742.65,1744.15,1744.7,1746.29,1747.48,1746.44,1744.52,1741.39,1738.08,1734.52,1730.84,1727.9,1725.34,1724.2,1723.46,1723.23,1723.75,1724.32,1725.75,1727.78,1727.65,1726.38,1724.43,1723.85,1722.01,1720.61,1720.82,1720.86,1720.87,1720.88,1721.88,1722.77,1723.1,1725.32,1727.21,1727.74,1727.97,1727.78,1728.01,1728.52,1728.8,1729.67,1729.57,1729.96,1730.81,1730.57,1731.15,1731.41,1730.5,1729.67,1729.43,1729.26,1728.71,1728.41,1729.01,1728,1727.83,1727.98,1728.3,1728.21,1728.81,1728.59,1727.34,1727.98,1731.27,1734.68,1735.06,1734.92,1735.67,1734.34,1735.13,1736.09,1736.31,1734.29,1734.67,1735.98,1734.07,1734.24,1735.58,1736.33,1737.17,1737.8,1738.22,1738.51,1739.12,1739.9,1740.75,1739.4,1738.62,1737.31,1735.96,1735.67,1735.9,1735.3,1735.03,1734.92,1736.68,1737.29,1738.91,1740.55,1740.87,1740.56,1740.82,1740.94,1740.32,1739.04,1737.69,1735.83,1733.48,1732.36,1731.26,1728,1726.15,1725.65,1724.9,1723.78,1724.02,1725.36,1726.02,1726.73,1728.44,1729.65,1730.12,1731.83,1734.34,1735.75,1735.8,1738.78,1741.79,1745.27,1747.95,1749.56,1749.26,1747.66,1746.12,1745.42,1743.68,1742.7,1739.93,1737.86,1736.31,1736.48,1738.31,1737.33,1738.97,1738.7,1738.8,1736.79,1734.13,1733.39,1732.15,1731.11,1730.24,1729.69,1728.67,1727.8,1727.32,1727.54,1728.31,1729,1729.84,1731.14,1731.35,1732.51,1733.18,1731.87,1730.97,1729.82,1728.78,1727.77
1706.3,1705.88,1706.15,1705.95,1705.95,1705.93,1705.54,1704.44,1704.18,1703.94,1703.5,1702.76,1702.41,1701.85,1701.43,1700.93,1701.06,1701.26,1701.42,1701.47,1701.5,1701.31,1701.39,1701.15,1700.96,1700.78,1700.37,1700.48,1700.34,1700.08,1699.96,1699.45,1699.82,1700.15,1700.01,1699.84,1699.44,1698.91,1698.53,1698.34,1696.9,1694.86,1696.94,1695.52,1693.89,1692.37,1687.2,1686,1685.39,1685.69,1686.68,1688.25,1689.92,1692.14,1694.9,1697.11,1699,1700.09,1700.9,1701.35,1702.01,1702.32,1702.25,1701.86,1702.56,1703.89,1704.72,1706.03,1707.55,1708.26,1708.21,1708.29,1708.12,1707.16,1705.67,1704.8,1702.98,1701.18,1699.36,1698.9,1697.1,1696.05,1695.81,1695.21,1694.41,1694.55,1695.77,1696.57,1697.12,1698.26,1698.88,1699.08,1699.64,1699.92,1700.42,1700.61,1700.43,1700,1700.01,1699.97,1700.19,1700.23,1700.95,1701.74,1702.1,1702.67,1703.21,1703.38,1703.79,1704.22,1704.69,1704.44,1704,1703.48,1703.13,1703.94,1703.68,1703.04,1703.18,1703.27,1704.15,1705.18,1706.37,1708.48,1711.12,1713.29,1715.59,1717.28,1719.25,1720.49,1720.46,1721.55,1721.64,1720.82,1717.52,1715.92,1716.31,1715.71,1715.61,1717.14,1715.88,1714.31,1713.24,1713.65,1713.19,1711.33,1709.28,1706.99,1704.37,1703.17,1702.8,1703.03,1703.14,1703.47,1703.98,1704.38,1704.77,1706.48,1709.2,1712.06,1715.74,1717.66,1719.4,1719.69,1721.97,1725.16,1726.3,1727.53,1728.17,1725.69,1723.54,1721.48,1719.79,1717.13,1713.15,1711.14,1707.74,1703.37,1702.35,1702.47,1702.66,1703.93,1706.55,1708.33,1709.8,1712.21,1715.16,1715.67,1714.74,1713.6,1712.31,1710.86,1709.53,1707.88,1706.97,1706.73,1705.78,1707.08,1708.79,1709.72,1710.66,1712.31,1713.3,1714.43,1715.2,1716.86,1718.86,1721.46,1724.67,1726.52,1726.69,1726.86,1726.99,1726.24,1726.33,1726.13,1725.75,1724.94,1725.02,1725.58,1727.95,1728.89,1730.5,1731.25,1731.6,1732.09,1732.88,1734.12,1735.39,1735.04,1736.11,1736.74,1735.4,1733.46,1730.76,1727.48,1723.38,1718.8,1715.94,1713.92,1712.61,1711.77,1711.39,1711.67,1712.13,1713.63,1715.74,1716.16,1715.06,1712.64,1712.94,1712.74,1712.56,1713.06,1713.61,1713.75,1713.66,1714.49,1715.86,1716.44,1717.94,1719.52,1720.14,1720.42,1720.4,1720.71,1721.45,1722.22,1723.34,1723.6,1724.54,1726.03,1726.31,1727.27,1727.99,1727.68,1726.95,1726.74,1726.66,1726.21,1725.46,1725.6,1724.39,1723.53,1723.04,1723.02,1722.71,1723.33,1722.59,1721.57,1721.97,1725.16,1725.43,1725.57,1728.03,1728.53,1728.41,1729.36,1729.9,1729.91,1730.08,1730.36,1728.22,1725.85,1725.9,1729.88,1730.69,1731.18,1731.63,1732.09,1732.2,1732.55,1733.33,1734.34,1732.29,1731.85,1731.07,1730.36,1730.56,1731.26,1731,1730.83,1730.91,1732.04,1732.43,1733.62,1735.13,1734.89,1734.31,1734.92,1734.82,1733.59,1731.57,1729.98,1728.11,1726.04,1724.97,1723.96,1721.13,1718.66,1717.37,1715.7,1714.39,1714.28,1715.86,1716.45,1716.92,1718.53,1719.95,1721.22,1723.81,1726.58,1728.35,1728.61,1732.13,1735.62,1738.02,1740.19,1741.39,1741.26,1740.09,1738.48,1739.56,1737.32,1733.87,1731.06,1728.89,1726.74,1727.25,1727.61,1730.37,1728.58,1730.18,1730.45,1728.93,1728.53,1726.15,1724.94,1724.32,1723.61,1723.2,1722.06,1721.24,1721.04,1721.44,1722.19,1723,1724.18,1725.52,1725.53,1726.49,1727.22,1726.38,1725.33,1723.89,1722.68,1721.33
1701.11,1700.65,1701.12,1701.16,1700.81,1700.75,1700.71,1699.7,1699.26,1699.08,1698.63,1697.87,1697.34,1696.91,1696.54,1695.81,1695.75,1695.89,1695.93,1695.74,1695.57,1695.14,1694.69,1693.93,1693.58,1693.29,1692.76,1692.52,1692.31,1691.75,1691.45,1691.06,1691.52,1691.64,1691.08,1690.71,1689.95,1689.21,1688.58,1688.03,1690.54,1688.43,1686.46,1685.09,1683.55,1682.01,1680.76,1675.81,1675.33,1675.84,1677.04,1678.55,1679.94,1681.84,1684.42,1686.62,1688.44,1689.52,1690.02,1690.36,1690.93,1691.35,1690.89,1690.39,1690.71,1691.61,1692.27,1693.6,1695.16,1695.71,1695.84,1696.39,1696.62,1695.65,1694.48,1693.44,1691.85,1690.38,1689.25,1688.82,1687.35,1686.79,1687.12,1687.18,1687.04,1687.41,1688.4,1689.53,1690.26,1691.54,1692.21,1692.8,1693.49,1693.94,1694.94,1694.7,1694.45,1693.82,1693.57,1693.22,1692.96,1692.55,1693.04,1693.46,1693.46,1693.73,1694.09,1694.11,1694.6,1695.03,1695.6,1695.35,1694.91,1694.45,1694.26,1694.95,1694.85,1694.43,1694.65,1694.66,1695.15,1696.27,1697.59,1699.37,1701.54,1703.01,1705.16,1706.87,1708.78,1710.3,1710.92,1712.37,1712.23,1711.98,1708.75,1708.44,1709.11,1708.55,1708.34,1709.44,1708.19,1707.25,1706.73,1707.16,1706.55,1704.95,1703.51,1701.93,1699.64,1698.73,1698.27,1698.66,1699.16,1699.73,1700.68,1701.19,1701.36,1702.17,1703.82,1705.3,1707.52,1708.57,1709.2,1708.81,1709.28,1711.9,1712.94,1713.9,1714.64,1713.4,1712.04,1710.44,1709.2,1706.77,1704.35,1703.29,1701.12,1697.68,1696.88,1696.95,1697.32,1698.82,1701.72,1703.12,1704.52,1706.25,1709.88,1710.25,1709.06,1707.66,1706.44,1704.79,1703.83,1702.44,1701.89,1701.18,1700.47,1701.93,1703.8,1705.02,1706.12,1707.73,1708.13,1709.04,1709.88,1711.69,1713.52,1715.6,1718.14,1719.67,1719.46,1718.83,1719.35,1718.76,1718.71,1718.6,1718.1,1717.13,1717.14,1717.7,1719.87,1720.93,1722.27,1722.69,1722.68,1722.78,1723.35,1724.32,1725.52,1725.1,1725.55,1725.91,1724.46,1722.59,1719.49,1716.03,1712.34,1708.43,1705.69,1703.78,1702.58,1701.49,1701.07,1701.18,1701.56,1702.45,1704.06,1704.3,1703.19,1701.09,1702.52,1703.14,1703.36,1704.19,1705.07,1705.62,1705.73,1706.8,1707.88,1708.36,1709.28,1710.44,1710.82,1710.94,1711.71,1712.5,1713.51,1714.5,1715.63,1716.08,1717.34,1719.93,1720.74,1721.44,1722.52,1722.82,1722.8,1722.92,1723.16,1722.99,1722.54,1722.43,1720.94,1719.77,1719.19,1718.81,1717.94,1718.35,1717.21,1715.54,1715.82,1718.87,1719.24,1722.24,1722.09,1722.44,1721.13,1722.53,1723.46,1723.4,1723.31,1723.12,1723.81,1718.4,1717.99,1719.74,1720.17,1720.16,1720.49,1721.09,1721.11,1721.51,1722.74,1724.56,1722.27,1722.27,1722.18,1721.88,1722.82,1723.97,1724.17,1723.92,1723.82,1725.09,1725.05,1725.58,1726.36,1725.66,1725.09,1725.59,1725.68,1724.96,1723.81,1722.94,1721.8,1719.85,1718.77,1717.43,1713.24,1711.17,1710.56,1709.14,1707.55,1707.4,1708.59,1709.07,1709.35,1710.83,1711.69,1712.21,1714.26,1716.21,1717.78,1718.36,1722.09,1725.97,1729.26,1732.28,1734.02,1733.28,1731.7,1731.78,1731.16,1728.42,1724.77,1721.48,1719.11,1717.86,1718.43,1718.69,1721.38,1721.42,1720.03,1722.63,1721.79,1721.71,1721.43,1718.69,1718.31,1717.82,1717.73,1716.81,1716.01,1715.83,1716.12,1716.77,1717.6,1719.05,1721.3,1721.37,1722.22,1722.98,1721.72,1720.38,1718.71,1717.27,1716.11
1695.17,1694.28,1694.56,1694.08,1693.3,1693.11,1692.76,1691.47,1690.66,1690.6,1690.45,1689.79,1689.59,1689.35,1688.87,1688.42,1688.33,1688.53,1688.32,1687.68,1687.46,1686.97,1686.26,1685.78,1685.5,1685.25,1684.39,1683.42,1682.84,1682.13,1681.8,1681.69,1682.24,1682.06,1681.58,1681.37,1681.16,1680.73,1680.05,1683.23,1681.62,1679.5,1677.51,1675.98,1674.28,1672.5,1671.27,1670.37,1665.88,1666.45,1667.55,1669.08,1670.31,1672.1,1674.69,1676.78,1678.47,1679.55,1679.68,1679.63,1679.91,1680.15,1679.81,1679.25,1679.12,1679.29,1679.75,1681.04,1682.31,1682.92,1683.07,1683.61,1684.05,1683.7,1683.19,1682.51,1681.55,1680.58,1679.95,1679.77,1678.94,1678.7,1679.17,1679.43,1679.69,1680.26,1680.95,1682.41,1683.37,1684.81,1685.69,1686.31,1686.96,1687.36,1688.09,1688.57,1688.15,1687.32,1686.89,1686.19,1685.51,1684.97,1685.18,1685.19,1684.92,1684.88,1684.93,1684.9,1685.25,1685.51,1685.95,1685.6,1685.25,1685.22,1685.46,1686.11,1686.1,1685.94,1686.23,1686.37,1686.73,1687.72,1689.17,1691.14,1692.97,1694.78,1696.89,1698.7,1700.9,1702.85,1703.74,1705.25,1704.81,1704.51,1701.76,1701.82,1702.13,1701.34,1700.56,1700.94,1699.41,1699.19,1699.09,1699.51,1698.92,1697.34,1696.54,1695.34,1693.31,1693.02,1692.75,1693.6,1694.45,1695.13,1696.34,1697.17,1697.55,1698.15,1699.44,1700.13,1701.41,1701.48,1701.41,1700.37,1699.95,1700.85,1700.96,1701.38,1702.86,1701.27,1700.05,1699.02,1697.95,1696.21,1694.81,1694.3,1692.81,1689.31,1689.19,1689.25,1689.55,1690.85,1694.37,1696.2,1697.78,1699.43,1702.74,1703.69,1702.48,1701.32,1700.14,1698.11,1697.52,1696.55,1696.06,1695.19,1694.88,1696.68,1698.95,1700.7,1702,1703.41,1703.35,1703.89,1704.71,1706.07,1707.45,1709.52,1712.04,1712.87,1712.51,1712.43,1713.22,1712.89,1712.97,1712.94,1712.47,1711.49,1711.4,1711.87,1714.15,1714.75,1715.62,1715.72,1715.46,1715,1715.06,1715.63,1716.31,1715.24,1715.33,1715.06,1713.37,1711.64,1709.44,1706.65,1703.82,1700.34,1697.07,1694.81,1694.09,1692.74,1691.89,1691.43,1691.62,1692.31,1693.64,1693.78,1693.01,1691.1,1692.96,1694.3,1694.89,1696.15,1697.4,1698.12,1698.35,1699.37,1699.94,1700.36,1701.19,1702.07,1702.25,1702.52,1703.53,1704.67,1705.8,1706.93,1707.74,1708.37,1709.79,1712.91,1714.02,1714.96,1716.08,1716.51,1717.06,1717.34,1717.65,1717.83,1717.47,1717.43,1715.77,1715.03,1714.48,1713.89,1713.1,1712.83,1711.29,1709.78,1709.81,1712.86,1715.56,1715.63,1715.54,1715.64,1713.97,1714.85,1715.39,1714.92,1714.31,1714.04,1714.32,1714.12,1708.03,1710.53,1710.52,1710.27,1710.4,1710.82,1710.64,1710.67,1711.57,1713.22,1711.06,1711.3,1711.76,1711.93,1713.45,1714.68,1715.09,1715.07,1715.02,1716.42,1716.63,1716.97,1717.52,1716.56,1716.15,1716.79,1717.08,1716.6,1715.32,1714.36,1713.34,1712.08,1711.06,1709.63,1706.88,1705.45,1704.77,1703.23,1701.64,1700.95,1701.58,1701.84,1702,1702.82,1702.77,1702.99,1704.52,1706.26,1707.51,1707.89,1711.3,1714.9,1718.19,1721.38,1722.78,1722.04,1720.82,1721.32,1720.95,1718.33,1714.53,1711.66,1709.8,1708.26,1711.4,1712.37,1712.93,1712.9,1713.29,1712.84,1714.27,1714.94,1715.22,1712.85,1712.83,1712.8,1713.04,1712.42,1711.82,1711.84,1712.37,1713.18,1713.96,1715.06,1716.86,1716.94,1717.98,1718.91,1717.38,1716.19,1714.79,1713.57,1711.85
1688.83,1687.62,1687.39,1686.37,1685.26,1684.77,1684.13,1682.77,1682.02,1681.87,1681.78,1681.21,1681.24,1681.19,1680.68,1680.24,1680.16,1680.44,1680.53,1679.75,1679.46,1678.87,1678.11,1677.87,1677.37,1676.01,1674.3,1672.74,1671.7,1670.82,1670.8,1671,1671.69,1671.98,1672.3,1672.81,1673.15,1673.12,1672.39,1675.1,1673.15,1670.86,1668.88,1667.2,1665.44,1663.65,1662.26,1661.38,1657.17,1657.65,1658.52,1659.7,1660.82,1662.66,1665.25,1667.29,1668.92,1670.04,1669.99,1669.6,1669.49,1669.65,1669.08,1668.41,1667.85,1667.73,1668.07,1669.54,1670.92,1671.61,1672.03,1672.67,1673.02,1673.08,1673.06,1672.49,1671.84,1671.25,1670.73,1670.58,1670.4,1670.62,1671.35,1671.88,1672.66,1673.35,1674.39,1675.81,1677.2,1678.59,1679.57,1680.16,1680.87,1681.37,1682.16,1682.54,1681.86,1680.97,1680.05,1678.97,1678.24,1677.56,1677.57,1677.39,1676.97,1676.7,1676.74,1676.72,1677.04,1677.43,1677.73,1677.64,1677.59,1677.64,1677.96,1678.98,1678.87,1678.76,1679.29,1679.64,1680.29,1681.19,1682.56,1684.34,1686.36,1687.23,1689.19,1691.02,1693.15,1695.19,1696.26,1698.03,1697.35,1696.52,1695.36,1695.1,1694.66,1693.49,1692.3,1692.19,1690.22,1690.31,1690.55,1690.89,1690.36,1689.28,1688.9,1688.18,1687.11,1687.12,1686.95,1687.88,1688.72,1689.24,1690.6,1691.53,1692.12,1692.46,1692.82,1693.11,1693.48,1693.12,1692.43,1690.69,1689.5,1689.38,1688.37,1688.22,1689.46,1688.41,1687.58,1686.89,1686.38,1685.48,1684.75,1684.86,1684.43,1681.61,1681.63,1681.81,1682.11,1683.3,1686.3,1687.86,1689.6,1691.51,1695.21,1696.78,1695.92,1694.72,1693.4,1691.41,1691.35,1690.96,1690.59,1689.66,1689.33,1690.92,1693.44,1695.51,1697.16,1698.66,1698.55,1698.92,1699.41,1700.85,1701.99,1703.92,1705.92,1706.99,1706.8,1707.04,1708.1,1708.18,1708.24,1708.55,1708.39,1707.47,1707.04,1707.16,1708.65,1708.98,1709.23,1708.8,1707.71,1706.5,1706.15,1706.34,1706.77,1705.5,1704.99,1704.83,1703.7,1702.54,1701.23,1699.13,1696.08,1692.3,1688.71,1686.72,1684.42,1683.51,1682.42,1681.55,1681.34,1681.6,1682.58,1682.85,1682.28,1682.75,1684.51,1685.98,1686.93,1688.26,1689.64,1690.55,1691.2,1692.07,1692.73,1693.33,1693.94,1694.81,1694.8,1694.99,1696.34,1697.5,1698.57,1699.46,1700.11,1700.75,1701.82,1703.26,1704.59,1705.38,1706.98,1707.88,1709.03,1709.62,1710.1,1710.54,1711.51,1711.77,1710.4,1709.63,1709.2,1708.5,1707.69,1707.4,1706.01,1704.55,1704.41,1707.13,1709.55,1709.52,1709.35,1709.33,1707.86,1708.04,1705.2,1704.44,1706.33,1705.9,1705.66,1704.97,1701.36,1700.96,1700.67,1699.73,1699.85,1700.34,1699.98,1699.79,1700.53,1702.04,1700.37,1700.61,1701.1,1701.42,1702.75,1704.21,1705.11,1705.46,1705.79,1706.9,1707.23,1707.55,1708.17,1707.26,1706.84,1707.7,1707.71,1706.92,1705.87,1705.34,1704.8,1704.13,1703.46,1702.43,1700.44,1699.34,1698.4,1696.74,1695.31,1694.26,1694.15,1694.4,1694.45,1694.7,1694.16,1693.93,1694.37,1694.59,1695.01,1695.04,1697.64,1700.36,1702.85,1705.63,1707.27,1707.28,1709.11,1709.12,1709.73,1707.77,1705.22,1702.79,1701.54,1702.51,1703.45,1704.61,1705.49,1705.73,1706.63,1707.82,1707.38,1708.31,1709,1708.92,1707.38,1707.73,1708.07,1707.62,1707.22,1707.22,1707.71,1708.43,1709.35,1710.61,1711.74,1712.07,1713.14,1713.78,1713.08,1712.07,1710.59,1708.87,1706.7
1683.18,1681.87,1680.92,1679.25,1677.45,1676.51,1675.64,1674.09,1673.23,1672.88,1672.77,1672.46,1672.67,1672.61,1671.89,1671.42,1671.45,1671.96,1672.38,1671.44,1670.79,1670.03,1669.07,1668.89,1667.66,1665.53,1663.45,1661.53,1660.22,1659.29,1659.48,1660,1660.94,1661.9,1662.96,1664.18,1664.85,1665.19,1668.7,1667.08,1664.73,1662.28,1664.2,1658.67,1656.83,1655.37,1649.95,1649.17,1648.99,1649.49,1650.3,1651.52,1652.6,1653.93,1656.04,1657.74,1659.34,1660.54,1660.68,1660.54,1660.22,1660.02,1659.02,1658.27,1657.42,1656.74,1657.17,1658.04,1659.03,1659.59,1659.81,1660.77,1662.13,1662.56,1663.44,1663.26,1663.02,1663.01,1662.71,1662.84,1662.78,1663.12,1663.74,1664.1,1664.93,1665.64,1666.94,1668.7,1670.17,1672.1,1673.08,1673.92,1674.69,1674.95,1675.48,1675.56,1674.94,1673.92,1672.92,1671.96,1671.19,1670.34,1670.55,1670.12,1669.53,1669.11,1668.96,1668.83,1669.17,1669.19,1669.49,1669.6,1669.65,1669.78,1670.07,1670.58,1670.75,1670.82,1671.26,1671.8,1672.56,1673.69,1675.03,1676.63,1678.25,1679.98,1681.91,1683.66,1685.46,1687.5,1688.66,1690.13,1689.62,1688.8,1688.14,1687.68,1686.72,1684.91,1683.79,1683.54,1681.98,1682.15,1682.33,1682.46,1682.18,1681.78,1681.84,1681.49,1681.16,1681.42,1681.44,1682.23,1682.86,1683.41,1684.59,1685.44,1685.85,1685.93,1685.78,1685.57,1685.22,1684.26,1683.16,1681.26,1679.64,1678.96,1677.66,1677.47,1678.69,1678.24,1677.77,1677.45,1677.25,1676.44,1675.87,1676.29,1676.02,1674.01,1674.26,1674.73,1674.94,1676.16,1678.68,1680.43,1682.22,1684.36,1688.24,1690.11,1689.59,1688.89,1687.93,1686.7,1686.43,1685.96,1685.64,1684.89,1684.34,1685.72,1687.8,1689.9,1691.64,1693.3,1693.45,1693.83,1694.64,1695.97,1697.21,1698.89,1700.96,1702.15,1702.12,1702.4,1703.42,1703.74,1703.79,1704.06,1703.93,1703.18,1702.44,1702.26,1703.23,1703.15,1702.81,1702.09,1700.69,1699.25,1698.42,1697.96,1697.41,1695.5,1694.25,1694.22,1693.46,1693.08,1692.82,1691.28,1688.6,1685.88,1682.85,1681.12,1678.73,1677.14,1675.34,1673.1,1672.45,1672.88,1673.95,1674.65,1674.74,1675.79,1677.25,1678.91,1680.25,1681.65,1682.74,1683.69,1684.42,1685.44,1685.96,1686.33,1686.61,1687.09,1687.05,1687.36,1688.44,1689.21,1689.87,1690.52,1691.17,1691.85,1692.97,1694.49,1696.1,1697.06,1698.74,1700.23,1701.53,1702.24,1702.69,1703.38,1704.57,1704.68,1703.58,1703.02,1702.74,1702.21,1701.62,1702.27,1700.9,1699.44,1704.39,1704.14,1700.78,1702.94,1702.52,1702.09,1700.68,1700.46,1697.33,1696.52,1698.02,1697.38,1696.92,1696.09,1695.07,1693.95,1693.3,1689.61,1689.45,1689.6,1689.11,1688.62,1689.35,1690.61,1689.18,1689.53,1689.94,1690.26,1691.69,1693.25,1694.9,1695.77,1696.38,1697.04,1697.53,1698,1698.66,1698.12,1698.18,1698.67,1698.49,1697.75,1697.15,1696.87,1696.86,1696.52,1695.88,1694.88,1693.48,1692.24,1691.35,1689.65,1688.36,1687.59,1687.37,1687.67,1687.7,1687.29,1686.09,1685.35,1685.28,1684.34,1683.51,1682.92,1684.25,1685.75,1687.53,1690.06,1691.71,1692.69,1695.65,1697.07,1698.65,1697.95,1696.64,1697.24,1696.83,1696.46,1697.08,1695.81,1698.38,1698.75,1700.51,1702.42,1702.1,1702.94,1703.67,1703.99,1702.58,1702.93,1703.4,1702.87,1702.53,1702.56,1702.8,1703.55,1704.46,1705.84,1707.16,1707.32,1708.23,1708.8,1707.99,1706.89,1705.28,1703.89,1702.45
1676.69,1675.09,1673.64,1671.69,1669.34,1668.03,1666.66,1664.97,1663.94,1663.33,1662.9,1662.73,1663.36,1663.43,1662.32,1661.66,1661.94,1662.25,1662.54,1661.51,1660.81,1659.67,1658.57,1658.35,1656.85,1654.52,1652.4,1650.17,1648.69,1648.04,1648.82,1649.89,1651.05,1652.29,1653.63,1655.1,1656.14,1661.01,1660.8,1658.84,1656.46,1654.04,1656.19,1650.68,1649.08,1647.85,1642.6,1641.82,1642.02,1642.52,1642.9,1643.48,1643.71,1644.11,1645.06,1646.15,1647.35,1648.12,1648.26,1648.64,1648.99,1649.34,1648.53,1648.13,1647.76,1647.2,1647.13,1647.58,1648.02,1648.33,1648.69,1650.87,1652.72,1653.45,1654.55,1654.95,1655.23,1655.57,1655.82,1656.33,1656.24,1656.19,1656.77,1657.28,1658.12,1659.19,1660.64,1662.75,1664.26,1666.19,1667.04,1667.69,1668.07,1668.05,1668.24,1667.94,1666.96,1665.81,1664.48,1663.7,1663.05,1662.36,1662.72,1662.49,1662.14,1662.14,1662.3,1662.26,1662.63,1662.29,1662.41,1662.09,1662.14,1662.41,1662.94,1663.22,1663.08,1663.01,1663.48,1664.12,1664.85,1665.89,1667.17,1668.4,1669.72,1671.62,1673.56,1675.29,1677.05,1678.56,1679.82,1680.61,1680.42,1679.82,1679.3,1678.71,1677.29,1675.08,1674.06,1673.75,1672.77,1673.32,1673.67,1673.87,1673.85,1673.7,1674.24,1674.16,1674.07,1674.6,1675.03,1675.67,1676.35,1677.04,1678.57,1679.52,1679.79,1679.65,1678.77,1677.58,1676.61,1675.45,1673.64,1671.39,1669,1668.42,1667.06,1667.25,1668.4,1668.24,1668.04,1668.06,1668.05,1667.79,1666.95,1667.03,1666.09,1664.62,1665.06,1665.86,1666.59,1667.79,1669.88,1671.8,1674.05,1676.93,1680.86,1682.52,1681.77,1681.78,1681.03,1680.19,1679.95,1680.44,1680.26,1679.94,1679.21,1680.47,1682.28,1684.24,1686.08,1687.65,1688.16,1688.78,1690.17,1691.99,1693.35,1695.09,1696.68,1697.93,1698.03,1698.07,1699.06,1699.19,1698.78,1698.57,1698.37,1697.49,1696.22,1695.63,1696.16,1695.76,1694.86,1693.55,1692.13,1690.34,1689.26,1687.99,1686.46,1684.34,1683.07,1682.87,1683.29,1683.37,1683.78,1682.89,1681.25,1679.15,1676.3,1674.41,1671.84,1669.05,1666.55,1664.19,1663.27,1663.81,1664.53,1665.35,1665.86,1666.99,1669.04,1671.42,1672.89,1674.78,1675.9,1676.61,1677.13,1678.11,1678.54,1678.9,1679.18,1679.63,1679.54,1679.64,1680.45,1680.96,1681.4,1681.82,1682.41,1683.04,1684.11,1685.5,1686.95,1688.01,1690.07,1691.78,1693.74,1694.62,1694.9,1695.95,1697.61,1697.81,1697.14,1696.91,1696.83,1696.31,1695.66,1694.94,1693.81,1695.36,1697.25,1696.68,1695.74,1692.05,1691.36,1693.4,1692.94,1689.83,1686.49,1685.58,1684.63,1686.69,1686.17,1687.93,1686.99,1687.91,1681.66,1680.23,1679.37,1678.94,1678.21,1677.62,1678.04,1679.07,1678.04,1678.36,1678.83,1679.55,1680.83,1682.35,1683.91,1684.99,1685.74,1686.47,1687.23,1687.83,1688.36,1688.37,1688.54,1689.1,1689.08,1688.63,1688.39,1688.58,1688.85,1688.86,1688.46,1687.83,1686.72,1685.89,1685.21,1683.45,1682.39,1681.86,1681.6,1681.64,1681.56,1680.66,1678.92,1677.89,1677.25,1675.52,1673.95,1672.84,1672.97,1673.01,1673.83,1675.61,1676.66,1677.93,1681.48,1683.28,1685.33,1685.96,1687.95,1688.38,1689.41,1689.69,1688.75,1689.35,1689.97,1690.45,1692.46,1694.32,1696.23,1697.34,1698.42,1697.11,1697.58,1698.17,1698.85,1698.16,1697.87,1697.94,1698.2,1698.99,1699.9,1701.25,1702.67,1702.64,1703.41,1703.87,1703.18,1702.42,1701.34,1700.23,1698.78
1668.47,1666.45,1664.27,1661.67,1659.26,1657.71,1656.08,1654.42,1653.4,1652.79,1652.19,1652,1652.41,1652.53,1651.86,1651.32,1651.46,1651.35,1651.42,1650.55,1649.71,1648.57,1647.64,1647.08,1645.61,1643.52,1641.4,1638.93,1637.55,1637.41,1638.65,1639.77,1640.88,1642.13,1643.92,1645.97,1651.98,1653.69,1653.74,1652.23,1650.51,1648.82,1651.64,1646.76,1645.31,1644.95,1640.24,1639.86,1640.23,1640.34,1639.93,1639.4,1638.47,1637.46,1636.77,1636.76,1635.68,1635.53,1635.6,1636.54,1637.83,1638.84,1638.45,1638.55,1638.93,1638.75,1638.64,1638.57,1638.76,1638.65,1639.19,1641.16,1642.61,1643.52,1644.79,1645.75,1646.56,1647.06,1647.79,1648.58,1648.82,1649.22,1650.14,1650.89,1651.97,1653.21,1654.93,1657.06,1658.24,1659.36,1659.96,1660.23,1660.33,1660.05,1659.85,1659.04,1657.99,1656.87,1655.95,1655.35,1654.64,1654.07,1653.94,1653.65,1653.56,1653.63,1654.05,1654.2,1654.48,1654.44,1654.37,1654.16,1654.39,1654.34,1654.51,1654.57,1654.66,1654.73,1655.26,1655.98,1656.83,1657.81,1659.17,1660.06,1661.32,1663.08,1664.99,1666.85,1668.9,1670.45,1671.43,1671.91,1671.75,1671,1670.13,1669.28,1667.54,1665.13,1663.77,1662.97,1662.54,1663.51,1663.98,1664.12,1664.25,1664.45,1665.89,1666.22,1666.47,1666.85,1667.09,1668.03,1669.02,1669.95,1672.32,1673.11,1673.13,1672.78,1671.3,1669.44,1667.83,1665.91,1663.43,1660.56,1657.95,1658.05,1656.77,1656.81,1657.39,1657.31,1657.06,1657.09,1657.27,1657.54,1657.56,1657.73,1657.37,1655.52,1655.95,1656.83,1656.89,1657.8,1659.94,1662.11,1664.97,1668.54,1672.11,1673.6,1672.95,1673.4,1673.29,1673,1673.18,1673.8,1673.93,1673.79,1673.25,1674.16,1675.75,1677.94,1679.45,1680.91,1681.35,1681.94,1683.25,1685.09,1686.69,1688.19,1689.63,1691.2,1691.54,1692.28,1693.6,1694.09,1693.73,1693.48,1692.92,1691.2,1689.1,1687.97,1687.19,1685.57,1684.35,1683.08,1681.76,1680.06,1679.03,1677.74,1676.38,1675.18,1673.48,1673.11,1673.33,1673.22,1673.6,1672.98,1671.56,1670.07,1667.32,1665.62,1662.97,1660.31,1657.91,1655.8,1654.65,1654.77,1655.53,1657.15,1658.2,1659.83,1662.19,1664.81,1666.5,1668.46,1669.64,1670.34,1670.77,1671.7,1671.71,1671.41,1671.21,1671.48,1671.06,1671.02,1671.86,1672.25,1672.61,1672.96,1673.64,1674.62,1675.85,1677.49,1679.14,1680.45,1682.41,1684.28,1685.97,1686.61,1686.62,1687.78,1689.34,1689.84,1689.64,1689.78,1689.91,1689.37,1688.88,1688.57,1690.32,1688.91,1688.02,1687.39,1686.35,1685.28,1684.35,1680.77,1685.57,1682.1,1678.74,1677.77,1676.68,1675.89,1675.14,1674.3,1673.3,1674.39,1675.62,1671.5,1669.74,1668.43,1667.15,1666.24,1666.3,1667.14,1666.14,1666.35,1666.44,1667.69,1669.35,1671.14,1672.98,1674.1,1675.12,1676.15,1677.32,1678.17,1678.91,1679.29,1679.94,1680.87,1681.11,1680.94,1681.01,1681.52,1682.18,1682.58,1682.41,1681.86,1681.01,1680.33,1679.7,1678.03,1677.04,1676.41,1675.92,1675.67,1675.18,1673.75,1671.68,1670.2,1669.26,1666.92,1664.76,1662.98,1661.49,1660.4,1660.71,1661.85,1662.99,1664.47,1666.79,1668.71,1673.09,1675.45,1677,1679.93,1681.78,1681.3,1682.49,1683.45,1684.24,1685.03,1686.85,1688.78,1690.56,1690.04,1691.03,1691.47,1692.06,1692.71,1693.69,1693.26,1693.12,1693.25,1693.5,1694.28,1695.25,1696.67,1697.98,1698.22,1698.99,1699.34,1698.97,1698.39,1697.52,1696.57,1695.07
1658.81,1656.54,1654.06,1650.85,1647.86,1645.95,1644.26,1642.48,1641.33,1640.38,1639.61,1639.41,1639.8,1640.03,1639.65,1639.39,1639.53,1639.79,1640.03,1639.38,1638.93,1638.06,1637.35,1637.13,1635.9,1633.93,1631.82,1629.33,1628.01,1628.22,1629.7,1630.81,1631.62,1632.97,1634.75,1637.19,1643.65,1645.52,1645.97,1644.46,1643.17,1642.26,1641.86,1641.68,1641.02,1641.2,1637.05,1636.71,1637.71,1637.77,1636.85,1635.45,1633.73,1631.8,1630.13,1629.09,1627.46,1626,1625.92,1627.33,1629.29,1630.72,1630.78,1631.08,1631.59,1631.47,1631.07,1630.7,1630.41,1629.9,1630.18,1631.97,1633.49,1634.42,1635.56,1636.82,1638.06,1638.81,1639.88,1640.98,1641.69,1642.44,1643.67,1644.79,1645.9,1646.95,1648.81,1650.66,1651.66,1653.01,1653.57,1653.54,1653.21,1652.48,1651.89,1650.75,1649.41,1647.78,1646.19,1645.16,1644.77,1644.33,1644.2,1643.82,1644.15,1644.52,1645.38,1645.81,1646.24,1645.79,1645.43,1645.24,1645.64,1645.28,1644.93,1645.01,1645.22,1645.52,1646.16,1647.27,1648.3,1649.4,1650.91,1652.18,1653.34,1654.91,1656.67,1658.38,1660.3,1661.8,1662.9,1663.45,1663.36,1662.52,1661.38,1659.97,1658.33,1655.68,1654,1652.62,1651.97,1652.64,1653.1,1653.5,1653.94,1654.19,1656.06,1656.89,1657.8,1658.68,1658.75,1659.97,1660.92,1661.99,1664.1,1664.51,1664.46,1663.87,1662.36,1660.5,1658.24,1656.21,1653.6,1650.94,1648.14,1647.77,1646.23,1645.9,1646.34,1646.61,1646.66,1647.15,1647.79,1648.35,1648.06,1648.07,1647.49,1646.75,1647.31,1648.27,1648.82,1649.65,1651.28,1653.5,1655.99,1658.53,1661.25,1662.99,1663.45,1664.18,1664.56,1664.79,1665.02,1665.94,1666.43,1666.44,1665.95,1666.3,1667.8,1669.87,1671.46,1672.85,1673.32,1673.88,1675.08,1677.37,1679.37,1681,1682.62,1684.07,1684.36,1685.07,1686.7,1687.52,1687.48,1686.97,1685.93,1683.68,1681.55,1680.4,1679.33,1677.4,1675.78,1674.33,1673.16,1671.58,1670.39,1669.09,1667.35,1665.44,1663.37,1662.56,1662.58,1662.27,1662.76,1662.18,1660.77,1659.71,1657.71,1656.47,1654.28,1651.74,1649.7,1647.07,1646.47,1647.57,1648.54,1649.89,1650.88,1652.12,1653.77,1655.98,1657.75,1659.67,1660.93,1661.91,1662.66,1663.56,1664.01,1663.9,1663.22,1663.18,1662.23,1661.95,1662.6,1662.91,1663.1,1663.46,1664.42,1665.72,1667.21,1669.5,1671.63,1673.24,1675.38,1677.29,1679.24,1679.81,1679.28,1680,1680.78,1681.31,1681.53,1681.92,1682.19,1681.69,1681.29,1684.03,1683.09,1681.99,1683.9,1683.23,1682.01,1680.8,1674.25,1675.79,1677.72,1676.76,1670.44,1669.27,1668.05,1666.94,1668.81,1667.97,1666.89,1670.43,1668.78,1664.41,1659.29,1657.49,1655.62,1654.07,1653.33,1653.75,1652.56,1652.8,1652.95,1654.48,1656.29,1658.27,1660.32,1661.99,1663.43,1664.74,1666.3,1667.8,1668.97,1670.02,1671.52,1672.86,1673.3,1673.57,1674.19,1675.07,1676.03,1676.61,1676.58,1675.88,1675.06,1674.65,1674.24,1672.71,1671.53,1670.75,1669.97,1669.48,1668.61,1666.55,1663.73,1662.07,1660.85,1658.11,1655.48,1653.27,1651.37,1650.02,1650.13,1650.92,1651.92,1653.45,1655.91,1659.85,1662.76,1665.76,1669.73,1671.33,1673.98,1675.76,1677.35,1677.44,1678.82,1679.82,1681.06,1682.57,1684.33,1683.39,1684.29,1685.01,1685.51,1686.32,1687.12,1687.43,1687.99,1688.49,1689.14,1689.81,1690.65,1691.82,1692.82,1692.94,1693.5,1693.67,1693.3,1692.73,1692.04,1691.27,1689.97
1648.25,1645.82,1643.02,1639.62,1636.33,1634.07,1632.09,1630.07,1628.68,1627.57,1626.64,1626.38,1626.93,1627.32,1627,1626.89,1627.26,1627.62,1628.21,1627.66,1627.5,1626.89,1626.8,1627.61,1626.55,1624.71,1622.94,1620.65,1619.57,1619.92,1621.93,1623.02,1622.68,1623.89,1625.56,1628.11,1635.17,1637.49,1638.07,1636.88,1635.74,1635.6,1636.06,1636.54,1636.6,1637.18,1633.3,1633.26,1634.28,1634.15,1632.65,1630.6,1628.41,1625.67,1623.24,1621.58,1619.5,1617.77,1617.83,1619.51,1621.62,1623.49,1623.95,1624.6,1625.35,1625.26,1624.59,1623.92,1623.02,1622.16,1621.93,1623.24,1628.57,1629.38,1626.38,1627.71,1629.11,1630.38,1631.78,1633.27,1634.38,1635.48,1637.16,1638.62,1640.04,1641.29,1643.13,1644.81,1645.85,1647.13,1647.68,1647,1646.05,1644.7,1643.34,1641.52,1639.61,1637.37,1634.86,1633.43,1633.32,1633.36,1633.35,1633.28,1633.53,1634.19,1635.53,1636.46,1637,1636.94,1636.65,1636.65,1637.01,1636.91,1636.88,1636.93,1637.57,1638.17,1638.85,1639.99,1641.17,1642.3,1643.87,1645.05,1646.05,1647.05,1648.52,1649.93,1651.95,1653.21,1654.09,1654.43,1654.28,1653.34,1652,1650.37,1648.75,1645.73,1643.67,1642.09,1641.01,1641.21,1641.39,1641.75,1642.1,1642.17,1643.91,1644.83,1646.18,1647.39,1648.23,1649.8,1650.89,1651.98,1653.63,1654.33,1654.24,1653.72,1652.28,1650.55,1648.4,1646.34,1644.07,1641.82,1639.57,1639.76,1638.74,1638.3,1638.18,1637.86,1637.51,1637.58,1637.86,1638.31,1638.36,1638.15,1638.96,1638.68,1639.18,1640.21,1639.96,1640.2,1641.36,1643.03,1645.44,1647.72,1650.22,1651.91,1652.2,1653.27,1654.07,1654.87,1655.72,1656.74,1657.28,1657.45,1657.13,1657.33,1658.57,1660.24,1661.65,1663.01,1663.37,1664.01,1665.33,1668.08,1670.55,1672.24,1674.23,1676,1676.12,1677.12,1678.43,1679.04,1678.92,1678.15,1676.73,1674.3,1671.81,1670.94,1669.61,1667.8,1666.27,1664.95,1664.14,1662.74,1661.63,1660.05,1658.04,1656.06,1653.97,1652.59,1652.03,1651.6,1651.97,1651.42,1649.81,1649.25,1647.87,1646.99,1645.26,1643.15,1641.55,1639.75,1639.12,1639.85,1640.74,1642.22,1643.12,1644.62,1646.38,1648.39,1649.83,1651.56,1652.26,1652.67,1653.09,1654.06,1654.51,1654.68,1654.61,1654.59,1653.85,1653.21,1653.49,1653.54,1653.64,1653.82,1654.89,1656.34,1658.04,1660.65,1663,1664.85,1666.94,1669.49,1671.87,1672.82,1672.15,1671.9,1672.1,1672.62,1672.96,1673.46,1673.21,1672.23,1671.6,1674.58,1674.57,1674.19,1676.46,1675.78,1674.36,1672.92,1671.63,1670.27,1669.18,1667.92,1666.88,1665.78,1664.52,1663.39,1662.72,1662.12,1660.82,1659.16,1657.23,1655.22,1649.73,1645.4,1643.19,1641.02,1639.41,1639.33,1639.77,1640.1,1640.22,1642.27,1643.65,1645.05,1647.29,1649.57,1651.42,1652.98,1654.92,1656.87,1658.46,1660.39,1662.87,1664.78,1665.73,1666.58,1667.54,1668.72,1669.92,1670.53,1670.27,1669.59,1668.88,1668.6,1667.65,1666.13,1665.01,1664.17,1663.24,1662.43,1661.42,1659.18,1656.29,1654.46,1652.91,1649.96,1646.73,1644.28,1642.07,1640.28,1640.02,1640.19,1640.62,1643.46,1645.75,1648.19,1652.83,1655.76,1658.63,1660.86,1663.93,1666.5,1668.76,1669.2,1670.77,1672.13,1673.7,1675.07,1676.93,1678,1679.33,1678.59,1679.53,1680.54,1681.64,1682.07,1682.84,1683.73,1684.43,1685,1685.56,1686.39,1687.12,1687.2,1687.66,1687.84,1687.65,1687.24,1686.63,1686.02,1684.94
1636.89,1634.24,1631.04,1627.25,1623.72,1621.27,1619.24,1617.32,1616.04,1614.96,1614.23,1614.11,1614.6,1615.03,1614.83,1615.01,1615.6,1616,1616.67,1616.45,1616.6,1616.35,1616.78,1618.11,1617.37,1616.02,1614.3,1611.98,1610.98,1611.57,1614.06,1615.31,1614.8,1615.68,1617.18,1620.07,1623.32,1630.02,1630.9,1629.8,1629.03,1629.37,1630.29,1631.18,1627.69,1628.66,1629.1,1628.87,1629.71,1629.29,1627.41,1624.76,1622.07,1618.85,1615.88,1613.7,1611.45,1609.71,1609.81,1611.75,1614.3,1616.61,1617.45,1618.46,1619.19,1619.07,1618.23,1617.26,1616.17,1614.62,1613.75,1618.45,1623.17,1623.73,1620.68,1621.98,1619.5,1621,1622.8,1624.58,1626.25,1627.98,1630.09,1632.02,1633.89,1635.24,1637.1,1638.71,1639.73,1641.02,1640.97,1639.59,1637.85,1635.83,1633.69,1631.27,1628.86,1625.9,1623.28,1621.92,1621.85,1621.76,1622.05,1622.51,1623.01,1623.76,1625.17,1626.09,1626.97,1627.14,1627.03,1627.35,1627.84,1627.92,1627.99,1628.3,1629.08,1629.98,1630.77,1632.12,1633.46,1634.68,1636.18,1637.03,1637.91,1638.72,1639.73,1640.68,1642.3,1642.99,1643.49,1643.84,1643.56,1642.65,1641.2,1639.4,1638.02,1635.19,1633.08,1631.17,1629.93,1629.62,1629.81,1630.22,1630.77,1630.81,1632.38,1633.44,1634.78,1636.39,1637.64,1639.19,1640.39,1641.37,1642.8,1643.44,1643.53,1643.19,1641.93,1640.43,1638.8,1637.3,1635.89,1634.24,1632.58,1631.42,1630.49,1629.91,1629.56,1629.22,1628.77,1628.99,1629.32,1629.53,1629.34,1629.08,1629.08,1629.27,1630.08,1631.18,1631.93,1632.56,1633.61,1635.28,1637.04,1638.61,1640.46,1641.99,1641.55,1642.91,1643.91,1644.83,1645.89,1647.19,1647.69,1647.56,1647.32,1647.49,1648.26,1649.54,1650.39,1651.48,1651.45,1652.28,1654.28,1656.52,1658.99,1660.89,1663.17,1665.41,1665.3,1666.46,1667.78,1668.41,1668.41,1667.13,1665.85,1663.21,1660.92,1660.02,1658.82,1656.85,1655.64,1654.88,1654.62,1653.59,1652.64,1650.96,1648.72,1646.6,1644.47,1643.17,1642.57,1641.85,1642.16,1641.43,1640.37,1640.32,1639.47,1638.99,1637.4,1635.56,1634.32,1632.74,1632.8,1634.21,1634.88,1635.76,1636.39,1637.58,1639.03,1640.35,1641.8,1643.18,1644.22,1645.12,1646.15,1647.3,1647.84,1647.61,1647.19,1646.84,1645.93,1645.22,1644.9,1644.37,1643.93,1643.93,1644.88,1646.6,1648.44,1650.5,1652.77,1655.13,1657.69,1660.45,1663.95,1665.81,1665.78,1664.96,1664.81,1664.62,1664.79,1665.16,1664.35,1662.71,1661.79,1664.74,1665.04,1664.83,1664.87,1666.59,1664.65,1663.44,1662.4,1661.04,1659.73,1658.38,1657.42,1656.39,1652.86,1649.48,1653.88,1653.18,1652,1650.57,1648.76,1646.87,1641.14,1639.02,1634.37,1632.26,1629.92,1629.01,1628.57,1627.89,1627.45,1629.11,1629.92,1630.74,1632.44,1635.17,1637.31,1639.62,1642.28,1645.2,1647.97,1651.53,1655.25,1657.56,1659.17,1660.38,1661.27,1662.46,1662.91,1662.96,1662.38,1661.85,1661.27,1660.67,1659.33,1657.74,1656.74,1656.18,1655.32,1654.66,1653.66,1651.69,1649.07,1647.1,1645.15,1642,1638.49,1635.84,1633.51,1631.07,1630.04,1629.75,1629.95,1631.34,1633.85,1638,1642.6,1645.52,1648.6,1651.79,1655.44,1658.3,1659.35,1662.3,1664.2,1665.73,1667.37,1668.98,1670.45,1671.49,1672.94,1672.58,1673.49,1674.63,1675.56,1676.19,1677.19,1678.17,1679.14,1679.86,1680.09,1680.38,1681.05,1681.39,1681.91,1682.24,1682.21,1681.82,1681.4,1681.03,1680.17
