4380.84,4396.19,4408.53,4404.25,4414.64,4437.66,4458.5,4480.85,4496.5,4510.28,4524.44,4537.71,4547.89,4558.09,4567.72,4577.87,4588.5,4599.25,4612.13,4625.19,4638.17,4647.96,4656.05,4663.61,4670.09,4675.89,4678.91,4673.39,4657.39,4633.19,4601.44,4566.98,4529.04,4476.94,4414.47,4355.21,4303.51,4229.24,4137.5,4063.43,4021.39,3893.49,3757.25,3686.2,3683.44,3688.65,3775.86,3907.47,3961.19,4017.37,4084.48,4167.13,4218.37,4272.73,4303.41,4370.08,4412.9,4447.86,4477.72,4507.65,4538.33,4566.81,4594.66,4621.33,4643.16,4662.53,4682.09,4703.68,4720.36,4732.77,4742.48,4750.22,4755.83,4761.81,4765.77,4764.5,4760.12,4753.71,4741.6,4725.5,4706.22,4678.85,4641.12,4596.96,4547.37,4483.08,4417.76,4333.94,4226.41,4128.27,3960.57,3880.28,3786.7,3676.76,3562.27,3480.41,3412.85,3296.31,3401.38,3210.97,2956.32,2764.78,2735.34,2682.65,2639.85,2689.41,2679.64,2709.24,2785.75,2798.49,2798.14,2892.26,3073.32,3364.97,3652.75,3974.74,4208.02,4365.01,4430.32,4505.09,4562.78,4609.69,4652.8,4688.99,4718.6,4743.71,4765.15,4785.01,4802.17,4818.08,4830.67,4838.86,4845.7,4853.51,4856.89,4855.08,4847.98,4834.66,4814.84,4793.17,4766.29,4732.82,4692.64,4648.33,4602.16,4545.54,4488.86,4407.14,4286.92,4166.62,3993.65,3850.77,3798.44,3795.67,3819.54,3836.77,3852.17,3821.44,3832.3,3842.67,3846.6,3892.28,3899.95,3926.81,3983.43,3978.89,3967.47,3980.63,3884.5,3868.33,3841.61,3891.45,3881.67,3950.61,4054.28,4152.71,4252.67,4404.7,4527.62,4619.31,4676.05,4718.5,4756.1,4786.27,4808.57,4831.28,4847.83,4855.66,4860.25,4862.21,4859.89,4855.29,4848.3,4835.26,4818.71,4801.75,4783.52,4750.79,4716.41,4682.25,4637.9,4593.95,4545.6,4494.3,4428.53,4309.65,4120.8,4000.07,3859.7,3774.06,3599.32,3429.34,3159.41,2868.2,2547.26,2184.43,1735.21,1253.81,902.097,668.525,530.587,372.314,289.767,221.958,196.445,205.141,195.189,271.165,400.885,550.564,721.712,922.182,1238,1522.11,1917.43,2194,2340.94,2354.65,2416.39,2559.08,2846.33,3185.46,3596.99,4080.33,4465.62,4729.59,4818.42,4843.92,4861.37,4874.89,4886.77,4890.99,4891.87,4889.28,4882.72,4870.93,4851.94,4827.8,4797.54,4764.86,4728.05,4689.5,4646.11,4599.07,4553.27,4505.84,4459.98,4415.38,4365.67,4324.69,4289.94,4267.77,4251.52,4239.82,4229.66,4223.12,4208.58,4208.08,4246.92,4261.03,4259.14,4205.92,4166.27,4146.9,4133.45,4119.76,4103.83,4073.06,4051.88,4060.14,4097.08,4108.63,4098.5,4086.95,4090.4,4001.44,4112.8,4124.6,4124.36,4145.4,4193.96,4259.62,4336.43,4397.53,4457.03,4511.25,4562.07,4614.82,4663.54,4707.44,4745.54,4778.77,4807.13,4834.51,4857.64,4874.9,4884.8,4890.61,4893.19,4891.49,4884.15,4871.21,4852.08,4828.73,4805.41,4782.88,4755.85,4727.45,4697.48,4668.11,4639.46,4611.87,4586.74,4558.83,4527.2,4489.06,4452.12,4395.6,4381.72,4314.9,4272.14,4245.05,4205.87,4172.96,4104.7,4046.33,3974.51,3859.14,3779.2,3727.53,3767.01,3957.71,3996.6,3888.54,3887.11,3905.98,3923.52,3944.95,3969.38,3981.84,3976.03,4012.61,4077.41,4129.03,4088.97,4088.51,4218.7,4327.25,4360.03,4379.68,4397.27,4501.69,4581.67,4635.02,4679.29,4703.06,4740.41,4771.55,4798.07,4823.79,4847.96,4866.33,4883.5,4896.79,4904.79,4907.54,4906.55,4899.61,4890.11,4876.1,4859.33,4839.27,4814.19,4788.18,4765.41,4738.11,4722.27,4692.54,4673.44,4655.96,4639.8,4607.65,4534.71,4510.57,4458.17,4393.65,4368.83,4341.19
4391.94,4405.96,4418.68,4414.47,4426.53,4448.84,4469.64,4492.27,4508.37,4524.04,4541.02,4556.81,4569.69,4582.37,4594.55,4606.79,4618.85,4630.48,4644.86,4660.04,4674.9,4685.89,4696.42,4705.23,4713.2,4720.5,4725.61,4722.5,4709.08,4685.75,4657.66,4623.63,4586.56,4542.69,4489.7,4431.9,4362.33,4298.35,4234.76,4127.39,4103.09,4037.21,3919.06,3801.16,3745.77,3752.21,3780.56,3897.77,3959.38,4009.76,4097.31,4166.84,4220.3,4254.76,4297.39,4359.45,4409.29,4445.13,4476.81,4507.89,4539.87,4570.15,4601.63,4630.57,4652.88,4674.81,4696.62,4720.06,4739.78,4752.5,4762.38,4771.02,4777.04,4783.78,4787.49,4786.83,4783.46,4775.62,4765.89,4751.44,4733.4,4707.93,4671.58,4629.57,4584.04,4530.33,4461.84,4380.58,4313.98,4189.53,4042.03,3953.65,3856.46,3760.08,3682.25,3593.52,3513.33,3353.55,3471.55,3379.74,3159.93,2927.06,2881.24,2828.21,2686.81,2708.47,2712.21,2794.82,2760.83,2794.17,2779.38,2861.84,3018.33,3220.15,3550.45,3895.51,4141.71,4335.18,4408.49,4483.54,4550.33,4601.23,4656.82,4702.06,4734.4,4763.39,4786.59,4807.8,4826.4,4843.6,4857.83,4867.18,4874.53,4883.74,4887.56,4885.9,4880.24,4866.45,4848.4,4828.57,4802.79,4770.99,4732.7,4688.86,4642.62,4595.35,4533.64,4445.4,4335.61,4169.6,4061.61,3996.54,3909.26,3936.83,3925.5,3906.77,3932.06,3887.01,3894.83,3887.01,3906.06,3917.87,3916.65,3958.05,3999.05,3995.67,3996.63,3976.91,3936,3957.69,3939.66,3965.51,3999.52,4071.97,4191.54,4250.14,4367.08,4478.88,4568.39,4642.4,4697.99,4740.96,4779.95,4811.43,4834.83,4858.23,4874.58,4882.7,4887.69,4889.54,4887.62,4882.16,4876.13,4862.63,4847.35,4829.31,4809.83,4775.52,4739.36,4702.77,4656,4608.5,4567.03,4505.14,4438.77,4328.88,4136.65,4035.13,3906.08,3838.38,3692.94,3569.2,3399.3,3170.25,2863.94,2520.86,2093.57,1681.16,1315.13,1049.15,880.308,749.419,580.225,498.358,523.186,557.817,654.04,894.152,1169.84,1626.14,2060.48,2523.46,2829.64,3140,3370.2,3482.44,3532.61,3512.79,3493.89,3627.78,3847.28,4038.69,4362.98,4565.06,4752.2,4815.59,4847.15,4867.32,4884.07,4898.17,4909.71,4914.66,4915.23,4910.79,4903.44,4889.55,4870.49,4843.85,4812.79,4777.02,4739.01,4695.65,4649.64,4600.86,4551.86,4502.04,4453.56,4407.43,4359.03,4315.88,4287.81,4265.11,4250.79,4241.87,4234.26,4229.03,4218.69,4225.85,4261.7,4293.12,4290.3,4239.26,4195.66,4174.79,4159.02,4142.57,4122.75,4087.21,4063.43,4066.95,4097.54,4109.9,4098.26,4086.97,4092.74,4050.66,4122.67,4140.86,4148.44,4182.15,4234.44,4311.5,4387.06,4449.04,4506.67,4560.02,4607.62,4657,4704,4745.77,4780.97,4812.82,4840.36,4864.71,4885.36,4899.42,4907.17,4912.1,4913,4908.31,4900.04,4884.84,4863.13,4839.18,4815.59,4791.66,4764.32,4733.76,4703.36,4674,4645.99,4620.22,4595.48,4563.11,4528.28,4495.68,4455.1,4416.69,4388.5,4337.49,4314.18,4302.73,4270.37,4229.98,4124.83,4057.21,4022.52,3898.03,3892.76,3829.08,3816.8,4001.49,3993.96,3967.17,3966.43,4034.62,4045.42,4120.35,4113.72,4109.36,4134.94,4165.81,4189.24,4195.94,4238.8,4298.93,4370.92,4413.86,4457.46,4504.27,4557.06,4600.91,4669.01,4722.88,4751.99,4778.2,4805.38,4831.77,4858.09,4882.54,4902.71,4918.49,4931.08,4940.48,4943.52,4941.19,4934.5,4921.79,4908.49,4890.76,4870.67,4847.49,4823.99,4799.77,4767,4744.17,4723.53,4703.13,4679.17,4653.45,4633.82,4574.01,4528.1,4483.63,4443.59,4397.85,4352.91,4321.31
4402.08,4414.14,4425.81,4423.14,4435.17,4458.89,4479.54,4503.66,4518.24,4535.53,4555.35,4575.53,4591.34,4605.5,4620.77,4634.21,4649.07,4663.46,4677.86,4695.71,4710.85,4724.72,4735.82,4746.91,4757.02,4765.65,4771.98,4771.26,4760.23,4740.01,4712.69,4681.78,4645.82,4603.14,4550.22,4491.79,4427.7,4368.89,4298.23,4219.29,4151.67,4108.13,4034.11,3896.4,3815.97,3795.16,3810.44,3884.29,3941.53,4011.13,4079.4,4132.15,4184.41,4244.85,4288.79,4338.12,4396.38,4438.83,4471.45,4504.36,4537.82,4570.7,4603.42,4634.99,4660.23,4683.93,4707.98,4733.19,4754.84,4769.13,4780.8,4790.6,4797.96,4805.33,4810.16,4808.76,4806.43,4800.15,4790.44,4777.2,4759.94,4735.21,4702.89,4663.88,4621.91,4570.96,4498.41,4433.54,4341.15,4219.56,4134.62,4007.55,3893.73,3806.33,3709.83,3650.73,3556.42,3475.54,3593.42,3533.73,3348.24,3139.27,3028.22,2968.25,2761.55,2697.61,2733.29,2765.4,2834,2797.05,2822.7,2819.33,2929.3,3137.32,3435.05,3789.6,4066.56,4280.52,4387.91,4460.56,4535.58,4591.13,4642.34,4692.61,4736.19,4772.22,4794.01,4822.47,4843.54,4861.77,4881.38,4893.03,4901.73,4910.73,4915.29,4915.36,4910.23,4899.16,4882.48,4863.92,4839.8,4809.83,4774,4732.49,4687.18,4640.65,4577.88,4506.06,4414.5,4246.62,4138.05,4078.97,4041.9,4032.1,3980.23,3980.8,3963.42,3933.15,3926.15,3928.14,3948.43,3959.71,3942.72,3967.6,4006.65,3979.49,3982.18,3994.92,3936.97,3966.58,3959.34,4033.86,4043.76,4122.94,4231.41,4283.72,4380.29,4512.32,4580.5,4661.39,4718.29,4764.54,4804.71,4837.42,4862.5,4885.73,4901.98,4910.14,4917.48,4918.18,4915.76,4910.51,4903.67,4890.86,4876.11,4858.01,4838.04,4801.37,4762.97,4724.21,4674.94,4626.18,4576.61,4506.12,4454.78,4292.25,4094.83,3960.6,3804.23,3699.99,3508.71,3410.85,3266.61,2983.18,2631.62,2309.82,1861.32,1470.6,1188.24,968.665,825.535,700.257,567.689,499.938,551.52,713.328,991.716,1333.54,1795.36,2284.69,2764.03,3185.72,3494.39,3683.89,3809.83,3851.58,3860.21,3872.93,3876.88,3967.91,4171.67,4364.7,4562.39,4714.99,4794.65,4844.55,4871.71,4892.47,4908.8,4922.23,4933.79,4937.12,4937.23,4932.39,4921.76,4905.65,4886.09,4859.72,4825.52,4787.36,4746.71,4701.36,4652.2,4600.85,4548.86,4496.21,4445.96,4394.85,4351.88,4312.61,4278.94,4262.7,4245.89,4238.99,4236.5,4233.17,4229.69,4243.29,4289.93,4320,4320.5,4271.28,4223.96,4200.88,4182.63,4163.88,4141.48,4102.23,4074.06,4073.87,4099.24,4112.67,4102.08,4092.33,4099.82,4076.04,4137.08,4162.87,4179.11,4223.36,4279.24,4361.83,4440.69,4503.24,4559.75,4610.19,4655.09,4701.68,4745.77,4783.1,4816.13,4846.21,4870.47,4892.03,4910.58,4921.91,4928.32,4929.69,4927.88,4922.58,4911.05,4893.78,4870.42,4845.75,4820.28,4796.35,4768.98,4736.5,4706.08,4677.04,4650.14,4625.18,4601.16,4568.87,4542.45,4495.77,4470.71,4469.51,4444.12,4437.89,4405.42,4390.32,4358.92,4346.47,4286.36,4273.03,4211.83,4182.85,4134.5,4057.18,3989.57,4146.51,4204.86,4201.81,4258.71,4307.97,4323.08,4334.77,4364.66,4377.61,4473.29,4510.2,4515.12,4537.33,4577.33,4619.83,4631.57,4644.73,4659.46,4674.53,4712.53,4735.84,4759.1,4791.01,4816.09,4840.85,4865.57,4890.03,4913.64,4936.03,4952.88,4964.4,4971.79,4976.14,4974.29,4966.28,4953.79,4936.22,4918.53,4897.85,4875.21,4849.15,4818.35,4793.32,4765.02,4736.79,4717.57,4697.78,4678.28,4644.69,4615.32,4563.13,4511.48,4449.86,4401.63,4379.67,4346.75,4328.43
4410.11,4420.93,4432.01,4429.13,4441.25,4464.51,4483.89,4508.63,4523.86,4543.23,4566.69,4589.91,4609.3,4627.14,4644.09,4660.66,4677.22,4692.65,4710.07,4729.29,4745.97,4760.83,4774.02,4785.29,4796.46,4806.06,4815.12,4814.83,4806.95,4789.44,4764.69,4735.25,4703.23,4662.38,4610.71,4553,4492.25,4426.37,4366.44,4306.63,4232.98,4179.47,4107.41,4004.67,3891.51,3866.08,3848.41,3903.12,3938.86,4002.39,4051.73,4114.63,4181.14,4234.79,4279.54,4335.86,4381.89,4429.97,4463.66,4502.66,4538.19,4572.67,4605.86,4639.88,4666.83,4692.71,4719.52,4746.55,4770.37,4787.36,4799.38,4810.41,4820.81,4829.11,4833.08,4831.49,4829.94,4823.99,4815.06,4803.09,4785.91,4763.01,4731,4694.6,4655.93,4607.47,4540.76,4480.68,4414.38,4302.28,4185.89,4094.32,3968.02,3876.07,3776.66,3644.86,3579.56,3534.2,3639.81,3593.5,3462.03,3359.08,3248.35,3146.2,2920.02,2785.4,2842.25,2848.24,2885.82,2876.31,2795.93,2807.21,2884.31,3097.22,3375.38,3675.27,3984.09,4232.19,4367.88,4477.84,4547.07,4603.59,4666,4715.79,4754.64,4787.88,4818.97,4844.44,4867.64,4886.58,4902.14,4914.72,4924.2,4933.31,4939.88,4940.67,4937.14,4927.83,4911.81,4895.99,4873.51,4845.33,4810.04,4771.63,4727.35,4682.62,4633,4576.23,4480.11,4380.71,4269.56,4193.05,4151.48,4123.95,4071.06,4031.12,4009.84,3982.42,3960.9,3966.19,3977.78,3999.94,3961.85,3991.04,4040.23,4040.61,4028.36,4041.87,4006.42,4040.89,4050.96,4098.36,4140.05,4198.08,4251.85,4325.45,4415.17,4525.85,4604.74,4682.05,4740.31,4790.43,4832,4865.79,4890.51,4913.16,4929.84,4938.23,4944.71,4947.23,4944.26,4937.96,4932.14,4919.83,4905.5,4887.38,4866.12,4828.68,4789.01,4745.75,4694.67,4640.33,4588.72,4512.28,4447.06,4293.62,4093,3953.2,3771.72,3677.79,3471.13,3375.54,3228.86,2900.67,2578.8,2235.75,1875.83,1536.27,1265.98,1086.3,901.938,779.165,674.829,711.894,833.204,1082.3,1429.4,1912.96,2453.69,2940.27,3308.89,3613.76,3820.86,3902.57,3948.52,3998.75,4011.59,4018.87,4014.91,4146.2,4265.13,4448.18,4610.47,4754.41,4834,4875.31,4899.25,4917.61,4933.4,4945.88,4957.1,4960.5,4958.63,4952.03,4939.7,4922.97,4901.53,4873.41,4838.57,4798.51,4754.86,4706.9,4655.12,4602,4547.17,4491.21,4435.56,4388.4,4345.83,4308.92,4280.82,4261.42,4250.53,4243.65,4242.84,4241.32,4233.38,4252.37,4304.69,4343.75,4346.16,4296.03,4250.36,4223.39,4202.92,4183.19,4156.57,4114.22,4084.43,4079.26,4100.05,4116.79,4108.47,4101.64,4112.71,4123.78,4160.32,4193.67,4220.02,4273.34,4331.73,4418.87,4500.5,4564.62,4620.58,4667.76,4708.96,4750.86,4790.58,4824.44,4853.76,4879.37,4900.68,4919.49,4934.74,4942.78,4946.16,4945.18,4940.83,4932.83,4919.27,4900.92,4876.87,4849.58,4823.95,4799.33,4771.65,4739.76,4709.42,4679.74,4654.9,4629.29,4601.05,4573.44,4551.23,4527.36,4511.37,4494,4477.61,4455.92,4437.44,4413.59,4427.82,4398.04,4376.97,4368.43,4375.6,4289.54,4245.68,4235.66,4165.73,4280.8,4358.92,4341.42,4394.46,4457.79,4496.65,4545.07,4577.71,4659.92,4695.74,4693.19,4725.53,4755.35,4755.39,4759.22,4764.9,4765.11,4772.46,4773.88,4794.33,4815.94,4836.06,4859.3,4880.19,4900.81,4922.34,4943.81,4965.17,4981.52,4993.84,5001.11,5004.15,5003.29,4995.67,4983.3,4965.73,4944.82,4924.57,4901.72,4876.61,4848.82,4820.34,4795.32,4771.81,4749.09,4731.56,4702.33,4678.75,4653.57,4636.71,4596.6,4538.13,4499.59,4454.5,4423.93,4417.92,4368.3
4418.31,4428.56,4436.27,4432.66,4444.63,4467.38,4484.7,4509.49,4525.64,4548.33,4575.24,4602.58,4623.02,4643.73,4663.44,4682.6,4701.47,4717.46,4737.73,4758.1,4776.67,4793.02,4806.28,4819.53,4830.85,4841.5,4850.27,4852.87,4846.75,4831.2,4811.18,4784.12,4755,4716.76,4667.06,4610.57,4551.63,4494.14,4423.23,4372.8,4314.02,4252.72,4164.48,4063.74,3988.14,3957.46,3897.79,3948.93,3952.75,3983.95,4026.62,4092.06,4134.52,4171.25,4234.89,4311.55,4374.97,4422.2,4457.78,4498.05,4535.31,4570.33,4606.67,4642.18,4671.22,4699.23,4728.24,4757.7,4783.4,4802.12,4816.82,4830.63,4843.11,4850.9,4855.16,4854.65,4853.13,4847.62,4840.92,4830.08,4812.78,4789.96,4759.53,4725.46,4689.46,4644.53,4583.72,4525.2,4450.59,4355.18,4253.18,4152.58,4050.94,3913.25,3813.33,3693.29,3619.94,3582.02,3745.41,3681.6,3588.75,3525.32,3465.53,3352.95,3158.79,2973.99,2913.46,2969.17,3009.42,2981.57,2978.76,3008.46,3048.13,3197.95,3430.18,3747.01,3992.29,4207.73,4353.16,4474.31,4541.11,4607.92,4663.2,4718.2,4761.26,4797.89,4830.19,4859.48,4883.97,4904.73,4922.27,4936.06,4946.97,4957.18,4963.38,4967.11,4963.9,4956.81,4943.4,4928.8,4908.25,4881.04,4849.78,4811.35,4768.24,4725.11,4674.77,4620.88,4543.77,4465.69,4398.88,4321.52,4247.81,4167.77,4120.44,4055.19,4026.61,4001.73,4018.97,4024.08,4008.49,4016.7,4030.19,4027.9,4063.66,4061.36,4043.37,4041.87,4063.02,4084.82,4115.18,4149.02,4197.45,4268.29,4315.36,4399,4479.24,4570.53,4642.55,4703.5,4760.07,4812.54,4856.19,4891.47,4919,4940.68,4958.61,4967.35,4975.4,4976.46,4974.02,4968.54,4963.06,4949.83,4936.86,4918.24,4896.47,4857.95,4815.25,4769.29,4714.63,4657.91,4602.31,4531.52,4444.84,4296.77,4076.1,3876.8,3699.05,3534.42,3450.3,3267.7,2923.48,2685.02,2336.68,1999.9,1597.44,1341.69,1061.93,835.517,737.843,631.064,610.07,727.962,985.983,1310.54,1785.84,2340.49,2827.96,3229.77,3599.54,3843.79,3961.86,3989.62,4011.61,3992.52,4023.09,4077.44,4143.22,4172.55,4340.46,4446.06,4648.02,4810.21,4868.49,4904.79,4926.98,4945.27,4959.58,4971.29,4980.2,4982.68,4979.93,4971.57,4957.76,4939.39,4916.92,4887.8,4852.71,4810.57,4763.96,4712.66,4659.11,4603.1,4546.46,4488.75,4431.11,4383.87,4342.88,4311.79,4279.89,4253.31,4238.85,4233.11,4226.99,4230.4,4231.15,4264.59,4321.89,4360.98,4367.8,4321.87,4271.91,4242.77,4219.31,4197.8,4169.52,4124.01,4092.1,4085.23,4102.27,4123.45,4119.17,4118.99,4134.85,4160.01,4196.15,4238.94,4275.89,4337.26,4399.52,4488.28,4571.6,4636.21,4689.4,4732.63,4769.12,4805.67,4840.49,4870.06,4895.58,4916.58,4934.11,4947.44,4959.08,4963.25,4963,4958.77,4951.1,4940.08,4924.62,4903.86,4878.15,4851.12,4824.87,4799.39,4771.94,4741.87,4711.04,4682.47,4658.46,4633.52,4604.94,4573.61,4552.64,4523.1,4511.84,4475.01,4458.23,4461.09,4448.3,4468.15,4455.37,4429.07,4415.46,4411.66,4406.38,4344.13,4296.94,4266.84,4277.19,4392.94,4427.21,4418.97,4480.58,4572.44,4618.67,4677.45,4738.44,4815.21,4813.27,4837.45,4858.49,4859.19,4850.63,4847.88,4851.52,4852.82,4854.53,4864.63,4874.75,4889.38,4909.13,4926.24,4943.88,4959.15,4975.36,4992.79,5008.67,5020.72,5029.58,5030.47,5028.96,5023.19,5011.38,4993.6,4973.88,4949.81,4926.43,4901.42,4874.13,4844.2,4818.1,4791.8,4769.87,4748.24,4721.84,4692.59,4667.05,4644.54,4619.19,4592.49,4546.23,4529.56,4476.55,4464.02,4431.13,4401.25
4425.94,4433.54,4437.72,4434.75,4445.07,4467.07,4483.09,4506.93,4523.29,4547.52,4579.64,4609.35,4634.12,4655.32,4677.27,4699.12,4719.09,4739.01,4760.08,4780.76,4800.33,4817.29,4831.75,4845.51,4857.59,4869.04,4878.67,4882.6,4878.79,4866.72,4849.13,4826.98,4801.18,4766.36,4720.32,4665.88,4607.76,4551.83,4480.44,4428.5,4371.83,4315.8,4238.73,4169.25,4087.79,4052.85,3975.31,3992.2,3973.11,3999.35,4028.78,4081.15,4124.1,4150.02,4213.2,4277.84,4345.71,4411.76,4451.6,4489.15,4532.75,4571.73,4607.73,4643.68,4676.08,4707.49,4738.97,4770.91,4799.2,4818.83,4835.15,4852.12,4865.6,4875.69,4880.14,4880.14,4878.27,4874.09,4868.43,4857.19,4840.53,4818.78,4789.09,4756.6,4723.35,4681.91,4623.69,4561.9,4494.17,4416.71,4309.79,4205.76,4091.14,3983.79,3842.71,3698.67,3643.75,3607.03,3730.05,3672.13,3627.53,3545.67,3549.03,3491.13,3306.99,3123.25,3007.57,2977.41,2956.45,2923.15,2900.57,2920.86,2961.94,3113.27,3358.52,3663.84,3870.45,4114.15,4282.53,4428.66,4534.96,4605.72,4665.19,4722.24,4769.75,4809.44,4844.21,4874.28,4900.92,4923.7,4940.65,4956.91,4968.66,4979.27,4987.19,4990.85,4988.72,4984.06,4973.48,4960.11,4940.65,4916.15,4886.03,4849.82,4810.18,4767.65,4716.59,4659.75,4594.52,4514.5,4446.49,4383.44,4309.07,4235.43,4157.9,4110.42,4065.27,4007.38,4024.81,4046.73,4024.72,4044.88,4027.41,4040.86,4060.53,4055.33,4061.44,4068.64,4058.41,4090.15,4113.37,4176.99,4237.88,4291.35,4358.89,4422.32,4512.03,4592.44,4661.21,4719.06,4778.83,4834.1,4880.34,4918.37,4946.01,4968.42,4986.04,4996.06,5003.71,5006.65,5004.69,4998.68,4991.93,4980.35,4966.26,4948.02,4924.27,4883.35,4839.58,4790.68,4731.77,4672.3,4613.83,4548.15,4442.69,4286.65,4069.78,3936.47,3700.23,3630.79,3436.6,3146.6,2897.01,2548.63,2076.61,1749.93,1383.52,1058.71,814.923,660.157,587.38,534.435,603.38,792.449,1070.98,1497.35,2022.93,2493.08,3067.41,3461.91,3748.29,3909.1,3942.72,4021.53,4046.03,4007.44,4030.48,4061.11,4144.24,4186.02,4287.85,4418.09,4679.73,4822.65,4900.61,4937.18,4958.62,4974.73,4988.02,4997.64,5004.12,5004.27,5001.07,4990.92,4975.42,4955.28,4932.28,4902.37,4865.25,4821.26,4772.1,4719.16,4662.44,4603.9,4544.96,4485.42,4426.27,4379.17,4335.2,4304.58,4266.96,4253.4,4243.9,4231.31,4221.11,4226.72,4232.83,4269.46,4329.32,4376.38,4385.66,4345.15,4290.87,4258.65,4231.65,4208.93,4178.73,4132.78,4097.27,4090.16,4103.46,4131,4134.17,4142.1,4165.49,4198.87,4244.39,4298.16,4344.93,4413.52,4478.46,4568.49,4652.7,4716.17,4766.65,4805.53,4837.2,4869.41,4898.91,4924.9,4943.44,4959.97,4971.1,4979.55,4986.72,4987.81,4982.2,4974.44,4962.03,4947.71,4930.21,4905.7,4877.55,4849.54,4822.35,4797.25,4770.38,4739.79,4710.42,4681.7,4653.77,4625.85,4599.01,4565.24,4546.98,4522.18,4483.83,4472.28,4463.77,4445.51,4458.55,4448.43,4440.94,4407.72,4440.84,4444.4,4416.64,4338.2,4338.19,4346.76,4360.52,4429.68,4485.57,4509.18,4570.32,4661.69,4713.62,4822.29,4869.42,4893.44,4897,4915.74,4941.09,4936.9,4920.94,4927.42,4927.19,4934.47,4937.89,4941.28,4950.83,4962.75,4975.62,4988.64,5000.38,5010.58,5021.96,5033.94,5044.76,5052.23,5055.15,5051.23,5045.6,5034.24,5017.88,4997.65,4973.16,4946.81,4920.92,4895.08,4865.27,4836.15,4809.43,4784.32,4761.89,4738.97,4712.41,4692.26,4666.31,4635.23,4598.27,4585.61,4547.82,4530.87,4505.5,4483.71,4444.23,4427.23
4429.52,4436.42,4437.32,4433.27,4442.19,4461.59,4475.41,4499.65,4515,4541.13,4576.65,4609.3,4636.23,4660.33,4683.64,4707.41,4729.91,4750.38,4773.9,4796.58,4817.5,4835.34,4851.13,4865.41,4878.72,4890.83,4901.81,4907.45,4906.89,4898.47,4884.38,4866.28,4845.31,4813.66,4771.45,4719.71,4663.9,4609.66,4547.44,4493.16,4434.24,4366.2,4317.24,4251.03,4175.22,4097.86,4058.66,4077.39,4048.57,4003.29,4045.12,4082.97,4087.36,4163.64,4215.4,4276.11,4337.74,4398.08,4437.42,4484.83,4527.62,4568.36,4606.42,4644.87,4679.01,4713.03,4747.76,4782.18,4811.67,4834.29,4852.27,4871.86,4888.69,4899.93,4905.7,4906.38,4904.93,4901.96,4896.83,4887,4870.15,4848.54,4820.3,4788.64,4757.29,4719.09,4666.93,4603.14,4536.7,4452.57,4376.94,4227.77,4107.87,3999.67,3870.32,3763.72,3699.14,3631.45,3748.09,3733.94,3667.77,3623.31,3656.74,3591.38,3450.27,3330.16,3182.26,3083.93,3004.65,2917.14,2798.67,2796.05,2839.28,3023.2,3202.27,3484.49,3743.24,3990.02,4213.85,4390.16,4508.14,4600.67,4669.6,4728.4,4779.96,4821,4858.39,4890.14,4918.19,4941.21,4959.1,4975.66,4989.46,5000.5,5009.26,5012.76,5013.51,5009.53,5002.13,4990.28,4972.18,4951.2,4923.69,4889.19,4849.28,4808.4,4756.56,4697.45,4630.3,4556.94,4498.5,4426.21,4347.78,4252.73,4192.49,4147.49,4119.31,4100.18,4063.62,4076.99,4055.4,4062.61,4025.96,4053.75,4072.96,4073.39,4078.81,4085.76,4052.49,4096.01,4117.69,4185.38,4242.58,4298.59,4353.61,4433.65,4516.15,4603.45,4675.64,4734.51,4796.58,4855.05,4902.67,4943.18,4972.11,4994.27,5012.78,5023.09,5032.06,5034.14,5032.2,5026.29,5021.22,5008.93,4996.41,4978.04,4952.89,4910.76,4863.91,4811.53,4750,4683.04,4620.65,4546.69,4449.29,4295,4088.95,3868.81,3699.9,3640.29,3516.3,3238.61,3021.55,2575.66,2236.85,1822.05,1469.2,1147.75,964.225,839.406,791.429,832.361,1025.37,1299.89,1732.51,2143.61,2693.52,3161.04,3555.84,3825.19,3936.9,4007.98,4041.01,4120.44,4149.34,4167.54,4211.19,4234.44,4303.24,4391,4493.2,4657.15,4785.86,4907.81,4939.56,4970.88,4990.36,5004.97,5016.53,5023.43,5028.44,5027.61,5022.72,5009.49,4993.73,4971.35,4946.87,4915.55,4878.36,4831.89,4779.93,4723.85,4665.96,4605.35,4543.71,4481.56,4421.49,4370.41,4332.3,4299.33,4266.99,4254.36,4237.05,4228.66,4220.79,4229.69,4239.1,4279.28,4334.38,4393.5,4399.41,4367.48,4306.22,4271.12,4241.55,4218.16,4186.32,4139.18,4102.86,4095.65,4106.12,4139.18,4152.47,4169.12,4200.79,4244.87,4299.94,4364.8,4421.51,4496.53,4562.62,4653.36,4736.06,4799.37,4846.05,4880.84,4909.56,4936.51,4960.15,4978.86,4993.5,5003.86,5010.75,5013.82,5015.89,5013.12,5004.78,4991.21,4975.04,4956.1,4934.67,4907.06,4876.96,4847.88,4819.39,4794.68,4766.51,4737.6,4708.04,4675.37,4652.35,4614.72,4583.88,4551.6,4513.3,4488.5,4447.58,4428.9,4394.41,4397.08,4399.12,4390.83,4390.39,4425.27,4423.89,4415.29,4444.84,4399.49,4414.55,4423.71,4433.2,4489.54,4559.45,4638.77,4691.13,4764.28,4834.09,4886.71,4936.48,4952.52,4982.66,5002.44,5000.83,5005.59,5002.75,5002.25,5004.33,5007.75,5009.85,5012.59,5018.24,5026.18,5035.5,5044.18,5050.04,5056.68,5063.9,5070.43,5075.4,5077.94,5075.94,5068.81,5058.51,5041.92,5021.03,4996.72,4970.17,4940.43,4914.33,4886.07,4854.25,4826.31,4800.95,4778.06,4752.86,4731.77,4691.77,4671.38,4645.96,4596.24,4567.77,4541.24,4513.24,4472.81,4430.17,4432.45,4412.78,4391
4430.72,4435.44,4433.02,4429.39,4437.04,4453.65,4464.1,4488.22,4503.35,4529.54,4569.29,4604.09,4633.52,4660.4,4685.35,4711.3,4734.8,4759.58,4785.15,4809.89,4831.61,4850.7,4867.08,4882.54,4897.3,4910.77,4922.83,4931.13,4932.15,4926.96,4917.07,4903.15,4884.58,4857.72,4818.8,4770.78,4718.52,4664.82,4611.18,4548.21,4487.61,4423.29,4362.62,4299.76,4227.1,4172.03,4151.19,4125.86,4112.07,4052.9,4075.03,4109.54,4138.62,4173.54,4238.74,4285.21,4334.56,4383.51,4428.48,4471.85,4520.42,4559.04,4598.31,4640.84,4679.3,4715.73,4753.02,4789.59,4821.5,4845.25,4866.96,4889.83,4908.95,4921.96,4928.7,4930.93,4930.49,4928.86,4924.32,4915.62,4900.06,4879.29,4852.59,4821.74,4792.04,4754.75,4704.56,4647.48,4582.09,4522.05,4409.06,4295.1,4171.98,4080.13,3974.91,3857.66,3799.55,3761.58,3835.16,3846.67,3755.54,3716.16,3716.77,3709.06,3599.51,3523.53,3406.03,3239.07,3136.99,2948.5,2801.26,2798.55,2790.04,2955.4,3162.21,3399.88,3671.11,3911.11,4124.81,4335.63,4479.72,4591.79,4674.19,4735.17,4788.79,4834.19,4871.48,4904.37,4935.83,4959.33,4977.72,4994.85,5009.06,5021.29,5030.38,5036.14,5037.65,5035.99,5029.78,5019.73,5004.58,4984.46,4960.04,4928.38,4890.83,4850.01,4798.72,4737.34,4673.08,4592.44,4537.81,4449.29,4377.22,4303.46,4217.59,4164.96,4139.76,4094.76,4062.21,4071.98,4043.06,4039.6,4018.4,4046.45,4063.84,4042.53,4053.15,4057.34,4053.22,4055.2,4097.98,4152.9,4220.69,4263.36,4360.67,4438.34,4534.88,4614.15,4688.1,4748.94,4818.57,4874.08,4924.7,4966.96,4998.54,5020.89,5038.71,5048.91,5058.92,5061.37,5060.97,5054.59,5047.93,5036.43,5024.35,5005.04,4979.46,4935.92,4886.52,4831.12,4766.83,4702.19,4641.59,4578,4487.4,4315.14,4113.59,3941.88,3787.82,3686.32,3547.95,3395.21,3116.22,2695.48,2332.36,1914,1558.14,1230.96,1088.19,944.834,1032.63,1252.71,1476.17,1861.41,2347.24,2807.74,3254.25,3538.23,3860.02,3987.61,4058.19,4121.16,4141.86,4204.93,4247.03,4303.41,4340.23,4367.94,4428.41,4530.07,4650.33,4767.61,4857.03,4941.1,4979.15,5004.32,5023.05,5035.8,5045.97,5049.53,5052.62,5049.34,5043.56,5030.19,5012.91,4988.28,4961.92,4928.63,4889.8,4840.54,4786.14,4727.33,4668.07,4604.82,4542.77,4478.16,4421.94,4371.19,4337.44,4301.88,4274.67,4254.81,4245.58,4238.08,4235.08,4242.68,4249.4,4290.43,4348.51,4401.14,4407.76,4380.97,4318.46,4280.14,4248.45,4224.04,4192.62,4146.42,4108.07,4101.97,4112.23,4150.56,4173.22,4200.29,4243.08,4297.36,4362.44,4437.48,4502.65,4579.92,4647.54,4736.57,4816.27,4876.96,4921.87,4953.24,4978.99,5000.49,5018.32,5032.2,5041.41,5046.36,5047.91,5047.82,5045.24,5037.57,5025.25,5007.54,4986.11,4963.72,4939.54,4908.76,4875,4844.69,4815.6,4788.75,4761.75,4733.33,4704.87,4667.41,4642.9,4596.78,4565.97,4522.91,4487.92,4442.91,4407.24,4388.16,4386.65,4365.55,4369.39,4351.4,4397.69,4407.92,4433.8,4433.7,4447.03,4433.88,4464.12,4491.05,4542.3,4595.66,4659.97,4717.35,4776.49,4855.25,4906.36,4949.63,4989.91,5025.29,5040.27,5054.65,5061.37,5064.33,5064.22,5070.31,5074.78,5077.72,5079.91,5079.94,5082.38,5086.39,5090.87,5094.92,5096.6,5098.38,5100.4,5101.82,5102.85,5100,5094.3,5081.49,5066.96,5045.01,5019.81,4992.23,4962.66,4931.01,4902.78,4873.24,4842.16,4814.22,4791.96,4771.43,4726.47,4709.82,4670.35,4630.01,4582.1,4545.25,4507.19,4454.75,4430.33,4433.55,4400.52,4367.72,4385.79,4343.29
4431.07,4433.31,4427.89,4423.86,4429.74,4442.59,4450.62,4474.1,4487.98,4516.21,4559.03,4595.85,4628.96,4656.87,4684.34,4712.4,4737.55,4766.11,4794.04,4820.39,4842.56,4862.9,4879.82,4896.34,4912.26,4928.33,4941.27,4950.85,4954.8,4954.54,4948.29,4939.47,4925.06,4903.02,4869.03,4824.05,4775.99,4724.77,4670.69,4613.79,4546.4,4478.69,4420,4370.67,4320.77,4241.92,4203.28,4173.32,4146.03,4108.33,4119.15,4109.31,4173.72,4173.16,4214.5,4266.69,4333.56,4376.57,4402.99,4450.76,4504.54,4547.73,4587.86,4627.65,4672.78,4711.58,4752.07,4791.26,4824.41,4851.92,4876.57,4901.16,4924.53,4940.44,4949.32,4952.93,4953.23,4953.25,4950.43,4943.61,4929.35,4910.01,4884.73,4856.65,4826.73,4790.66,4742.74,4688.09,4630.92,4570.89,4504.37,4398.25,4284.27,4195.3,4091.63,4015.75,3925.65,3874.52,3936.06,3884.09,3838.23,3812.75,3774.15,3775.32,3732.97,3647.05,3539.3,3431.89,3279.83,3052.25,2790.42,2666.53,2674.29,2835.78,3065.76,3266.44,3533.41,3819.9,4053.36,4237.44,4438.59,4573.32,4665.41,4738.22,4799.65,4845.87,4885.07,4919.86,4952.38,4975.96,4993.95,5013.2,5028.1,5040.97,5049.9,5056.95,5060.71,5060.31,5055.48,5047,5032.21,5015.25,4991.73,4962.42,4927.42,4888.73,4833.87,4773.38,4707.17,4634.02,4551.31,4483.51,4386.16,4317.54,4241.24,4178.09,4135.03,4098.49,4099.85,4087.91,4063.71,4055.12,4032.09,4016.08,4040.51,4013.39,4004.98,4002.86,3990.43,4019.83,4055.42,4095.94,4166.6,4235.73,4313.3,4423.2,4540.28,4608.46,4702.04,4765.31,4836.47,4893.72,4946.84,4990.22,5022.82,5044.02,5064.03,5075.43,5085.41,5088.69,5087.61,5081.4,5073.88,5062.86,5050.15,5030.33,5003.69,4958.52,4907.04,4849.19,4782.51,4714.44,4652.7,4578.35,4506.98,4328.14,4136.24,3960.22,3797.8,3654.81,3573.25,3363.18,3100.72,2782.88,2424.2,1988.73,1558.35,1353.82,1239.8,1258.68,1520.5,1808.87,2104.32,2559.82,2990.14,3335.98,3639.52,3809.42,3933.98,4027.85,4079.63,4151.9,4224.87,4249.86,4297.99,4338.32,4432.86,4493.59,4555.08,4639.13,4728.17,4815.86,4921.16,4981.38,5014.98,5039.49,5055.88,5067.17,5074.64,5076.25,5075.82,5072,5064.19,5049.28,5029.85,5004.15,4975.8,4934.24,4896.13,4844.63,4788.98,4727.85,4665.52,4598.96,4535.38,4469.94,4412.55,4366.22,4329.37,4300.68,4278.23,4260.32,4247.65,4237.39,4230.95,4239.61,4243.3,4272.21,4328.2,4379.5,4408.36,4386.07,4324.12,4282.27,4249.71,4225.52,4194.29,4150.05,4111.63,4106.94,4117.21,4160.22,4193.38,4231.55,4285.81,4350.99,4426.12,4511.16,4585.09,4663.66,4732.08,4817.21,4895.25,4955.09,4995.5,5023.33,5044.93,5060.87,5072.47,5082.69,5086.85,5087.56,5083.39,5078.69,5072.17,5060.8,5044.4,5021.79,4996.85,4969.49,4941.74,4907.37,4872.83,4838.34,4809.23,4780.4,4754.62,4728.26,4695.44,4664.03,4626.02,4599.94,4557.16,4514.43,4484.31,4422.46,4408.14,4392.2,4368.17,4341.12,4365.91,4372.66,4427.63,4450.82,4444.41,4470.25,4509.84,4507.26,4548.6,4569.06,4624.11,4682.38,4762.46,4793.09,4874.24,4925.92,4965.02,5009.09,5041.07,5070.14,5092.11,5102.2,5111.07,5121.29,5124.97,5129.55,5132.76,5137.85,5138.92,5136.89,5136.71,5137.75,5138.64,5139.13,5137.64,5135.27,5132.99,5130.33,5126.54,5116.34,5105.69,5090.29,5070.18,5043.46,5015.27,4983.62,4950.79,4918.19,4888.34,4857.32,4826.74,4801.29,4771.9,4731.2,4685.94,4658.74,4613.66,4566.69,4555.01,4510.77,4460.77,4420.24,4379.97,4359.12,4363.49,4339.71,4324.61,4321.77
4429.2,4428.83,4420.46,4415.67,4418.26,4429.66,4437.19,4458.42,4471.18,4498.96,4544.99,4584.05,4618.94,4650.19,4679.99,4710.01,4738.04,4768.08,4798.81,4826.15,4851.42,4870.94,4888.74,4906.41,4924.81,4941.42,4956.76,4967.57,4975.24,4977.67,4975.86,4972.44,4962.88,4944.69,4915.17,4875.8,4831.97,4784.11,4731.6,4672.83,4604.96,4542.18,4475.34,4408.87,4362.81,4319.61,4256.58,4243.85,4199.82,4167.73,4163.24,4128.32,4168.77,4186.42,4216.03,4269.59,4317.8,4368.16,4404.92,4447.42,4497.1,4542.21,4583.02,4624.58,4667.09,4708.51,4750.9,4792.13,4828.84,4857.6,4886.05,4914.13,4939.97,4958.15,4967.88,4974.65,4977.56,4978.71,4976.26,4971.09,4958.82,4941.36,4917.06,4890.8,4862.81,4828.38,4783.11,4730.17,4671.72,4614.66,4545.56,4472.12,4401.99,4314.08,4201.46,4127.79,4023.02,3978.46,4009.72,3970.92,3933.49,3870.45,3838.11,3865.14,3823.83,3754.9,3720.68,3613.68,3506.8,3283.86,3005.56,2876.12,2806.05,2894.57,3069.43,3356.75,3562.5,3831.18,4010.41,4254.68,4408.76,4545.59,4650.45,4716.81,4784.1,4842.07,4891.37,4922.1,4960.9,4991.46,5010.33,5029.67,5045.62,5058.47,5067.81,5075.71,5080.05,5080.58,5076.83,5069.24,5057.77,5039.83,5018.88,4990.94,4956.78,4918.83,4866.41,4803.38,4735.48,4664.77,4585.61,4522.33,4410.97,4331.32,4272.7,4193,4153.46,4133.93,4146.13,4112.81,4067.5,4058.34,4048.06,4019.67,4069.78,4036.76,4026.96,3991.57,3956.48,4014.54,4035.17,4074.57,4148.36,4199.04,4317.07,4428.7,4545.82,4625.46,4709.4,4784.41,4853.52,4913.67,4967.25,5014.12,5046.29,5068.13,5088.07,5099.75,5110.46,5113.03,5111.63,5104.48,5097.81,5086.22,5074.2,5053.53,5025.29,4979.83,4927.25,4868.21,4798.62,4730.66,4666.42,4595.84,4512.21,4319.28,4135.3,3966.49,3815.98,3790.39,3674.89,3464.29,3225.65,2941.91,2502.52,2192.07,1868.07,1654.32,1640.18,1861.15,2182.94,2473.99,2872.45,3247.62,3485.18,3697.04,3793.51,3889.76,3940.56,4043.97,4094.05,4184.56,4215,4270.52,4312.29,4376.62,4460.25,4556.31,4629.53,4718.49,4827.9,4903.2,4971.92,5017.95,5051.68,5074.52,5090.99,5099.12,5105.3,5104.77,5101.98,5095.01,5084.84,5068.96,5048.16,5019.44,4988.19,4949.15,4902.78,4849.18,4790.04,4727.74,4662.67,4595.56,4528.94,4462.36,4405.64,4360.48,4324.79,4296.05,4271.79,4261.76,4255.32,4249.32,4238.76,4239.71,4260.38,4275.16,4324.48,4382.87,4401.45,4383.99,4323.58,4278.43,4245.68,4222.26,4193.27,4152.44,4114.52,4111.56,4123.07,4168.2,4211.53,4262.25,4327.75,4402.13,4487.34,4580.92,4663.65,4744.04,4812.43,4895.58,4970.11,5025.64,5063.83,5088.05,5105.01,5116.27,5123.01,5128.89,5128.43,5125.42,5118.08,5109.13,5098.79,5084.56,5064.33,5038.35,5008.02,4977.88,4946.97,4909.67,4872.41,4837.33,4806.22,4776.56,4750.63,4727.03,4695.44,4655.28,4627.29,4610.66,4575.28,4546.89,4506.49,4463.83,4420.97,4400.43,4379.45,4356.93,4383.71,4406.17,4481.27,4512.1,4546.89,4578.46,4631.15,4612.95,4663.86,4705.49,4738.67,4825.89,4865.36,4930.93,4961.52,5007.73,5029.63,5064.5,5093.18,5114.17,5135.63,5151.71,5156.47,5168.66,5174.49,5181.06,5184.62,5189.02,5189.88,5187.76,5184.84,5183.41,5180.88,5177.92,5172.76,5167.58,5162.03,5153.69,5143.31,5129.54,5113.8,5094.88,5069.95,5039.98,5006.99,4972.92,4938.82,4905.22,4874.92,4845.05,4815.05,4781.34,4740.23,4700.32,4646.05,4602.41,4533.34,4517.25,4466.98,4450.23,4395.9,4364.6,4331.83,4310.58,4288,4313.25,4269.55,4247.44
4426.51,4423.18,4411.82,4406.21,4407.6,4416.61,4421.24,4442.05,4453.73,4481.21,4529.26,4570.39,4606.74,4640.42,4673.44,4705.89,4737.23,4768.57,4801.47,4831.13,4856.57,4877.5,4896.69,4914.76,4934.36,4952.45,4968.11,4981.25,4991,4996.81,5000.04,5001.34,4996.11,4981.97,4957.4,4922.91,4882.69,4839.23,4786.94,4728.15,4659.59,4591.23,4526.8,4458.4,4404.63,4344.13,4309.52,4275.93,4234.05,4201.66,4172.08,4143.02,4154.64,4178.68,4189.23,4234.8,4288.54,4341.76,4384.77,4427.28,4480.76,4531.73,4574.06,4616.54,4659.98,4704.15,4747.76,4791.98,4830.85,4863.32,4893.47,4925,4952.82,4973.21,4985.83,4994.74,4999.56,5001.51,5000.92,4997.14,4986.44,4971.03,4950.38,4925.77,4898.96,4866.02,4823.73,4775.02,4724.81,4665.05,4597,4536.2,4465.66,4401.35,4294.07,4213.97,4121.23,4021.94,4091.38,4012.53,4002.39,3925.75,3913.6,3899.15,3841.5,3838.54,3785.32,3747.98,3661.13,3508.76,3262.55,3048.54,2926.82,2911.48,3090.65,3342.01,3619.82,3858.83,4052.56,4282.44,4418.09,4549.71,4648.89,4719,4788.9,4849.16,4900.38,4942.75,4976.38,5003.85,5023.41,5042.49,5059.45,5073.06,5083.14,5091.91,5097.78,5099.26,5095.85,5088.9,5077.07,5061.4,5040.66,5014.64,4982.49,4945.1,4892.11,4829.73,4762.14,4690.69,4616.6,4539.17,4456.1,4374.66,4296.99,4227.55,4171.58,4127.33,4098.59,4118.96,4101.56,4056.38,4043.29,4049.76,4046.16,4026.41,4023.24,3992.88,3978.19,4000.43,4030.16,4082.01,4176.55,4235.5,4319.91,4427.75,4565.32,4655.2,4731.46,4802.45,4868.15,4930.38,4988.22,5033.24,5068.03,5089.36,5108.85,5122.11,5134.03,5135.93,5133.52,5127,5119.34,5107.56,5094.51,5074.41,5045.96,4998.65,4945.61,4885.33,4815.95,4746.6,4682.14,4611.6,4519,4295.62,4092.37,3933.19,3761.22,3653.62,3509.75,3306.2,2951,2565.9,2100.89,1743.03,1504.38,1387.4,1547.67,1815.44,2084.47,2473.72,2788.48,3232.56,3487.82,3670.93,3741.44,3761.64,3832.61,3932.84,3980.41,4050.82,4129.33,4160.12,4264.98,4310.81,4366.02,4465.67,4600.65,4742.81,4848.66,4932.14,5013.03,5059.6,5093.19,5114.07,5128.27,5135.37,5138.25,5134.94,5130.02,5120.58,5107.59,5088.97,5064.63,5034.6,5000.01,4955.43,4905.85,4847.83,4786.87,4722.16,4655.07,4585.86,4518,4451.81,4395.54,4351.24,4317.74,4280.94,4253.47,4253.33,4248.01,4242.75,4236.15,4241.85,4246.5,4275.65,4320.31,4375.9,4389.8,4375.9,4318.98,4271.56,4238.33,4216.13,4189.03,4151.26,4115.75,4114.44,4127.82,4172.38,4225.34,4287.21,4364.42,4447.23,4541.79,4644.79,4735.92,4816.61,4889.54,4970.86,5040.08,5092.8,5125.9,5147.26,5158.86,5164.56,5168.27,5168.94,5166.66,5159.2,5148.76,5136.12,5123.57,5106.71,5082.96,5051.98,5016.99,4983.45,4948.4,4909.12,4870.59,4833.9,4799.21,4769.9,4744.66,4722.25,4691.85,4654,4627.13,4619.69,4594.11,4565.96,4539.96,4505.47,4465.62,4443.26,4432.4,4405.97,4441.57,4487.73,4545.14,4567.24,4631.09,4674.91,4720.06,4749.25,4819.19,4846.87,4897.04,4956.48,4986.88,5017.72,5041.18,5062.93,5092.75,5117.97,5138.12,5158.13,5178.23,5193.62,5204.57,5213.58,5220.92,5225.75,5229.84,5232.52,5233.96,5230.42,5225.91,5222.59,5216.88,5210.01,5203.21,5195.49,5186.1,5172.81,5157.39,5138.43,5117.87,5095.39,5066.89,5033.15,4997.53,4961.29,4927.76,4893.33,4864.57,4829.13,4796.01,4756.25,4727.89,4669.51,4627.48,4605.17,4546.17,4489.81,4485.67,4442.28,4408.42,4357.67,4334.56,4324.55,4288.86,4268.01,4268.73,4268.38
4421.08,4415.36,4402.39,4396.55,4395.12,4400.52,4404.06,4422.49,4433.02,4460.69,4509.83,4552.62,4592.38,4628.81,4664.58,4698.66,4732.7,4767.19,4802.39,4834.73,4860.85,4882.42,4902.56,4922.54,4942.22,4961.52,4979.2,4991.94,5004.33,5013.25,5020.02,5024.62,5021.96,5013.1,4994,4964.21,4928.05,4888.18,4839.35,4779.86,4711.69,4641.85,4571.94,4506,4435.03,4387.56,4347.89,4320.19,4276.79,4259.91,4214.6,4171.34,4177.21,4164.49,4193.03,4236.94,4269.16,4307.72,4369.5,4418.9,4472.78,4523.27,4565.79,4608.71,4654.48,4700.17,4743.84,4790.02,4831.58,4866.06,4899.65,4933.53,4963.93,4986.09,5001.89,5012.62,5019.87,5023.5,5023.53,5021.9,5013.33,5000.33,4982.12,4960,4933.41,4902.68,4862.72,4818,4770.5,4714.24,4660.6,4597.49,4534.32,4452.95,4370.68,4298.06,4210.4,4111.24,4133.57,4084.47,4021.61,3963.53,3981.53,3967.97,3870.34,3849.51,3794.5,3818.09,3735.11,3626.66,3462.24,3243.95,3041.43,3002.96,3169.62,3376.39,3661.01,3845.51,4017.07,4263.26,4408.91,4569.1,4671.56,4747.64,4816.82,4870.19,4912.67,4950.68,4986.98,5015.96,5037.12,5056.36,5073.6,5086.88,5098.23,5108.01,5113.19,5116.07,5114.58,5107.07,5096.19,5080.93,5061.17,5036.42,5004.13,4965.92,4913.01,4852.04,4783.78,4710.63,4640.48,4561.4,4497.46,4431.96,4338.99,4261.12,4213.31,4194.73,4168.6,4158.55,4160,4154.57,4140.76,4135.84,4107.17,4076.52,4091.07,4074.13,4050.37,4056.51,4056.3,4099.13,4226.34,4262.7,4338.79,4453.46,4580.72,4656.43,4735.2,4806.69,4877.23,4941.62,5004.91,5052.93,5086.12,5108.97,5128.11,5140.72,5151.49,5154.57,5153.19,5145.26,5136.69,5123.51,5111.25,5090.6,5060.62,5014.61,4961.15,4900.48,4829.39,4760.19,4696.92,4630.44,4533.8,4359.6,4157.1,4047.19,3893.84,3885.1,3689.2,3413.96,3046.27,2583.52,2155.91,1805.83,1667.4,1726.33,1918.61,2238.58,2535.26,2861.96,3245.13,3550.44,3714.81,3768.28,3827.9,3873.33,3906.41,3971.96,4002.74,4070.16,4123.79,4184.16,4232.17,4343.27,4444.57,4536.72,4636.14,4768.36,4890.9,4987.2,5058.85,5100.7,5131.75,5151.36,5162.61,5169.17,5169.18,5164.52,5156.93,5144.42,5128.11,5107.48,5080.47,5048.83,5009.21,4961.35,4906.06,4845.07,4780.35,4713.04,4645.21,4574.2,4506.53,4441.13,4382.6,4340.75,4298.09,4271.41,4249.49,4242.55,4236.76,4231.65,4225.18,4217.86,4230.09,4255.83,4311.19,4355.17,4372.33,4362.16,4309.35,4261.61,4228.84,4206.35,4181.73,4149.41,4116.1,4117.11,4130.35,4172.42,4234.71,4305.51,4393.21,4485.93,4589.44,4700.68,4798.54,4885.36,4959.99,5038.21,5105.55,5152.01,5180.72,5198.13,5204.81,5206.65,5206.98,5204.64,5199.93,5189.55,5175.58,5160.84,5144.67,5125.79,5100.02,5064.38,5024.89,4987.33,4950.71,4910.06,4869.55,4831.83,4795.94,4765.97,4742.86,4717.27,4693.85,4661.82,4640.36,4625.7,4602.99,4572.52,4528.88,4508.88,4493.37,4481.78,4482.48,4488.11,4513.12,4537.73,4589.36,4628.73,4687.45,4753.39,4826.63,4872.28,4917.56,4956.5,4990.96,5025.66,5053.02,5067.04,5091.9,5116.14,5137.84,5158.98,5176.33,5194.51,5213.94,5228.45,5240.62,5248.93,5257.52,5263.24,5267.18,5269.45,5271.36,5266.57,5262.57,5255.53,5249.15,5241.43,5232.57,5221.52,5208.04,5189.69,5169.07,5144.97,5121.2,5094.08,5062.63,5027.14,4989.56,4953.77,4919.4,4887.16,4853.62,4821.26,4794.53,4775.52,4732.18,4699.5,4639.19,4620.91,4585.05,4536.21,4485.37,4436.19,4378.31,4374.45,4348.9,4339,4311.35,4290.63,4269.31,4251.15
4414.33,4405.75,4391.83,4385.79,4381.19,4384.23,4387.2,4401.77,4412.35,4441.95,4492.75,4536.61,4578.07,4617.5,4656.47,4693.8,4729.31,4767.29,4805.1,4839.55,4867.12,4889.25,4909.93,4930.42,4951.77,4972.12,4989.7,5003.71,5016.51,5026.94,5035.58,5042.87,5043.83,5037.91,5023.45,4998.34,4966.54,4930.58,4883.52,4824.94,4753.3,4689.49,4622.78,4560.97,4497.17,4427.9,4380.88,4344.32,4316.14,4301.13,4261.23,4227.5,4207.33,4172.86,4195.15,4213.62,4234.12,4291.38,4339.68,4403.85,4465.83,4514.59,4557.6,4600.41,4645.99,4691.43,4735.45,4783.19,4826.84,4864.06,4899.9,4936.2,4968.94,4995.11,5013.1,5027.22,5036.92,5042.01,5045.53,5044.74,5037.83,5028.22,5013.31,4991.74,4969.06,4939.55,4902.27,4861.18,4818.02,4769.21,4709.7,4652.74,4586.5,4527.08,4427.5,4375.14,4276.84,4188.83,4177.76,4122.25,4046.94,3990.02,4019.88,3970.06,3923.25,3893.58,3826.4,3828.26,3805.34,3767.67,3649.44,3507.13,3335.05,3269.75,3317.34,3538.54,3739.57,3960.93,4133.57,4277.69,4408.55,4562.91,4675.79,4747.06,4817.78,4873.54,4919.17,4958.66,4994.89,5025.83,5048.97,5068.96,5086.66,5100.98,5113.03,5123.02,5130.31,5133.61,5131.77,5125.28,5114.73,5101.4,5082.9,5058.41,5026.34,4987.05,4936.49,4875.19,4807.23,4733.54,4663.25,4597.08,4531.56,4440.6,4366.79,4306.92,4269.94,4210.59,4204.02,4209.15,4179.31,4193.53,4167.17,4154.62,4177.67,4144,4128.81,4112.23,4115.33,4126.73,4157.21,4131.27,4243.75,4296.14,4382.77,4475.91,4595,4677.73,4747.63,4819.78,4887.82,4953.03,5019.58,5067.44,5101.63,5124.18,5145.02,5156.67,5167.27,5170.93,5168.91,5161.15,5151.03,5138.17,5125.91,5104.81,5073.64,5027.07,4973.44,4912.52,4842.54,4773.19,4708.95,4638.55,4547.36,4416.4,4233.03,4158.34,4013.35,3949.8,3789.59,3414.69,3009.52,2497.2,2068.55,1840.11,1869.98,1956.78,2215.71,2480.73,2824.58,3220.15,3469.89,3712.44,3830.75,3877.86,3905.94,3898.99,3931.18,3977.6,4002.06,4056.86,4084.29,4145.17,4201.4,4298.11,4411.65,4523.92,4666.78,4789.7,4918.82,5034.86,5097.58,5138.89,5167.98,5184.91,5194.45,5199.64,5197.81,5190.49,5181.32,5165.07,5145.72,5122.64,5093.6,5060.22,5017.15,4963.17,4901.97,4837.09,4770.76,4703.27,4633.05,4561.88,4492.33,4424.37,4369.11,4328.85,4287.83,4270.81,4244.69,4234.35,4224.58,4219.1,4212.77,4217.03,4225.76,4251.97,4285.7,4335.9,4352.69,4342.97,4295.87,4246.87,4216,4194.42,4171.51,4144.28,4114.9,4116.46,4131.5,4170.34,4238.96,4317.63,4414.4,4510.47,4628.4,4746.14,4853.52,4947.58,5023.57,5102.91,5164.92,5207.87,5231.62,5242.92,5246.81,5245.5,5241.84,5236.83,5228.27,5216.27,5200.41,5183.18,5163.96,5141.83,5111.14,5071.72,5029.42,4989.56,4950.86,4909.5,4868.67,4829.45,4792.97,4763.02,4743.35,4721.01,4691.18,4660.86,4640.69,4611.46,4584.73,4556.56,4514.94,4492.53,4481.21,4492.88,4489.49,4495.19,4533.37,4556.63,4592.08,4669.84,4735.07,4799.32,4878.35,4936.25,4969.26,5034.59,5064.49,5104.13,5119.64,5134.77,5154.77,5170.89,5187.61,5206.28,5221.63,5237.39,5253.04,5267.09,5277.98,5287.54,5294.6,5299.33,5302.77,5304.56,5303.08,5299.37,5294.17,5287.41,5278.78,5269.37,5258.34,5244.23,5227.65,5205.21,5180.54,5152.27,5123.79,5093.95,5060.24,5021.04,4982.77,4945.92,4914.34,4884.03,4853.54,4818.39,4798.13,4774.13,4736.4,4695.93,4664.75,4626.78,4582.88,4548.83,4492.97,4438.33,4386.38,4370.17,4367.27,4353.97,4303.58,4293.26,4280.41,4281.97
4405,4393.54,4379.04,4372.68,4367.28,4366.79,4369.52,4381.08,4390.4,4421.43,4474.54,4518.63,4562.84,4604.15,4646.05,4685.46,4724.84,4765.23,4807.79,4844.3,4871.84,4896.13,4917.68,4940.39,4962.36,4983.07,5000.14,5015.6,5029.42,5041.17,5051.71,5062.08,5065.29,5060.34,5050.38,5028.51,5002.6,4971.33,4926.27,4870.62,4808.69,4740.81,4671.77,4608.11,4538.67,4484.42,4424.81,4389.74,4356.5,4345.82,4318.69,4289.37,4259.98,4233.89,4223.17,4222.63,4266.23,4303.07,4345.28,4389.7,4449.93,4497.7,4544.4,4585.29,4635.03,4678.53,4722.59,4769.75,4814.83,4854.23,4894.01,4932.85,4968.84,4996.2,5018.61,5037.78,5050.51,5058.37,5063.96,5065.06,5062.59,5054.8,5043.04,5025.09,5005.12,4976.92,4944.08,4906.81,4868.17,4823.13,4770.58,4715.46,4654.54,4590.57,4498.79,4432.5,4342.91,4251.87,4215.41,4156.5,4031.4,4011.69,3992.35,3975.93,3886.5,3815.97,3798.88,3785.23,3742.87,3709.97,3673.75,3586.69,3419.01,3267.88,3336.69,3460.98,3661.42,3842.5,4031.84,4225.6,4390.3,4530.61,4664.87,4744.36,4816.87,4875.11,4922.06,4963.05,5001.78,5034.4,5058.93,5081.26,5099.27,5115.33,5127,5137.43,5145.67,5149.43,5148.29,5143.08,5133.84,5120.98,5103.74,5080.27,5049.97,5011.13,4960.57,4901.29,4833.5,4759.57,4688.09,4620.36,4550.68,4471.23,4388.55,4342.32,4291.31,4264.94,4262.62,4252.67,4218.74,4240.28,4208.71,4215.82,4205.34,4179.72,4119.35,4121.64,4104.89,4165.14,4184,4206.46,4288.93,4331.34,4417.19,4489.14,4590.44,4686.79,4761.28,4834.87,4901.81,4969.93,5030.81,5079.91,5114.84,5137.96,5156.51,5169.5,5180.82,5183.75,5180.85,5171.96,5162.32,5148.25,5134.44,5112.92,5082.11,5036.19,4981.13,4920.18,4851.82,4782.87,4714.31,4641.24,4569.03,4461.47,4366.22,4252.33,4197.35,4125.71,3971.91,3562.45,3118.72,2562.45,2242.53,2152.59,2129.56,2253.18,2561.36,2974.63,3287.08,3581.84,3795.28,3909.29,3944.78,3960.68,4019.54,4048.95,4039.41,4062.12,4066.82,4110.97,4132,4170.42,4273.23,4343.47,4456.15,4614.23,4726.74,4873.5,5002.83,5066.71,5127.7,5173.31,5199.71,5215,5223.68,5226.23,5222.71,5215.08,5201.3,5184.98,5163.04,5138.61,5108.4,5070.06,5022.71,4963.23,4897.42,4829.54,4760.96,4691.47,4621.48,4549.1,4478.8,4408.83,4355.77,4325.81,4286.59,4253.19,4231.79,4225.41,4216.15,4205.93,4202.66,4210.64,4218.72,4240.66,4270.5,4319.58,4326,4322.06,4279.97,4231.1,4201.44,4180.78,4160.29,4138.48,4111.83,4114.57,4130.43,4165.81,4239.62,4321.51,4425.25,4533.21,4654.52,4779.98,4894.16,4996.47,5073.41,5157.73,5219.67,5255.91,5275.09,5284.08,5285.08,5280.33,5274.23,5266.69,5255.83,5242.44,5224.84,5204.51,5180.77,5157.38,5121.95,5078.34,5032.75,4992.11,4951.17,4910.34,4868.55,4829.07,4793.08,4765.91,4747.92,4728.92,4702.48,4678.75,4648.67,4623.49,4582.52,4559.86,4520.41,4488.33,4475.69,4484.71,4478.96,4482.78,4531.14,4562.28,4637.4,4697.33,4790.75,4874.22,4939.1,4985.99,5055.72,5102.11,5132.59,5164.22,5184.56,5195.51,5207.73,5221.21,5234.53,5249.93,5263.64,5276.99,5291.72,5303.61,5313.07,5321.72,5327.74,5331.58,5333.13,5334.67,5334.03,5329.67,5323.85,5315.88,5305.73,5294.73,5281.75,5266.36,5244.75,5219.17,5189.75,5156.3,5124.97,5091.83,5053.89,5013.32,4974.21,4939.99,4909.34,4878.07,4853.86,4819.6,4798.2,4765.78,4733.92,4700.98,4654.7,4621.5,4572.73,4540.99,4524.38,4447.92,4441.86,4426.44,4418.54,4409.19,4357.48,4361.52,4339.91,4340.36
4394.24,4379.2,4362.54,4355.95,4349.87,4347.04,4349.89,4358.36,4365.57,4398.75,4453.78,4499.38,4545.19,4589.78,4633.5,4676.79,4719.12,4762.97,4808.1,4846.53,4876.3,4901.65,4924.56,4948.27,4971.64,4993.56,5010.46,5026.46,5041.29,5053.6,5065.71,5076.21,5081.3,5081.43,5074.67,5057.39,5035.06,5007.36,4966.85,4912.49,4853.94,4788.15,4724.08,4656.56,4589.65,4527.58,4479.22,4427.35,4388.67,4361.4,4342.85,4326.71,4309.98,4285.56,4261.56,4238.33,4275.48,4301.49,4342.19,4379.96,4427.1,4475.69,4524,4572.88,4616.63,4661.39,4704.27,4752.22,4797.78,4840.87,4883.36,4925.75,4962.9,4994.35,5021.58,5043.54,5060.13,5072,5079.89,5084,5083.46,5079.46,5071.11,5057.01,5039.41,5014.6,4984.77,4950.95,4916.45,4873.92,4825.12,4772.21,4715.32,4647.34,4568.79,4503.96,4409.96,4333.88,4299.19,4195.26,4083.63,4023.88,3983.13,3930.35,3884.09,3802.79,3793.03,3751.03,3727.84,3729.02,3672.84,3606.02,3565.93,3462.98,3444.87,3539.21,3649.99,3822.57,3996.75,4157.8,4356.11,4514.51,4649.76,4729.55,4810.88,4870.71,4920.56,4963.95,5003.73,5040.16,5066.27,5091.54,5110.6,5127.21,5140.04,5151.06,5160.09,5165.03,5165.02,5161.28,5153.18,5140.19,5123.86,5101.03,5071.58,5033.21,4984.74,4927.46,4859.73,4785.12,4714.89,4645.38,4579.71,4491.06,4423.35,4344.12,4297.85,4267.75,4279.9,4252.02,4225.68,4271.21,4236.12,4229.66,4232.79,4191.77,4189.46,4173.76,4148.99,4175.85,4201.77,4233.09,4272.64,4346.9,4415.17,4501.81,4597.19,4696.8,4768.92,4841.09,4911.77,4978.98,5041.64,5090.56,5125.66,5148.28,5167.6,5180.21,5190.36,5192.82,5190.02,5181.83,5170.95,5156.29,5141.08,5119.08,5087.1,5041.81,4988.84,4927.75,4858.97,4791.02,4729.44,4665,4602.83,4507.27,4386.09,4299.28,4236.75,4182.78,4047.28,3685.73,3178.05,2716.46,2460.38,2354.6,2435.96,2641.63,2994.92,3340.52,3645.82,3854.56,3973.05,4040.11,4087.23,4105.38,4138.43,4156.95,4155.71,4175.98,4158.96,4204.69,4247.91,4310.95,4329.44,4403.01,4491.94,4623.41,4764.62,4911.89,5009.62,5084,5131.96,5168.81,5193.38,5212,5246.31,5248.14,5243.85,5234.48,5220.44,5201.87,5177.96,5150.16,5114.97,5074.27,5022.69,4958.33,4887.26,4816.48,4746.44,4675.75,4605.41,4533.91,4465.08,4401.26,4349.81,4314.92,4285.4,4253.19,4231.39,4224.99,4201.52,4195.77,4192.27,4198.44,4207.44,4220.01,4252.77,4298.32,4309.02,4300.47,4262.89,4214.9,4186.73,4165.37,4147.33,4130.38,4106.9,4109.87,4128.7,4159.38,4235.42,4317.26,4428.07,4542.29,4668.35,4801.57,4922.71,5032.9,5111.24,5203.54,5263.23,5298.25,5315.33,5320.93,5317.97,5312.27,5304.26,5294.13,5281.94,5267.35,5247.08,5223.49,5196.67,5169.25,5129.7,5082.08,5034.68,4992.12,4951.19,4909.26,4869.34,4832.92,4797.29,4769.56,4756.09,4741.39,4706.54,4675.06,4657.43,4603.12,4546.68,4507.24,4486.02,4459.65,4435.33,4471.96,4487.74,4487.69,4543.4,4570.56,4671.13,4738.11,4844.64,4929.25,4990.28,5051.72,5120.75,5162.02,5194.27,5220.07,5236.02,5248.68,5260.39,5271.69,5284.79,5298.1,5309.3,5319.75,5333.29,5342.46,5350.64,5357.99,5363.27,5365.89,5366.81,5367.4,5365.85,5361.9,5355.07,5345.95,5334.1,5321.27,5305.47,5286,5260.21,5230.12,5195.72,5158.82,5123.88,5087.16,5047.36,5006.05,4969.19,4936.21,4904.01,4874.02,4843.19,4803.42,4777.86,4736.22,4697.29,4672.17,4646.39,4609.31,4569.74,4526.54,4500.06,4480.49,4482.68,4453.17,4462.14,4429.48,4393.05,4389.2,4392.13,4398.79
4385.55,4364.28,4346,4339.77,4331.75,4329.12,4332.29,4335.77,4343.52,4378.48,4435.07,4481.18,4528.63,4575.4,4620.83,4666.39,4711.63,4758.73,4806.45,4847.13,4878.52,4904.66,4930.14,4955.54,4980.69,5001.98,5019.61,5036.19,5051.49,5064.82,5076.68,5088.91,5095.87,5098.25,5094.6,5081.81,5065.27,5041.55,5005.76,4956.4,4901.61,4842.9,4780.68,4718.22,4653.84,4578.18,4526.91,4480.7,4439,4413.77,4383.31,4360.66,4339.78,4320.63,4306.81,4278.01,4282.35,4293.44,4326.54,4369.98,4409.08,4467.1,4511.4,4558.63,4602.48,4641.71,4682.96,4730.73,4777.69,4821.2,4866.87,4911.15,4952.76,4988.09,5019.48,5046.32,5065.99,5082.32,5093.6,5101.2,5103.83,5102.81,5097.13,5086.68,5071.13,5050.18,5024.49,4994.57,4964.21,4926.12,4879.64,4829.69,4774.26,4714.13,4654.58,4582.64,4503.43,4429.53,4350.93,4258.46,4178.91,4101.69,4065.47,4008.98,3948.38,3866.32,3842.08,3814.71,3813.69,3757.58,3742.08,3704.49,3648.88,3645.57,3661.62,3689.42,3772.72,3878.42,3991.95,4163.53,4347.53,4516.52,4619.48,4714.98,4797.76,4860.85,4914.36,4959.89,5001.67,5039.87,5070.38,5096.83,5118.55,5136.8,5151.48,5163.58,5172.76,5179.52,5180.1,5177.29,5170.08,5159.18,5142.41,5122.55,5093.21,5056.58,5010.49,4955.14,4888.22,4815.52,4744.27,4675.76,4608.64,4535.45,4458.21,4369.99,4321.79,4299.18,4247.28,4258.44,4249.26,4258.9,4251.97,4259.24,4261.5,4242.91,4193.92,4198.43,4165.44,4210,4225.54,4240.62,4294.06,4360.37,4415.79,4506.74,4600.2,4698.61,4774.35,4853.38,4924.75,4992.6,5054.42,5105.23,5138.45,5162.07,5180.83,5192.73,5201.87,5203.67,5199.21,5190.02,5179.66,5163.48,5147.74,5124.79,5092.54,5047.93,4995.17,4935.29,4867.5,4800.62,4739.3,4676.83,4618.52,4522.57,4437.07,4382.62,4328.27,4291.45,4183.25,3885.89,3529.68,3247.11,2934.75,2907.58,3043.07,3308.68,3557.88,3837.19,4029.69,4122.71,4166.52,4228.02,4262.01,4258.96,4282.25,4322.49,4324.25,4356.4,4379.36,4367.78,4393.3,4439.37,4489.21,4567.24,4670.51,4775.68,4915.37,5022.75,5093.75,5149,5195.82,5230.19,5251.4,5262.85,5269.69,5270.05,5265.29,5254.27,5239.04,5218.35,5192.46,5161.32,5123.15,5077.33,5019.61,4951.14,4875.96,4802,4730.71,4659.27,4588.58,4516.55,4449.62,4377.5,4342.12,4316.52,4289.13,4254.56,4237.73,4217.65,4206.68,4191.13,4185.57,4183.12,4182.62,4188.11,4200.78,4272.66,4289.93,4280.55,4248.28,4202.06,4174.48,4152.59,4136.31,4125.47,4100.79,4104.68,4125.8,4153.22,4227.12,4309.35,4424.76,4544.6,4675.19,4814.4,4941.81,5060.48,5140.89,5241.48,5301.68,5334.24,5348.92,5352.13,5347.04,5339.65,5329.73,5317.82,5305.17,5287.12,5264.09,5237.33,5208.24,5175.56,5132.86,5082.59,5034.78,4989.9,4948.46,4908.2,4869.94,4835.3,4804.31,4784.12,4765.74,4748.22,4707.63,4666.97,4637.65,4577.66,4544.78,4497.13,4457.78,4450.94,4444.21,4461.85,4472.54,4508.65,4566.11,4630.92,4754.22,4835.76,4917.95,5001.95,5059.84,5114.22,5172.88,5215.69,5247.3,5268.49,5284.81,5297.13,5308.25,5318.96,5330.98,5343.68,5354.69,5366.04,5376.02,5384.87,5392.37,5398.38,5402.4,5404.34,5404.68,5405.27,5401.5,5396.32,5388.75,5378.33,5364.74,5350.23,5331.25,5306.21,5276.46,5241.24,5203.03,5163.03,5123.87,5083.46,5041.94,5000.69,4966.08,4932.26,4903.65,4869.41,4834.68,4783.84,4745.9,4717.02,4692.09,4669.99,4652.72,4597.32,4549.09,4521.55,4498.44,4483.41,4481.99,4459.15,4467.96,4475.21,4443.61,4436.65,4432.23,4433.3
4377.8,4350.36,4331.61,4324.71,4316.44,4313.25,4317.34,4317.04,4325.05,4361.8,4418.86,4465.46,4513.44,4560.62,4608.52,4655.28,4702.2,4752.02,4802.02,4844.97,4878.49,4907.53,4935.28,4960.9,4987.17,5010.79,5028.45,5044.78,5061,5073.97,5088.06,5099.42,5107.71,5112.06,5111.99,5104.02,5092,5073.46,5041.58,4997.37,4946.95,4893.33,4833.12,4772.95,4713.33,4636.09,4586.94,4536.87,4497.98,4457.05,4423.16,4400.69,4375.22,4347.67,4326.42,4306.84,4291.06,4294.82,4330.75,4359.1,4396.94,4433.68,4480.01,4532.1,4573.25,4622.8,4662.02,4710.27,4756.72,4800.36,4847.46,4895.36,4939.15,4978.77,5014.27,5044.98,5068.34,5089.18,5104.1,5115.52,5120.09,5122.36,5119.63,5112.53,5100.97,5084.32,5063,5037.89,5010.8,4975.67,4933.26,4885.35,4831.52,4772.08,4712.01,4651.63,4582.62,4485.65,4420.12,4297.98,4207.99,4130.38,4076.77,4030.03,3980.02,3912.8,3910.74,3872.76,3829.71,3796.5,3786.37,3767.68,3743.46,3746.34,3773.73,3837.34,3860.37,3916.59,4041.87,4192.6,4350.81,4485.72,4583.73,4683.48,4769.11,4839.91,4894.63,4943.62,4992.06,5037.79,5073.35,5101.92,5127.42,5147.08,5162.04,5176.81,5186.68,5194.23,5196.44,5195.28,5188.63,5178.4,5163.58,5145.77,5116.65,5081.46,5038.22,4984.96,4920.61,4848.29,4776.81,4708.23,4636.98,4573.09,4491.83,4419.75,4366.66,4317.04,4308.5,4297.55,4276.01,4307.51,4294.99,4282.19,4265.99,4254.17,4207.23,4199.16,4204.38,4212.95,4240.28,4255.09,4310.48,4365.95,4441.89,4520.67,4625.36,4706.38,4790.03,4869.57,4940.87,5009.42,5071.66,5120.09,5154.54,5176.9,5195.23,5206.5,5214.91,5214.75,5209.96,5201,5188.63,5172.05,5155.99,5131.21,5098.47,5053.04,5000.86,4941.99,4875.11,4808.59,4747.17,4685.08,4627.55,4517.57,4458.6,4397.42,4350.54,4293.08,4184.77,3953.41,3791.2,3554.67,3463.58,3552.45,3643.31,3831.43,3980.26,4107.76,4203.4,4270.93,4342.64,4365.31,4406.45,4427.45,4442.62,4445.62,4450.04,4446.42,4433.96,4458.17,4483.48,4517.77,4585.81,4679.52,4772.16,4866.36,4980.69,5059.56,5132.4,5184.31,5226.96,5258.37,5274.9,5286.54,5291.26,5290.36,5282.8,5272.46,5255.67,5234.14,5202.7,5168.14,5126.96,5076.48,5013.18,4940.27,4862.07,4785.78,4711.36,4641.14,4569.74,4499.05,4433.64,4372.93,4336.52,4310.25,4280.35,4259.22,4234.48,4218.2,4206.17,4198.12,4195.07,4187.78,4198.44,4207.64,4204.25,4256.57,4274.25,4262.35,4234.74,4188.93,4161.5,4140.18,4125.64,4117.79,4092.42,4096.59,4120.07,4145.35,4215.8,4297.66,4416.6,4543.66,4678.43,4822.9,4957.03,5082.59,5163.73,5273.48,5332.44,5363.67,5377.54,5377.61,5372.05,5362.23,5351.75,5339.2,5324.22,5304.86,5278.69,5247.75,5213.42,5177.89,5132.15,5080.13,5031.07,4986.65,4944.33,4906.91,4872.86,4842.05,4812.67,4793.84,4778.65,4774.64,4744.06,4716.88,4666.75,4636.5,4585.11,4544.33,4509.54,4480.09,4486.61,4524.09,4544.87,4588.96,4659.48,4776.33,4846.5,4901.53,4994.12,5070.3,5124.07,5175.61,5224.53,5262.95,5291.24,5311.17,5327.74,5340.11,5352.45,5362.73,5375.99,5388.51,5399.81,5410.11,5420.39,5428.56,5434.5,5439.87,5443.22,5444.43,5445.31,5442.84,5439.14,5432.23,5422.66,5410.15,5395.64,5377.69,5354.59,5326.4,5291.45,5252.46,5210.71,5167.53,5125,5081.63,5038.85,5000,4965.52,4926.6,4877.2,4839.97,4794.09,4764.67,4735.79,4682.66,4652.13,4646.88,4623.6,4589.17,4524.07,4493.36,4480.08,4442.44,4448.33,4443.7,4469.6,4463.48,4444.98,4447.44,4480.93,4482.6
4371.09,4339.68,4319.99,4311.25,4295.05,4301.38,4300.53,4300.72,4308.62,4345.48,4401.04,4447.21,4494.83,4541.92,4588.86,4637.33,4685.08,4735.96,4787.71,4834,4869.43,4901.38,4930.46,4961.27,4988.12,5012.76,5033.9,5051.79,5067.33,5082.29,5095.16,5108.6,5117.47,5124.67,5126.13,5122.63,5113.57,5099.66,5073.96,5035.24,4990.83,4940.44,4883.12,4819.88,4756.72,4698.19,4643.17,4585.27,4542.68,4491.73,4454.02,4426.14,4397.33,4370.53,4353.35,4339.61,4323.19,4310.51,4309.07,4334.27,4360.86,4392.25,4444.38,4497.95,4544.55,4584.45,4626.73,4681.69,4733.22,4777.99,4824.75,4874.41,4921.76,4964.4,5003.84,5037.99,5064.92,5089.2,5110.02,5125.36,5133.13,5138.76,5139.14,5136.06,5129.02,5117.17,5100.01,5078.83,5056.34,5025.48,4987.53,4943.37,4893.21,4834.04,4772.16,4713.8,4640.99,4570.51,4469.47,4368.74,4260.67,4204.14,4160.25,4076.59,4033.47,4021.72,3964.33,3920.62,3893.41,3849.73,3850.82,3829.47,3823.85,3844.42,3881.97,3933.39,3974.63,4031.2,4063.91,4206.46,4353.41,4456.94,4561.91,4662.18,4739.89,4808.65,4872.78,4929.02,4979.42,5020,5058.81,5080.82,5107.72,5140.04,5177.8,5193.87,5204.98,5213.36,5217.11,5216.09,5211.47,5202.13,5189.15,5170.86,5144.4,5111.62,5069.66,5018.72,4955.7,4884.7,4815.23,4742.86,4676.02,4616.19,4533.85,4477.91,4432.06,4375.14,4381.16,4353.21,4355.08,4357.18,4355.15,4341.97,4334.21,4294.28,4290.06,4294.51,4274.1,4279.28,4272.56,4287.29,4325.23,4404.73,4478.93,4539.3,4635.59,4712.87,4800.72,4893.3,4963.78,5032.27,5094.83,5144.03,5175.74,5198.43,5214.25,5225.14,5231.34,5231.63,5226.5,5215.59,5202.74,5185.73,5167.89,5142.12,5107.44,5063.69,5010.94,4953.13,4886.57,4820.55,4759.18,4693.57,4626.4,4533.19,4446.93,4390.34,4333.77,4263.61,4101.21,3920.51,3724.91,3572.91,3608.3,3676.08,3806.39,3935.63,4048.78,4138.12,4197.78,4283.87,4328.5,4351.04,4400.67,4422.19,4408.65,4433.89,4431.35,4452.41,4441.35,4436.66,4459.64,4526.87,4617.38,4702.68,4819.44,4919.61,5014.94,5107.33,5175.91,5224.38,5263.18,5288.64,5301.46,5311,5315.05,5312.24,5304.75,5292.44,5272.36,5248.08,5215.68,5177.93,5131.77,5074.31,5006.05,4930.06,4849.12,4771.27,4696.38,4622.76,4552.37,4483.02,4421.93,4369.62,4325.83,4298.81,4277.87,4253.61,4237.8,4219.95,4203.69,4194.73,4190.66,4181.22,4200.21,4202.24,4202.86,4260.83,4265.29,4251.28,4227.01,4180.99,4154.62,4132.54,4118.51,4113.47,4085.64,4089.83,4112.12,4135.94,4201.05,4286.44,4407.73,4530.54,4676.98,4825.83,4965.56,5099.04,5180.78,5299.18,5358.34,5387.95,5400.57,5401.09,5393.68,5383.46,5371.43,5359.64,5343.59,5323.29,5293.83,5258.39,5219.83,5181.55,5133.53,5081.54,5032.73,4986.1,4944.97,4910.01,4880.1,4852.76,4824.48,4809.17,4798.17,4794.88,4771.64,4740.2,4715.84,4662.9,4635.93,4598.86,4560.15,4554.02,4562.35,4604.34,4637.8,4695.78,4768.76,4860.88,4923.6,5005.71,5085.46,5139.71,5193.79,5236.22,5274.79,5306.29,5331.02,5351.29,5366.63,5381.05,5394.21,5405.67,5418.78,5432.48,5444.94,5455.96,5466.66,5473.26,5478.5,5482.18,5485.18,5485.2,5484.43,5480.79,5476.55,5467.71,5457.52,5441.13,5424.38,5403.61,5377.85,5344.95,5306.73,5264.29,5218.77,5173.86,5129.57,5085.24,5044.06,5002.4,4955.88,4912.62,4864.71,4825.5,4787.43,4751.39,4714.31,4687.4,4615.45,4607.88,4559.69,4539.64,4494.95,4475.39,4449.35,4442.73,4471.08,4467.51,4519.3,4508.41,4509.74,4516.28,4563.44,4572.79
4363.72,4329.48,4307.11,4296.37,4282.28,4285.02,4284.55,4283.04,4289.81,4325.91,4378.95,4423.08,4469.99,4516.39,4562.32,4610.9,4660.37,4711.81,4766.64,4815.22,4855.78,4890.27,4920.96,4954.46,4985.24,5012.49,5035.75,5055.37,5072.4,5087.72,5101.91,5116.02,5127.75,5134.45,5139.22,5135.92,5130.88,5120.48,5097.78,5066.27,5025.24,4978.52,4925.75,4865.13,4808.02,4744.01,4676.64,4629.67,4582.08,4530.62,4488.25,4445.02,4405.9,4388.58,4361.23,4326.48,4342.86,4336.76,4310.35,4311.49,4351.6,4357.04,4412.49,4472.2,4532.27,4574.13,4608.4,4655.05,4704.98,4750.02,4797.33,4847.93,4898.27,4943.41,4988.47,5025.97,5057.87,5085.45,5112.39,5130.8,5143.78,5152.63,5156,5156.3,5151.62,5145.48,5132.69,5115.69,5097.37,5071.73,5038.31,4999,4951.98,4893.93,4832.13,4772.39,4702.27,4628.93,4551.32,4470.66,4349.9,4299.83,4200.71,4168.73,4097.3,4035.56,4026.49,3987.67,3950.75,3908.42,3907.13,3876.99,3856.33,3856.72,3917.94,3967.63,4017.57,4093.74,4165.05,4256.3,4316.15,4428.38,4572.59,4661.93,4756.56,4827.75,4891.29,4946.25,4996.36,5043.03,5085.44,5123.55,5152.64,5177.68,5196.49,5212.35,5225.43,5234,5237.92,5238.97,5235.76,5228.34,5216.47,5199.83,5176.06,5143.92,5105.21,5057.08,4994.92,4925.17,4855.98,4788.43,4721.34,4655.94,4581.99,4522.54,4471.48,4439.95,4432.67,4423.68,4411.22,4414.65,4388.56,4368.49,4385.54,4369.59,4362.8,4355.03,4343.28,4365.57,4348.23,4379.11,4409.55,4460.08,4526.01,4595.31,4679.28,4756.29,4846.76,4919.85,4990.69,5060.13,5120.12,5170.36,5202.15,5222.5,5236.73,5247.44,5252.75,5251.65,5244.6,5234.47,5220.36,5202.56,5183.25,5155.81,5121.03,5075.34,5023.21,4963.66,4897.57,4826.19,4769.12,4701.67,4636.13,4527.07,4437.94,4374.33,4290.98,4201.75,4021.19,3837.62,3740.26,3671.11,3670.06,3765.07,3940.49,4042.04,4113.02,4199.68,4266.75,4321.74,4361.09,4406.97,4407.33,4404.21,4369.27,4374.95,4398.95,4418.51,4424.28,4454.13,4476.12,4548.28,4645.27,4752.73,4832.21,4964.14,5081.13,5170.11,5222.8,5268.85,5302.97,5322.61,5332.17,5340.25,5341.46,5337.21,5327.37,5312.31,5292.11,5263.82,5228.34,5186.79,5133.86,5070,4996.88,4917.73,4835.29,4755.11,4677.58,4605.23,4534.5,4468.09,4410.25,4364.44,4324.63,4295.02,4271.64,4244.01,4235.9,4218.16,4204.43,4198.98,4190.18,4184.73,4185.61,4189.61,4190.52,4254.69,4263.22,4246.45,4223.06,4179.7,4152.41,4129.78,4115.62,4110.93,4078.02,4081.03,4103.04,4124.31,4184.87,4272.56,4397.04,4530.67,4674.54,4825,4969.02,5110.83,5196.82,5322.56,5380.56,5409.74,5421.34,5421.18,5413.51,5403.95,5391.47,5379.14,5362.2,5340.57,5306.59,5267.83,5226.4,5184.63,5136.88,5083.92,5034.52,4988.34,4947.72,4915.92,4888.96,4861.99,4843.76,4832.52,4824.83,4807.12,4792.03,4765.06,4750.36,4717.38,4682.08,4644.18,4618.02,4613.99,4647.54,4683.58,4733.67,4794.6,4884.76,4955.91,5022.38,5080.95,5151.1,5196.5,5245.01,5281.46,5312.15,5339.46,5361.5,5381.49,5400.18,5415.81,5431.44,5444.53,5460.62,5475.33,5487.35,5499.46,5509.17,5515.25,5519.52,5523.45,5524.54,5524.28,5521.42,5516.81,5510.32,5498.96,5484.81,5465.84,5445.6,5421.19,5392.65,5355.18,5315.33,5271.99,5227.05,5178.95,5136.58,5087.83,5049.11,5002.08,4951.03,4915.54,4866.46,4831.47,4779.54,4724.6,4690.59,4675.62,4670.14,4649.77,4596.63,4586.32,4559.37,4536.25,4515.56,4546.88,4544.67,4560.73,4597.37,4598.46,4619.56,4647.4,4677.62,4727.67
4353.98,4315.77,4291.77,4277.98,4257.71,4261.48,4263.7,4251.53,4263.78,4298.35,4347.96,4392.3,4441.13,4485.36,4531.65,4580.38,4630.14,4683.49,4739.82,4791.17,4835.64,4874.31,4910.91,4945.85,4978.3,5008.98,5035.51,5058.92,5076.2,5092.8,5108.69,5124.54,5137.4,5146.12,5151.79,5151.4,5148.09,5139.82,5122.26,5095.38,5059.47,5016.63,4964.41,4905.6,4851.94,4787.84,4722.7,4669.1,4605.91,4552.65,4505.84,4466.84,4431.02,4401.76,4359.72,4358.4,4346.55,4347.33,4333.4,4332.48,4341.65,4357.75,4410.03,4449.5,4488.13,4540.95,4574.65,4619.68,4666.06,4719.2,4765.9,4817.11,4868.9,4918.81,4966.31,5010.15,5045.15,5077.8,5109.17,5134.22,5150.81,5162.92,5170.04,5173.59,5173.45,5169.62,5160.89,5149.95,5134.86,5114.92,5086.75,5053.17,5008.56,4952.58,4893.67,4834.18,4770.61,4696.45,4604.92,4523.26,4427.1,4349.64,4260.02,4204.33,4136.28,4079.62,4038.7,3999.72,3906.7,3875.16,3854.7,3847.16,3856.52,3897.08,3928.36,4002.6,4033.81,4130.03,4149.84,4214.59,4322.3,4422.48,4556.73,4657.78,4742.54,4823.42,4891.06,4948.65,5001.92,5051.89,5097.28,5139.85,5171.73,5198.37,5219.41,5235.03,5249.28,5258.26,5264.72,5266.44,5264.17,5257.51,5248.13,5234.15,5211.98,5183.37,5146.51,5101,5040.6,4972.87,4907.21,4840.45,4776.22,4710.17,4657.61,4597.09,4545.3,4503.9,4495.13,4479.61,4469.27,4449.16,4441.05,4438.19,4434.05,4433.29,4425.18,4423.46,4417.22,4414.9,4405.93,4407.27,4452.85,4490.74,4533.63,4611.26,4698.3,4796.83,4874.04,4952.65,5024.59,5092.96,5154.74,5202.87,5233.88,5252.78,5264.42,5274.04,5277.58,5275.67,5269.7,5257.71,5243.01,5224.23,5203.62,5174.35,5138.89,5092.06,5038.89,4977.81,4910.19,4842.98,4779.64,4704.46,4643.85,4557.12,4469.95,4395.05,4324.33,4192.03,4051.44,3951.27,3871.58,3867.82,3893.71,3969.82,4076.99,4123.3,4160.61,4300.25,4341.69,4404.45,4402.58,4414.91,4427.71,4449.42,4420.49,4407.47,4401.94,4386.01,4406.07,4449.02,4498.93,4598.61,4698.62,4799.73,4917.6,5044.5,5150.94,5228.31,5278.56,5318.93,5345.82,5359.27,5366.46,5373.55,5372.28,5366.18,5354.07,5338.72,5313.95,5283.82,5245.87,5199.2,5138.86,5068.65,4990.93,4908.14,4824.02,4743.78,4664.77,4590.63,4520.85,4457.01,4400.31,4358.71,4316.21,4282.92,4255.13,4240.53,4227.58,4221.24,4207.4,4192.06,4165.69,4159.71,4169.38,4176.5,4183.7,4255.27,4267.32,4249.35,4226.7,4183.4,4149.62,4130.79,4116.58,4109.9,4073.34,4074.28,4092.88,4112.47,4168.48,4260.9,4386.78,4527.72,4670.09,4824.23,4971.43,5122.88,5214.97,5345.6,5403.54,5430.69,5442.23,5442.13,5434.84,5424.26,5412.11,5397.76,5380.03,5355.53,5318.68,5275.62,5232.01,5189.83,5140.1,5087.04,5038.86,4991.72,4952.69,4919.88,4898.14,4872.04,4863.5,4856.53,4837.73,4829.87,4821.4,4794.88,4775.5,4750.58,4728.42,4709.79,4722.34,4724.13,4760.25,4808.81,4843,4906.33,4969.23,5039.88,5098.19,5157.48,5206.49,5249.08,5287.81,5319.75,5346.23,5369.89,5390.57,5408.18,5425.77,5445.18,5462.75,5479.07,5495.3,5510.59,5524.33,5535.09,5545.6,5552.69,5556.74,5559.56,5559.72,5556.77,5555.59,5549.24,5539.75,5526.94,5509.79,5487.48,5464.68,5437.92,5406.17,5368.2,5325.98,5280.63,5235.6,5189.4,5143.29,5102,5061.86,5026.24,4999.35,4949.3,4905.28,4868.99,4856.7,4827.93,4798.75,4748.02,4734.66,4692.54,4691.2,4671.66,4649.6,4636.07,4617.63,4644.66,4651.46,4674.41,4690.2,4731.9,4783.02,4815.32,4841.73,4909.1
4348.17,4306.93,4280.56,4264.21,4246.36,4248.91,4250.08,4241.52,4249.14,4282.29,4330.53,4370.55,4412.87,4455.68,4499.42,4547.9,4596.42,4650.63,4708.24,4762.27,4808.74,4851.46,4891.85,4931.56,4969.19,5003.89,5033.73,5059.19,5080.5,5099,5116.72,5134.11,5147.71,5159.46,5165.96,5167.71,5165.07,5159.07,5143.06,5120.83,5087.2,5047.58,4997.18,4941.91,4881.39,4820.02,4753.3,4693.39,4630.57,4575.01,4524.99,4483.1,4449.04,4415.85,4394.54,4376.59,4378.09,4372.63,4376.73,4385.74,4397.81,4416.22,4423.84,4450.7,4479.78,4522.92,4557.3,4599.93,4638.21,4688.03,4734.02,4784.34,4836.69,4889.6,4940.24,4988.26,5025.84,5062.86,5100.28,5130.39,5153.53,5170.47,5181.44,5188.75,5191.47,5191.61,5188.18,5181.42,5170.71,5155.66,5133.08,5104.55,5066.83,5014.32,4955.43,4896.63,4833.38,4760.98,4671.34,4577.66,4482.99,4428.11,4325.49,4256.81,4162.74,4130.1,4077.15,4058.05,4009.11,3952.57,3914.73,3886.95,3897.96,3894.44,3900.97,3993.16,4046.2,4136.46,4135.74,4226.51,4306.76,4388.67,4536.02,4646.94,4724.87,4821.78,4892.54,4951.86,5011.01,5063.52,5111.18,5155.14,5192.54,5220.79,5243.64,5261.82,5275.3,5285.61,5292.72,5295.79,5296.04,5290.83,5283.41,5271.53,5252.95,5227.6,5194.11,5151.52,5095.2,5031.74,4966.99,4903.49,4834.13,4775.69,4711.97,4659.17,4608.42,4573.05,4521.33,4512.87,4492.36,4479.94,4461.75,4480.92,4483.68,4479.65,4469.04,4465.74,4465.82,4472.99,4441.92,4452.99,4498.07,4541.86,4588.45,4656.17,4743.67,4833.19,4913.59,4993.58,5064.22,5131.58,5194.37,5240.84,5270.27,5288.05,5298.35,5305.39,5307.92,5304.44,5297.36,5285.94,5269.96,5250.19,5227.83,5198.46,5160.42,5112.67,5057.66,4995.42,4925.16,4851.44,4784.69,4704.68,4638.03,4552.51,4449.63,4367.82,4276.77,4163.81,4089.43,3964.73,3968.99,3954.5,4026.02,4081.23,4134.87,4142.75,4264.74,4336.46,4416.43,4437.66,4411.29,4427.08,4447.75,4439.93,4434.31,4410.63,4391.13,4423.31,4448.39,4451.03,4517.1,4632.43,4774.98,4897.15,4999.83,5095.51,5199.12,5263.57,5318.25,5353.54,5390.07,5399.54,5405.65,5409.44,5406.39,5398.81,5384.35,5364.96,5339.58,5306.3,5263.45,5210.82,5144.48,5066.92,4984.35,4900.48,4813.36,4731.34,4651.74,4576.97,4508.81,4444.1,4397.29,4351.98,4293.56,4264.02,4257.83,4240.88,4219.19,4211.5,4196.95,4165.14,4151.45,4140.5,4150.57,4166.58,4178.54,4264.33,4278.38,4259.54,4226.15,4191.53,4160.38,4135.09,4120.61,4110.06,4069.12,4067.88,4082.62,4100.71,4151.29,4250.95,4378.46,4522.86,4671.98,4827.83,4979.81,5139.68,5238.67,5374.8,5430.19,5455.65,5466.21,5465.03,5456.92,5445.62,5432.24,5417.27,5397.38,5369.46,5328.45,5283.37,5237.23,5192.01,5142.67,5090.85,5044.22,4998.63,4963.05,4939.87,4913.83,4902.12,4883.94,4883.56,4874.49,4861.35,4844.47,4818.72,4803.02,4791.68,4792.94,4788.56,4804.81,4807.8,4841.42,4890.37,4940.44,4991.44,5058.61,5117.94,5173.43,5223.9,5266.1,5303.58,5335.3,5362.25,5384.76,5407.18,5424.96,5442.17,5461.53,5480.64,5500.62,5517.38,5535.67,5551.26,5563.71,5574.49,5583.32,5589.86,5593.6,5595.23,5593.71,5589.82,5585.68,5580.55,5567.02,5551.17,5531.94,5506.56,5482.1,5453.08,5417.33,5377.38,5335.04,5289.73,5244.32,5202.73,5163.63,5115.45,5081,5039.71,5015.45,4972.9,4955.37,4929.05,4904.1,4889.06,4867.53,4849.86,4809.96,4811.72,4777.53,4795.98,4784.66,4759.61,4742.64,4755.12,4783.9,4806.67,4817.36,4866.44,4922.52,4953.92,5019.99,5058.53
4341.7,4299.04,4270.24,4251.95,4231.98,4232.91,4232.05,4222.77,4230.08,4261.58,4305.34,4342.66,4381.94,4420.75,4462.76,4507.46,4556.55,4610.06,4668.93,4724.44,4773.75,4819.49,4865.79,4910.12,4952.39,4994.13,5030.63,5061.51,5085.46,5107.72,5127.89,5147.13,5162.92,5177.18,5185.78,5188.03,5188.7,5183.14,5169.96,5150.03,5120.43,5083,5033.43,4979.83,4918.28,4852.81,4783.94,4721,4654.85,4596.44,4539.87,4493.96,4457.12,4423.31,4401.34,4387.58,4383.94,4388.4,4393.19,4406.18,4412.15,4418.81,4421.9,4460.33,4494.07,4519.3,4541.05,4582.64,4627.55,4664.78,4708.71,4757.94,4809.41,4861.85,4916.48,4967.67,5011.32,5052.3,5094.28,5129.66,5156.38,5179.05,5194.98,5205.83,5213.5,5217.36,5218.07,5214.73,5209.58,5198.91,5181.64,5159.08,5125.25,5078.42,5022.33,4964.83,4898.65,4823.77,4740.36,4641.14,4542.54,4467.89,4387.23,4308.64,4203.87,4111.91,4115.62,4051.31,3999.03,3987.28,3921.96,3911.86,3920.39,3905.98,3909.38,3988.17,4006.43,4123.91,4135.02,4219.85,4288.65,4362.84,4526.66,4622.79,4726.84,4816.46,4891.65,4959.13,5023.23,5076.44,5127.83,5175.83,5214.4,5246.34,5271.14,5289.64,5304.34,5315.73,5323.89,5329.44,5331.17,5329.08,5323.42,5313.91,5299.32,5278.42,5248.04,5209.25,5158.95,5098.9,5040.03,4976.75,4907.81,4837.6,4771.01,4716.83,4678.47,4638.45,4594.76,4559.4,4526.55,4487.82,4473.59,4476.28,4492.63,4472.13,4455.79,4458.9,4441.26,4453,4465.92,4486.41,4489.71,4547.19,4616.15,4683.21,4791.31,4864.99,4962.15,5034.91,5111.06,5176.99,5238.76,5284.23,5311.74,5327.38,5336.25,5342.39,5343.57,5339.93,5332.6,5319.76,5304.42,5284.08,5261.19,5228.32,5187.86,5139.82,5082.87,5017.47,4945.79,4874.9,4800.76,4725.58,4648.5,4568.24,4451.94,4340.17,4281.28,4173.56,4165.37,4113.02,4055.14,4073.9,4108.16,4160.5,4179.81,4255.32,4324.3,4378.83,4434.56,4446.59,4464.78,4452.62,4470.27,4464.16,4460.1,4458.02,4475.51,4459.26,4497.86,4534.67,4611.17,4733.66,4857.91,4969.33,5072.98,5168.81,5256.57,5319.6,5358.96,5389.18,5401.73,5433.31,5448.06,5449.04,5443.71,5433.56,5418.08,5395.38,5366.52,5330.15,5282.62,5223.97,5150.32,5066.06,4979.16,4892.79,4805.36,4721.12,4640.58,4566.18,4500.22,4444.97,4397.12,4345.18,4315,4288.57,4247.76,4230.3,4218.15,4198.92,4171.39,4152.21,4152.69,4130.42,4144.84,4153.25,4178.73,4270.49,4296.65,4277.73,4233.53,4205.9,4166.53,4145.52,4128.38,4113.16,4067.55,4062.75,4073.71,4089.98,4138.62,4247.64,4373.8,4522.96,4675.7,4834.98,4991.08,5158.41,5266.03,5404.94,5455.32,5478.42,5487.76,5486.14,5477.91,5465.18,5450.33,5432.27,5412.27,5380.29,5336.49,5288.81,5241.62,5196.54,5146.21,5098.15,5052.29,5008.33,4972.25,4949.77,4938.27,4926.41,4919.94,4912.48,4899.27,4881.77,4858.05,4837.96,4825.71,4818.18,4803.76,4843.54,4866.74,4866.39,4912.88,4957.55,5029.17,5089.32,5137.64,5193.3,5243.69,5287.84,5325.23,5356.67,5383.73,5407.44,5427.92,5448.19,5465.24,5480.96,5499.59,5519.77,5541.53,5559.71,5577.19,5591.6,5603.93,5614.45,5623.09,5627.81,5630.24,5630.32,5626.81,5620.87,5614.67,5605.48,5591.59,5572.08,5550.79,5522.25,5493.68,5462.92,5428.6,5387.02,5342.15,5297.52,5254.23,5214.35,5170.14,5128.43,5089.58,5042.17,5002.18,4993.23,4985.25,4968.38,4942.77,4920.35,4915.07,4906.87,4889.37,4874.35,4864.72,4859.78,4873.12,4833.45,4848.3,4880.2,4925.77,4937.18,4967.75,5023.22,5052.59,5106.96,5137.2,5165.04
4334.91,4291.06,4260.94,4240.08,4223.6,4218.47,4214.9,4208.1,4214.78,4241.92,4283.4,4318.13,4353.69,4389.09,4426.59,4469.45,4516.51,4568.81,4626.57,4682.43,4734.24,4782.05,4831.15,4883.09,4931.75,4976.97,5018.17,5058.2,5088.84,5113.93,5137.5,5160.02,5177.95,5193.31,5203.34,5207.33,5207.36,5205.17,5194.69,5178.58,5152.58,5117.67,5072.15,5018.67,4959.21,4894.04,4823.69,4764.59,4699.61,4632.78,4571.24,4518.58,4479.77,4448.09,4427.93,4403.09,4392.81,4404.51,4403.61,4415.41,4441.95,4444.01,4463.54,4482.99,4511.62,4530.67,4553.98,4585.51,4615.74,4648.85,4687.45,4733.35,4780.5,4831.1,4885.94,4938.67,4987.18,5035.66,5083,5122.71,5154.58,5180.4,5202.03,5217.66,5229.74,5237.62,5242.22,5244.77,5242.04,5236.06,5221.94,5203.8,5177.95,5134.42,5082.44,5024.89,4957.5,4880.57,4800.75,4708.17,4630.62,4546.17,4474.08,4386,4299.33,4245.1,4209.89,4176.71,4132.16,4135.06,4071.7,4067.7,4005.57,4016.27,4009.98,4039.85,4059.06,4149.5,4187.51,4246.25,4328.52,4443.48,4555.58,4634.92,4722.47,4817.7,4897.94,4964.26,5034.39,5092.33,5145.43,5195.04,5239.16,5273.12,5300.85,5320.61,5336.12,5350.09,5360.25,5367.6,5371.98,5371.95,5369.15,5363.02,5352.77,5334.37,5308.3,5273.43,5228.46,5173.27,5117.42,5056.33,4991.75,4918.85,4845.72,4782.3,4741.33,4686.73,4655.45,4606.5,4552.56,4536.71,4510.95,4522.73,4522.1,4506.29,4499.4,4493.73,4498.32,4511.05,4543.38,4528.48,4558.47,4605.85,4667.3,4742.65,4838.88,4897.31,4998.68,5075.39,5161.44,5226.68,5285.46,5329.27,5356.58,5368.81,5376.33,5382.6,5383.02,5377.96,5370.53,5357.6,5340.75,5320.73,5297.23,5265.21,5222.13,5170.5,5112.47,5044.2,4959.75,4880.72,4803.91,4726.99,4648.91,4560.49,4420.66,4284.97,4244.47,4192.24,4203.04,4149.71,4137.35,4119.33,4117.9,4169,4226.51,4283.5,4365.67,4406.75,4439.93,4449.37,4447.72,4466.27,4502.33,4466.68,4455.57,4468.9,4460.16,4488.48,4538.25,4583.06,4677.5,4807.44,4921.51,5028.33,5134.21,5247.58,5343.17,5403.44,5448.28,5470.25,5480.77,5486.45,5488.23,5487.59,5480.19,5468.5,5450.5,5427,5395.2,5354.53,5296.12,5236.33,5155.82,5061.6,4970.52,4875.07,4787.06,4702.04,4612.34,4539.81,4476.62,4417.14,4365.22,4328.2,4291.07,4267.98,4224.9,4201.77,4190.85,4180.43,4174.23,4164.71,4170.56,4162.76,4172.78,4177.12,4192.36,4266.6,4292.47,4300.61,4260.21,4224.9,4185.57,4157.46,4139.25,4120.79,4070.63,4060.35,4068.05,4084.19,4132.74,4249.01,4378.69,4522.12,4686.86,4849.56,5010.02,5183.17,5294.19,5436.66,5482.97,5503.74,5512.08,5507.85,5498.24,5486.1,5469.23,5448.31,5424.02,5390.03,5343.23,5293.35,5245.04,5199.1,5150.15,5104.39,5062.53,5021.47,4989.04,4969.78,4942,4948.65,4938.67,4935.05,4897.18,4888.77,4872.35,4849.58,4878,4839.49,4861.06,4866.03,4886.3,4935.63,5004.22,5043.87,5114.14,5165.52,5220.25,5260.91,5311,5349.6,5381.86,5409.51,5434.65,5456.04,5474.6,5495.17,5512.27,5527.43,5546.98,5567.1,5587.47,5605.68,5622.92,5635.87,5646.78,5657.44,5663.46,5666.67,5666.53,5663.42,5657.07,5648.16,5640.68,5628.71,5612.25,5591.88,5565.33,5535.83,5506.16,5473.71,5437.94,5393.83,5350.64,5309.36,5269.54,5223.25,5185.81,5163.05,5090.28,5054.8,5047.75,5022.02,4999.09,4980.42,4965.45,4955.34,4946.83,4941.51,4933.04,4931.03,4931.02,4949.39,4955.07,4961.27,5005.2,5038.05,5087.12,5117.54,5150.15,5195.39,5205.27,5244.52,5283.49,5305.87
4327.2,4283.45,4251.78,4229.51,4210.2,4203.98,4198.4,4193.19,4200.15,4222.36,4260.86,4293.63,4324.7,4357.83,4392.03,4432.29,4475.73,4526.78,4582.99,4637,4689.04,4740.27,4794.92,4851.1,4907.21,4961.21,5007.27,5050.98,5090.01,5122.52,5149.33,5173.04,5193.64,5210.57,5221.88,5228.35,5229.73,5227.1,5219.78,5207.34,5183.66,5152.64,5110.67,5061.2,5004.69,4942.44,4874.87,4816.71,4750.99,4682.47,4617.76,4569.87,4516.85,4480.23,4450.24,4432.07,4425.21,4422.24,4423.81,4433.32,4448.29,4460.25,4481.9,4500.59,4518.35,4530.25,4544.98,4567.71,4595.72,4624.73,4659.21,4700.62,4745.84,4795.79,4847.6,4902.3,4956.1,5007.58,5059.78,5111.45,5151.25,5183.5,5209.71,5230.4,5247.56,5259.03,5267.47,5273.1,5275.27,5272.16,5263.71,5248.65,5225.78,5188.66,5140.37,5082.26,5011.05,4932,4853.2,4773.55,4692.39,4620.65,4544.41,4491.93,4409.57,4320.85,4313.88,4274.56,4241.36,4203.11,4196.63,4125.86,4075.18,4021.11,4036.22,4056.66,4071.18,4162.79,4188.22,4295.07,4388.1,4461.13,4552.76,4622.68,4714.49,4803.17,4881.35,4965.3,5038.71,5103.52,5168.73,5219.8,5266.5,5306.39,5334.17,5356.95,5375.79,5389.67,5401.57,5410.35,5417.95,5421.94,5422.35,5420.29,5414.86,5399.08,5377.78,5348.14,5305.67,5255.43,5201.62,5140.95,5075.12,4993.09,4928.15,4855.07,4790.37,4739.28,4693.43,4652.07,4588.05,4541.97,4518.47,4569.78,4555.71,4524.82,4529.21,4506.98,4500.67,4532.33,4559.58,4557.9,4602.8,4662.5,4712.48,4783.31,4855.95,4931.96,5022.64,5124.94,5209.59,5274.04,5331.59,5374.82,5401.6,5414.31,5420.55,5424.68,5425.18,5420.42,5412.78,5400.33,5383.67,5365.07,5341.8,5308.82,5264.15,5209.51,5147.14,5077.03,4989.92,4908.14,4833.84,4707.36,4631.41,4542,4400.83,4332.39,4292.15,4227.77,4209.92,4171.89,4150.67,4112.18,4105.9,4076.94,4140.42,4162.17,4195.9,4266.94,4321.52,4382.49,4396.5,4406.32,4351.59,4345.04,4319.67,4331.86,4353.75,4403.57,4405.73,4491.35,4627.71,4775.08,4895.48,5066.82,5185.69,5290.79,5402,5465.68,5504.78,5521.66,5529.29,5534.68,5535.22,5531.87,5521.57,5509.32,5488.25,5463.01,5429.18,5384.5,5326.57,5254.29,5168.52,5074.06,4978.76,4876.69,4785.01,4693.02,4606.63,4534.19,4465.96,4409.12,4363.97,4333.26,4307.4,4270.17,4243.48,4194.22,4174.36,4186.96,4177.63,4169.11,4172.05,4166.06,4186.21,4188.7,4212.46,4290.47,4325.37,4327.27,4278.9,4245.87,4202.55,4172.87,4152.9,4130.87,4076.96,4060.56,4064.59,4080.57,4130.8,4254.29,4387.23,4533.57,4701,4868.24,5032.65,5210.16,5324.41,5466.27,5510.3,5526.67,5533.56,5528.96,5519.37,5504.48,5484,5459.62,5433.74,5396.61,5348.45,5297.38,5248.78,5200.13,5153.67,5113.35,5072.93,5035.42,5011.07,4988.19,4977.89,4960.9,4943.42,4945.23,4936.23,4906.57,4901.9,4877,4879.82,4879.15,4896.12,4935.95,4952.33,5013.89,5065.19,5121.73,5186.14,5239.41,5283.22,5319.22,5370.01,5402.92,5433.7,5458.68,5483.58,5504.54,5525.38,5545.54,5563.22,5580.58,5599.27,5619.7,5637.89,5656.2,5670.51,5684.12,5694.07,5701.02,5705.24,5707,5703.64,5697.62,5686.99,5675.18,5663.45,5649.28,5628.57,5604.83,5577.7,5546.48,5514.9,5483.12,5446.88,5405.58,5363.93,5325.69,5284.09,5250.81,5210.65,5165.03,5100.52,5082.29,5062.95,5041.07,5012.36,5000.93,4984.58,4962.87,4964.65,4968.96,4970.5,4987.07,5016.69,5018.45,5048.28,5066.29,5110.61,5187.33,5213.8,5250.65,5280.38,5309.74,5341.28,5363.41,5392.21,5415.51
4317.35,4273.44,4242.08,4217.77,4196.44,4187.37,4180.87,4176.7,4183.13,4202.12,4237.36,4268.65,4299.62,4329.68,4362.64,4399.38,4439.88,4489.15,4542.73,4594.3,4643.97,4694.59,4754.16,4819.11,4881.95,4941.11,4996.15,5045.95,5089.02,5129.15,5160.72,5186.52,5208.57,5226.51,5240.24,5247.22,5250.02,5249.02,5242.29,5230.46,5211.08,5183.77,5147.65,5100.56,5047.94,4990.03,4931.46,4870.15,4802.27,4742.23,4680.11,4620.2,4574.09,4532.5,4496.82,4472.53,4447.2,4449.28,4446.16,4457.97,4470.92,4481.4,4488.55,4500.24,4511.53,4526.05,4537.51,4552.94,4581.19,4609.86,4640.08,4677,4717.38,4762.8,4813.02,4868.41,4926.67,4984.27,5042.81,5094.68,5142.64,5187.23,5220.92,5247.17,5268.47,5282.33,5295.17,5302.99,5308.96,5309.85,5303.49,5292.4,5273.86,5240.16,5194.33,5137.51,5059.38,4976.28,4905.34,4823.27,4750.39,4672.77,4607.67,4542.39,4482.14,4414.42,4380.67,4350.39,4309.95,4271.67,4253.72,4221.25,4168.04,4116,4120.01,4118.18,4158.06,4225.89,4266.29,4354.6,4449.96,4503.69,4590.76,4667.31,4741.5,4819.92,4901.55,4981.67,5059.6,5130.82,5194.17,5248.56,5297.92,5340.68,5373.57,5396.49,5418.13,5433.67,5448.31,5459.3,5467.74,5472.83,5476.92,5477.55,5474.95,5463.15,5442.61,5417.52,5378.88,5330.47,5278.82,5216.95,5148.44,5075.48,5012.88,4948.95,4889.53,4840.49,4783.86,4728.61,4676.61,4651.27,4655.76,4637.93,4662.12,4612.44,4625.1,4597.81,4590.24,4613.03,4632.6,4654.88,4681.29,4735.62,4759.45,4828.55,4917.21,4977.45,5071.28,5165.6,5248.85,5313.04,5369.63,5413.71,5439.84,5451.89,5457.84,5462.92,5464.8,5459.93,5452.84,5441.69,5424.43,5406.94,5385.32,5351.76,5304.63,5246.52,5180.56,5099.16,5014.09,4931.36,4838.23,4733.59,4660.63,4540.29,4414.45,4379.27,4328.95,4330.55,4350.62,4275.64,4271.84,4231.73,4249.39,4227.58,4258.66,4285.78,4366.91,4432.22,4469.12,4501.52,4542.02,4564.8,4595.41,4611.84,4653.03,4644.6,4674.51,4707.34,4736.5,4831.55,4938.86,5028.69,5120.29,5228.32,5319.68,5400.69,5489.68,5521.88,5555.99,5568.07,5576.2,5580.75,5579.81,5574.08,5562.32,5547.39,5526.1,5498.14,5462.73,5414.81,5350.92,5273.45,5182.99,5082.83,4985.36,4889.83,4795.59,4705.86,4622.22,4552.29,4481.37,4435.76,4387.84,4369.89,4330.19,4299.84,4265.47,4228.72,4217.6,4212.97,4193.48,4201.09,4197.74,4215.13,4219.68,4224,4237.71,4334.33,4370.25,4356.83,4299.59,4269.07,4220.59,4189.08,4167.16,4142,4084.68,4062.39,4061.34,4077.63,4129.53,4260.32,4396.43,4541.14,4717.22,4889.29,5061.02,5242.88,5358.64,5500.88,5540.05,5555.74,5562.4,5554.81,5544.3,5528.71,5504.58,5477.27,5448.25,5407.46,5359.16,5307.19,5256.68,5208.44,5165.12,5125.34,5092.03,5045.97,5022.33,5021.3,4997.89,4983.54,4972.35,4953.33,4962.48,4954.97,4932.8,4915.94,4940.11,4937.1,4958.17,5008.58,5041.51,5091.1,5138.87,5204.71,5251.96,5310.21,5357.05,5392.16,5425.45,5456.89,5484.47,5509.76,5533.13,5556.55,5579.54,5601.63,5621.34,5638.61,5656.89,5676.4,5693.84,5710.13,5724.05,5733.83,5740.43,5744.11,5747.93,5744.93,5738.25,5726.99,5714.17,5697.18,5682.69,5664.45,5642.33,5615.31,5584.6,5553.02,5522.78,5488.45,5454.11,5412.86,5375.4,5340.55,5307.38,5266.4,5198.64,5165.83,5114.24,5073.94,5055.19,5033,5002.13,4973.66,4964.38,4956.77,4969.2,5017.43,5030.63,5054.87,5060.4,5092.28,5119.07,5152.7,5217.46,5272.08,5321.95,5358.81,5385.91,5422.19,5442.95,5465.58,5490.02,5512.96
4312.05,4269.99,4237.53,4211.88,4190.17,4179.52,4171.76,4168.18,4174.01,4190.44,4223.67,4254,4283.16,4307.52,4327.39,4352.08,4390,4443.37,4496.57,4529.48,4576.15,4622.29,4684.86,4755.72,4826.8,4893.11,4953.35,5010.27,5059.91,5104.81,5141.66,5185.81,5224.63,5245.19,5259.14,5268.18,5272.05,5272.01,5267.63,5256.01,5238.98,5215.96,5182.31,5140.42,5092,5039.32,4984.4,4927.3,4865.39,4800.9,4737.23,4680.12,4631,4570.53,4530.22,4500.47,4479.52,4469.4,4475.98,4481.22,4488.85,4495.99,4509.85,4515.75,4519.3,4527.81,4526.91,4538.13,4564.04,4593.52,4624.84,4655.75,4694.54,4735.48,4782.36,4837.21,4899.37,4961.31,5027.98,5086.29,5138.13,5188.75,5233.91,5266.59,5291.11,5309.16,5324.32,5336.44,5344.11,5346.04,5343.67,5334.92,5318.13,5289.7,5247.31,5191.76,5118.91,5028.73,4954.8,4877.96,4806.07,4738.94,4656.59,4601.18,4549.21,4490.79,4460.3,4431.75,4381.6,4347.01,4298.72,4271.81,4235.02,4195.06,4182.47,4164.69,4184.01,4235.59,4297.75,4402.74,4478.85,4529.02,4614.22,4677.08,4753.9,4829.71,4920.99,4994.95,5079.97,5153.75,5219.44,5276.99,5329.14,5375.15,5413.4,5440.21,5463.65,5481.79,5498.27,5511,5520.91,5529.84,5534.38,5537.12,5535.89,5526.24,5508.73,5484.24,5450.02,5402.32,5349.04,5285.54,5215.57,5143.53,5079.72,5006.98,4946.09,4905.04,4850.52,4807.67,4779.27,4745.11,4733.56,4728.5,4732.95,4688.73,4677.7,4683.47,4697.14,4721.1,4733.23,4758.28,4776.32,4811.19,4837.65,4919.03,4968.77,5051.89,5101.34,5220.07,5289.83,5352.7,5410.89,5453.46,5478.68,5490.95,5495.93,5502.26,5505.34,5502.18,5496.47,5485.51,5468.41,5451.52,5431.03,5398.3,5348.84,5285.5,5216.28,5132.56,5049.89,4959,4852.67,4723.32,4663.16,4526.58,4445.76,4367.51,4368.57,4376.81,4318.63,4203.12,4176.16,4141.89,4089.15,4024.28,4118.78,4148.22,4194.75,4312.51,4363.74,4434.55,4449.6,4513.1,4563.18,4597.17,4635.6,4670.71,4700.7,4749.3,4845.21,4906.86,5009.88,5118.46,5244.16,5310.71,5410.62,5481.84,5540.71,5578.64,5603,5614.25,5622.89,5626.65,5625.27,5618.86,5604.99,5588,5566.72,5539.77,5500.33,5448.22,5379.72,5296.31,5200.69,5098.84,4997.23,4899.99,4803.31,4708.78,4624.93,4552.65,4491.98,4443.35,4391.5,4356.11,4319.26,4288.96,4250.47,4205.07,4209.83,4206.03,4183.02,4188.97,4192.8,4210.94,4209.49,4236.96,4272.27,4354.52,4401.13,4390.61,4323.05,4295.56,4240.46,4206.38,4182.17,4152.48,4093.87,4065.03,4059.35,4075.09,4129.07,4265.76,4405.45,4563.07,4735.39,4911.01,5088.96,5277.66,5395.53,5536.55,5577.22,5591.94,5595.88,5589.11,5576.65,5558.21,5530.97,5499.6,5467.29,5425.77,5375.31,5321.26,5271.23,5223.56,5180,5146.09,5114,5077.1,5051.56,5040.38,5019.2,5004.33,4992.31,4986.69,4980.14,4993.02,4969.28,4974.76,4973.51,4952.67,5003.05,5068.53,5125.6,5176.93,5240.29,5294.8,5338.55,5378.69,5414.76,5445.08,5475.56,5503.9,5531.62,5557.23,5581.12,5607.18,5632.28,5657.06,5679.57,5698.23,5717.56,5733.99,5751.61,5764.41,5776.51,5784.19,5788.05,5789.57,5788.32,5783.2,5772.62,5756.31,5738.28,5716.63,5700.29,5677.95,5652.2,5622.43,5591.37,5556.31,5523.9,5491.72,5459.39,5421.34,5385.99,5352.92,5319.24,5279.57,5245.81,5187.56,5131.35,5126.12,5069.95,5061.08,5035.75,5015.87,5011.86,5013.41,5054.67,5085.76,5122.59,5157.19,5181.04,5205.56,5258.76,5316.99,5349.62,5391.57,5422.71,5456.24,5482.86,5508.46,5530.42,5553.57,5577.49,5598.1
4311.15,4272.23,4242.5,4217.63,4197.01,4187.24,4179.28,4176.63,4183.46,4197.8,4229.09,4256.98,4285.64,4313.72,4338.14,4367.62,4402.05,4441.75,4484.52,4524.82,4547.97,4592.59,4654.16,4730.27,4805.37,4877.68,4943.94,5006.22,5061.32,5111.64,5153.7,5190.39,5242.82,5263.76,5279.88,5288.99,5295.09,5295.95,5292.5,5283.38,5268.35,5247.93,5218.42,5182.78,5139.34,5090.26,5035.48,4978.35,4911.12,4844.91,4791.58,4729.33,4684.56,4640.69,4608.88,4565.42,4528.58,4510.02,4507.74,4508.57,4521.69,4535.28,4534.11,4541.71,4544.77,4554.76,4551.56,4568.49,4580.56,4597.21,4618.29,4643.6,4659.51,4694.8,4741.61,4788.26,4857.26,4936.57,5013.02,5078.81,5140.13,5193.02,5243.81,5285.6,5314.23,5336,5353.13,5367.96,5377.13,5381.65,5379.57,5372.75,5360.04,5334.1,5297.44,5243.81,5171.48,5081.54,5007.12,4929.79,4860.88,4784.13,4718.88,4662.27,4588.39,4548.1,4527.83,4501.37,4452.27,4426.8,4368.98,4324.92,4287.06,4262.39,4218.53,4246.1,4222.93,4253.32,4319.03,4407.34,4496.2,4575.77,4639.24,4699.75,4774.39,4857.42,4936.92,5017.04,5099.13,5176.94,5247.38,5308.84,5365.8,5414.73,5457.86,5488.57,5513.27,5533.43,5551.12,5565.76,5578.71,5587.99,5593.87,5598.41,5598.13,5589.98,5573.6,5552.46,5517.46,5468.83,5412.52,5349.17,5275.92,5201.04,5133.42,5068.62,4995.92,4947.62,4905.84,4856.53,4837.77,4815.89,4795.48,4786.5,4778.93,4786.65,4783.58,4770.19,4776.18,4786.4,4811.39,4825.58,4833.19,4888.75,4909.24,4937.03,5009.08,5033.49,5153.42,5255.16,5324.27,5385.84,5443.65,5485.51,5512,5524.55,5529.81,5536.69,5541.03,5538.73,5533.51,5524.25,5507.3,5491.92,5473.62,5440.72,5389.7,5324.74,5252.72,5173.15,5086.24,4983.94,4864.51,4766.39,4647.07,4560.12,4532.02,4493.76,4456.03,4456.32,4386.96,4293.2,4284.96,4294.03,4261.35,4216.01,4232.79,4232.06,4267.98,4386.12,4442.35,4481,4512.35,4539.05,4606.5,4683.41,4786.96,4783.89,4824.4,4868.98,4928.45,5016.32,5138.54,5219.39,5308.59,5387.97,5468.02,5547.23,5586.87,5615.46,5632.71,5650.31,5660.24,5664.87,5662.98,5656.17,5641.86,5624.29,5602.9,5576.42,5536.8,5480.1,5405.83,5317.59,5217.63,5113.74,5009.5,4908.46,4806.31,4708.82,4622.56,4559.68,4494.09,4451.22,4403.98,4367.67,4305.39,4291.68,4247.91,4213.06,4200.94,4196.24,4195.14,4195.23,4189.17,4216.08,4239.95,4261.96,4284.62,4384.7,4431.46,4425.05,4364.87,4323.38,4261.57,4223.79,4195.31,4164.22,4104.56,4067.97,4058.74,4072.74,4126.67,4268.63,4412.34,4580.64,4751.21,4931.45,5116.69,5309.62,5433.48,5577.02,5618.95,5632.26,5635.31,5627.58,5612.98,5591.34,5560.34,5525.52,5489.29,5444.1,5391.1,5338.14,5287.38,5235.64,5190.89,5144.43,5126.53,5104.25,5068.16,5065.58,5034.13,5033.13,5040.36,5036.21,5024.3,5024.58,5023.23,5032.08,5019.4,5047.28,5093.91,5143.65,5188.53,5278.34,5318.75,5364.97,5403.77,5438.8,5469.76,5496.05,5523.17,5550.01,5576.16,5601.81,5629.53,5656.69,5685.18,5713.06,5737.12,5758.68,5777.45,5792.74,5806.77,5820.02,5830.11,5834.45,5836.17,5833.79,5831.56,5822.45,5806.61,5785.43,5761.8,5737.7,5714.73,5689.47,5660.06,5627.32,5593.94,5559.3,5527.75,5497.15,5466.12,5430.81,5396.91,5351.62,5327.98,5296.95,5258.38,5223.28,5177.41,5163.4,5143.12,5104.32,5083.89,5083.05,5067.99,5109.15,5115.99,5161.02,5220.84,5228.35,5290.8,5338.17,5375.23,5407.4,5439.4,5483.31,5515.72,5550.67,5566.86,5594.39,5615.26,5637.48,5658.94,5678.85
4317.04,4282.41,4256.83,4235.85,4219.14,4212.02,4205.94,4205.7,4214.96,4230.76,4260.27,4289.83,4316.67,4343.59,4371.86,4401.02,4432.77,4467.86,4503.53,4535.06,4568.88,4612.02,4671.52,4746.42,4822.34,4896.41,4965.77,5031.49,5092.56,5146.92,5194.02,5229.47,5257.35,5282,5300.92,5313.04,5321.01,5324.98,5322.75,5317.01,5305.46,5289.97,5265.04,5232.96,5195.85,5143.45,5094.05,5042.93,4980.18,4916.33,4854.03,4794.11,4743.76,4696.73,4643.24,4603.39,4549.97,4528.72,4511.24,4511.99,4510.52,4505.52,4518.4,4528.74,4529.41,4537.39,4532.02,4533.44,4546.8,4563.92,4584.73,4601.13,4623.36,4629.16,4671.74,4738.48,4794.06,4875.87,4951.85,5026.13,5096.56,5163.5,5214.05,5264.06,5313.54,5363.62,5384.42,5399.85,5410.52,5416.12,5416.33,5410.75,5400.59,5378.6,5345.27,5295.75,5227.48,5144.43,5068.1,4996.27,4922.57,4852.38,4785.15,4732.44,4665.44,4606.11,4592.88,4579.59,4522.55,4498.17,4417.63,4371.9,4323.89,4260.01,4235.57,4216.42,4199.75,4277.83,4321.45,4392.33,4485.27,4555.34,4645.23,4716.29,4799.49,4877.96,4951.9,5031.46,5118.94,5201.55,5280.01,5345.64,5405.6,5459.97,5506.04,5540.88,5566.4,5590.61,5609.15,5625.72,5639.05,5650.23,5658.7,5661.42,5663.69,5655.38,5641.73,5621.91,5589.27,5540.19,5483.86,5417.92,5344.59,5269.54,5200,5133.29,5062.88,5008.96,4963.97,4925.74,4896.2,4877.75,4869.66,4872.12,4879.15,4869.45,4859.19,4842.13,4868.87,4844.84,4884.94,4901.43,4910.5,4937.82,4954.29,4989.8,5029.09,5069.45,5157.17,5283.85,5358.7,5419.35,5476.81,5520.11,5546.72,5559.94,5566.8,5573.68,5578.58,5577.7,5573.42,5564.12,5549.57,5534.08,5515.04,5480.57,5422.84,5353.81,5277.43,5193.99,5096.97,5005.37,4892.68,4792.09,4713.9,4647.29,4579.36,4566.5,4554.98,4544.49,4463.12,4445.66,4426.61,4411.38,4390,4411.97,4394.13,4356.78,4434.6,4511.91,4498.75,4560.68,4601.81,4673.05,4725.34,4767.61,4860.51,4900.44,4961.97,5016.05,5089.67,5160.19,5253.09,5328.93,5398.9,5468.2,5518.23,5583.28,5619.77,5639.22,5655.82,5674.31,5692.01,5697.67,5696.58,5690.16,5677.22,5659.27,5638.31,5611.52,5571.78,5512.42,5433.31,5340.39,5236.58,5129.29,5024.04,4916.17,4808.46,4710.07,4623.1,4554.32,4503.71,4454.17,4396.07,4339.2,4288.63,4255.88,4208.21,4176.34,4178.52,4207.69,4187.92,4199.78,4205.06,4226.83,4234.27,4255.77,4254.84,4395.52,4458.26,4454.56,4396.97,4349.5,4281.66,4240.13,4209,4175.12,4115.85,4072.41,4059.83,4071.11,4124.26,4270.67,4419.6,4592.45,4767.91,4954.07,5146.94,5346.39,5473.07,5617.25,5658.07,5671.95,5673.75,5664.83,5648.49,5624.23,5588.78,5549.75,5509.69,5460.72,5406.23,5350.61,5294.31,5244.33,5201.98,5168.79,5135.96,5099.55,5082.07,5068.95,5055.16,5042.56,5042.49,5047.52,5047,5052.76,5067.24,5069.45,5075.76,5116.52,5189.35,5243.71,5295.82,5353.81,5392.89,5430.23,5464.54,5496.13,5521.41,5544.15,5568.84,5594.09,5622.59,5649.25,5678.55,5708.67,5740.14,5770.47,5796.96,5818.93,5837.33,5851.09,5865.4,5875.78,5883.44,5884.9,5883.3,5877.95,5871.19,5857.87,5837.92,5813.27,5787.56,5756.49,5730.49,5701.71,5669.62,5636.15,5602.53,5569.47,5539.65,5501.66,5482.61,5443.37,5407.27,5365.29,5330.69,5297.35,5263.15,5217.56,5209.64,5189.78,5160.97,5146.63,5126.99,5137.39,5167.96,5181.99,5230.99,5248.02,5310.85,5354.38,5381.74,5417.65,5449.98,5502.53,5531.26,5570.04,5603.37,5627.68,5650.81,5672.86,5692.6,5714.46,5732.96,5750.62
4329.95,4301.08,4281.91,4265.9,4255.24,4253.67,4251.49,4254.04,4266.2,4283.46,4312.81,4341.97,4369.13,4395.56,4423.16,4451.66,4481.46,4512.56,4542.75,4565.06,4588.29,4620.3,4671.95,4741.95,4815.1,4887.08,4959.26,5026.08,5088.85,5146.69,5198.61,5238,5267.72,5296.53,5317.79,5333.18,5343.52,5350.66,5351.02,5348.02,5341.57,5330.15,5311.63,5286.93,5257.19,5223.51,5187.06,5146.98,5100.34,5034.92,4973.02,4908.04,4868.76,4812.32,4748.01,4701.81,4650.44,4616.88,4597.43,4596.76,4584.38,4599.92,4593.77,4597.32,4585.97,4579.13,4580.58,4575.96,4577.65,4578.24,4591.82,4611.18,4634.05,4657.52,4689.25,4731.93,4792.69,4864.51,4950.6,5031.4,5105.31,5178.15,5240.09,5290.87,5352.89,5390.75,5413.7,5429.32,5442.67,5449.21,5450.39,5446.46,5437.79,5418.57,5389.56,5344.96,5279.11,5201.85,5129.72,5060.78,4994.39,4923.09,4862.28,4804.06,4754.3,4722.03,4706.09,4690.63,4667.16,4632.76,4587.36,4542.17,4496.96,4434.91,4352.72,4356.4,4363.94,4353.81,4399.2,4463.02,4549.02,4602.17,4681.34,4750.22,4816.29,4885.79,4958.52,5035.58,5133.08,5225.2,5304.86,5383.23,5448.18,5508.73,5557.92,5595.63,5625.57,5649.9,5670.52,5687.91,5702.64,5714.68,5722.54,5726.23,5726.13,5719.33,5705.13,5684.59,5652.96,5605.96,5548.68,5482.72,5412.75,5337.58,5265.76,5193.54,5125.48,5069.16,5017.36,4975.55,4953.79,4935.83,4932.22,4929.76,4939.98,4914.41,4915.59,4934.09,4937.59,4960.42,4992.1,4984.83,4984.53,5016.16,5029.71,5065.14,5112.63,5138.65,5192.63,5327.62,5396.19,5455.35,5512.1,5554.21,5579.38,5592.57,5599.23,5609.26,5615.32,5614.47,5609.9,5599.85,5581.65,5564,5541.43,5499.09,5438.33,5365.53,5282.53,5193.73,5100.48,4986.78,4883.3,4806.91,4746.68,4648.93,4597.97,4577.97,4536.7,4558.58,4517.02,4501.93,4508.32,4458.54,4435.1,4417.03,4439.16,4379.98,4392.69,4504.37,4516.31,4603.41,4651.79,4730.7,4760.66,4804.17,4879.91,4949.61,5011.28,5063.81,5136.12,5232.77,5315.11,5383.46,5456.94,5515.95,5557.55,5593.68,5615.35,5635.26,5663.11,5689.87,5715.26,5723.41,5723.31,5717.84,5705.45,5689.69,5668.87,5643.11,5600.5,5538.25,5455.83,5357.48,5252.05,5143.96,5033.97,4923.62,4810.83,4710.33,4624.45,4567.26,4504.85,4453.21,4394.48,4356,4283.14,4240.81,4219.65,4209.7,4184.97,4217.2,4212.26,4214.86,4238.63,4240.13,4274.73,4287.67,4294.04,4422.94,4481.88,4480.58,4420.38,4370.7,4299.56,4253.96,4220.96,4184.96,4126.46,4076.13,4061.57,4068.68,4120.35,4270.95,4423.94,4602.38,4783.78,4975.8,5177.43,5381.22,5516.47,5657.54,5699.76,5715.41,5716.38,5705.37,5685.5,5658.54,5617.63,5573.99,5529.4,5475.75,5419.17,5363.62,5313.74,5258.87,5218.69,5193.55,5158.12,5126.03,5108.5,5072.55,5041.31,5050.05,5035.24,5048.32,5043.54,5077.46,5092.98,5106.17,5147.59,5211.37,5261.04,5321.55,5372.95,5421.29,5457.12,5492.18,5521.85,5549.76,5573.29,5595.57,5619.58,5647.18,5674.42,5704.98,5735.41,5769.06,5800.5,5834.53,5862.56,5885.28,5902.49,5915.15,5927.34,5935.58,5940.04,5939.76,5934.2,5924.5,5914.5,5897.31,5871.37,5841.91,5810.05,5776.98,5747.05,5713.4,5681.04,5645.49,5612,5582.27,5542.46,5521.9,5494.69,5454.66,5403.86,5397.03,5352.22,5313.52,5284.49,5264.44,5233.69,5224.52,5195.34,5190.35,5197.62,5217.74,5246.34,5270.59,5321.52,5371.05,5408.3,5446.27,5477.41,5512.79,5554.35,5595.42,5625.85,5655.17,5684.18,5708.9,5734.64,5758.15,5776.85,5797.78,5814.94,5830.76
