3337.58,3386.81,3425.15,3456.58,3524.65,3561.41,3602,3629.43,3670.82,3692.99,3717.07,3728.83,3738.89,3747.38,3755.13,3760.98,3762.88,3763.88,3765.59,3766.3,3769.12,3771.31,3772.99,3773.52,3775.46,3777.91,3781.83,3787.21,3791.14,3794.38,3795.9,3796.54,3794.52,3789.95,3783.21,3770.67,3753.95,3718.61,3688.3,3639.78,3573.85,3505.67,3426.07,3356.1,3280.12,3216.52,3150.72,3105.68,3063.22,3033.61,2974.09,2920.58,2879.05,2793.7,2759.25,2680.12,2667.31,2652.14,2585.65,2569.98,2548.45,2492.88,2433.88,2391.5,2332.03,2257.7,2193.68,2166.13,2093.67,2111.72,2123.98,2118.33,2124.45,2345.87,2716.3,3093.25,3247.9,3338.8,3444.23,3504.96,3579.6,3629.56,3677.71,3712.67,3726.22,3738.9,3750.04,3758.14,3767.4,3778.28,3797.5,3803.45,3812.42,3821.79,3830.63,3838.87,3846.8,3852.8,3857.96,3863.12,3865.48,3865.44,3864.16,3858.51,3854.9,3848.57,3840.81,3830.88,3819.23,3805.82,3790.16,3774.68,3758.52,3738.56,3713.4,3682.45,3633.44,3589.81,3517.6,3460.26,3415.68,3366.34,3291.31,3213.17,3140.19,3071.38,3030.88,3013.74,2941.95,2910.02,2841.93,2786.32,2669.04,2620.18,2532.67,2406.13,2360.33,2329.59,2330.83,2401.75,2494.99,2559.64,2750,2837,2933.26,3001.34,3066.99,3126.96,3147.44,3233.6,3260.03,3335.06,3454.8,3583.14,3684.83,3751.64,3775.9,3792.7,3808.26,3819.74,3826.31,3836.14,3842,3845.69,3851.27,3854.39,3858.21,3858.68,3860.05,3856.1,3852.09,3845.62,3840.89,3832.58,3824.28,3808.57,3793.51,3759.89,3735.47,3712.81,3678.55,3614.82,3502.7,3317.42,3085.75,2845,2669.07,2500.97,2465.03,2402.62,2295.9,1972.01,1472.53,1089.58,841.476,658.477,534.584,507.232,500.035,469.722,499.652,570.383,643.5,780.136,967.686,1073.88,1094.92,1133.1,1156.09,1204.9,1317.91,1382.56,1459.38,1542.8,1699.65,1823.37,1948.11,2007.02,2132.34,2228.83,2296.14,2399.32,2424.15,2439.32,2483.06,2577.51,2579.02,2623.53,2595.93,2650.37,2734.89,2918,3125.91,3406.97,3639.77,3768.62,3884.92,3922.89,3932.96,3935.63,3937.52,3944.25,3939.87,3928.36,3916.83,3904.19,3889.65,3873.36,3856.56,3838.78,3822.03,3807.01,3792.26,3779.86,3766.39,3753.19,3741.55,3726.23,3706.2,3685.91,3647.98,3621.27,3574.68,3496.9,3423.68,3324.64,3235.7,3176.48,3079.47,3000.74,2922.84,2917.77,2896.54,2799.66,2685.04,2631.2,2624.41,2536.15,2483.87,2427.59,2392.61,2348.87,2331.13,2304.9,2271.86,2309.33,2318.27,2322.52,2399.05,2465.72,2525.8,2585.46,2685.35,2787.8,2939.62,3042.75,3144.62,3245.89,3350.69,3400.86,3442.1,3468.34,3487.02,3499.08,3514.96,3522.03,3533.8,3543.78,3540.79,3537.94,3527.81,3505.04,3484.75,3466.41,3436.84,3405.95,3381.97,3354.39,3326.05,3301.44,3273.51,3244.81,3226.52,3202.49,3076.12,1454.11,364.599,29.951,2092.23,2153.94,2017.4,1950.86,2148.36,2217.1,2231.76,2235.63,2218.03,2216,2211.47,2215.99,2212.31,2208.25,2205.01,2200.26,2203.67,2207.85,2215.29,2219.21,2220.57,2201.15,1802,740.864,1218.87,1608.25,1620.42,1572.79,1540,1500.91,1471.92,1444.39,1412.66,1379.63,1345.22,1273.72,1218.99,1233.9,1224.02,1198.01,1261.79,1400.32,1466.56,1482.05,1463.72,1515.26,1498.25,1487.19,1606.71,1632.38,1781.45,2025.38,2404.59,2742.08,3141.76,3401.45,3590.05,3668.43,3719.2,3765.46,3819.48,3842.77,3862.56,3878.84,3890.31,3898.72,3905.93,3909.59,3910.98,3910.33,3911.68,3911.57,3910.58,3909.1,3907.15
3335.59,3383.79,3426.66,3474.22,3516.79,3556.16,3596.59,3619.21,3659.8,3686.24,3713.54,3725.9,3737.21,3746.92,3755.23,3762.4,3765.54,3767.38,3769.39,3773.21,3777.66,3781.99,3784.93,3787.99,3790.03,3792.57,3799.19,3806.38,3812.26,3817.29,3819.86,3821.28,3819.94,3816.53,3810.37,3799.09,3783.51,3757.22,3720.32,3670.65,3628.77,3551.73,3489.72,3436.45,3318.84,3212.38,3133.09,3037.56,3003.3,2974.37,2933.09,2892.96,2845.06,2807.41,2763.14,2681.51,2625.61,2617.53,2551.05,2562.88,2525.4,2469.84,2451.21,2418.59,2356.6,2284.32,2284.45,2250.18,2248.4,2206.01,2237.4,2276.16,2324.8,2457.47,2710.26,3057.59,3222.71,3304.75,3401.86,3479.04,3540.27,3616.11,3674.54,3713.48,3737.92,3751.04,3764.99,3773.54,3783.28,3794.55,3812.83,3819.97,3827.94,3837.56,3846.75,3855.35,3864.73,3871.6,3877.86,3884.81,3889.43,3891.68,3891.77,3888.24,3884.25,3878.55,3872.19,3862.93,3852.21,3838.7,3824.08,3808.41,3792.8,3769.87,3748.36,3716.67,3678.53,3630.71,3589.3,3530.31,3442.35,3410.72,3321.63,3272.47,3201.09,3181.55,3136.29,3083.78,3070.78,3026.11,3010.51,2994.85,2982.86,2991.93,2997.85,2947.53,2922.71,2944.69,2956.89,3019.83,3076.56,3151.11,3192.55,3267.94,3317.28,3325.94,3352.62,3351.02,3391.12,3417.97,3410.08,3413.81,3456.71,3573.67,3672.65,3760.32,3785.53,3802.86,3819.7,3832.15,3842.46,3848.15,3854.29,3858.99,3864.97,3868.1,3872.79,3873.91,3875.93,3873.09,3869.7,3863.93,3859.72,3852.42,3845.17,3830.11,3815.55,3798.62,3777.81,3757.89,3719.33,3668.72,3582.01,3455.97,3242.21,2976.32,2754.32,2640.62,2573.29,2560.11,2435.85,2093,1640.48,1185.01,925.945,734.947,588.483,550.789,539.641,529.31,607.926,677.6,836.05,999.703,1154.62,1221.86,1267.47,1293.95,1340.82,1344.61,1453.26,1531.71,1630.82,1735.11,1831.54,1923.41,2068.84,2191.95,2264.73,2357.31,2400.09,2487.58,2559.69,2616.46,2649.21,2712.81,2716.98,2692.01,2684.27,2768.42,2811.01,2993.39,3238.45,3468.29,3682.61,3794.95,3881.39,3905.42,3921.27,3925.45,3925.92,3942.13,3936.47,3928.38,3919.31,3909.05,3895.89,3880.73,3865.98,3849.21,3821.31,3802.33,3787.96,3771.38,3761.14,3747.76,3733.92,3717.92,3699.06,3673.24,3636.89,3601.58,3553.43,3472.37,3410.87,3312.71,3250.25,3178.04,3095.75,3012.74,2951.85,2912.47,2842.5,2748.51,2660.12,2595.57,2551.82,2510.29,2472.72,2408.44,2366.69,2316.39,2246.36,2208.85,2204.55,2248.75,2275.68,2303.15,2376.39,2470.22,2576.59,2630.24,2715.43,2802.69,2937.69,3055.05,3164.31,3280.17,3354.25,3436.52,3473.39,3514.83,3524.95,3528.46,3543.26,3552.61,3553.45,3567.61,3562.12,3569.65,3568.09,3547.03,3521.48,3519.76,3498.24,3476.67,3454.31,3434.61,3409.66,3385.33,3361.64,3337.75,3317.91,3290.08,3175.63,1809.91,472.206,24.796,1873.64,2059.64,1940.57,1885.87,2123.06,2209.21,2238.58,2234.64,2238.31,2220.38,2216.22,2215.63,2211.97,2208.2,2204.95,2202.47,2204.55,2207.93,2215.38,2219.36,2221.01,2205.3,1817.5,575.178,1307.5,1787.53,1746.22,1674.52,1665.5,1588.71,1578.95,1536.92,1520.54,1473.3,1434.4,1369.8,1315.34,1291.89,1303.73,1334.62,1456.84,1547.33,1547.69,1569.32,1569.58,1623.05,1583.79,1619.09,1687.34,1733.27,1828.91,2043.64,2405.27,2729.5,3123.3,3441.29,3594.47,3691.9,3752.48,3784.62,3828.01,3855.96,3877.32,3894.42,3908.48,3919.07,3926.68,3931.67,3933.81,3934.51,3934.85,3934.18,3931.99,3929.3,3926.8
3306.11,3343.38,3384.61,3450.09,3496.47,3533.89,3569.58,3601.23,3645.96,3679.21,3704.62,3721.13,3732.52,3743.11,3753.33,3761.19,3765.72,3768.35,3772.29,3775.86,3781.73,3787.62,3792.67,3798.21,3802.79,3808.22,3815.48,3824.4,3831.74,3838.23,3841.63,3842.66,3842.43,3838.15,3832.01,3821.17,3805.6,3779.26,3752.39,3709.93,3660.41,3595.51,3546.85,3456.59,3350.63,3263.26,3109.39,3061.79,2983.46,2976.57,2915.92,2904.73,2870.1,2785.56,2749.29,2706.82,2643.48,2599.03,2567.26,2556.51,2521.76,2480.97,2463.14,2419.23,2396.45,2334.79,2314.83,2288.11,2252.73,2237.44,2275.91,2286.95,2349.29,2466.98,2685.87,3030.48,3161.5,3285.76,3385.3,3460.34,3547.34,3606.56,3680.47,3720.93,3742.27,3762.73,3777.59,3785.92,3796.16,3808.6,3824.17,3834.95,3842.21,3852.18,3862.34,3872.85,3883.38,3891.18,3899.96,3908.54,3914.04,3917.71,3920.04,3917.44,3914.12,3909.66,3903.63,3895.06,3884.68,3871.63,3857.5,3841.38,3825.23,3805.84,3779.57,3748.23,3720.91,3669.69,3618.66,3564.22,3469.84,3423.27,3352.47,3253.57,3199.76,3173.05,3146.14,3122.86,3089.6,3067.26,3078.9,3079.55,3060.25,3060.8,3012.84,3043.47,3056.49,3050.82,3118.96,3143.53,3161.81,3229.49,3259.95,3323.1,3347.28,3382.82,3397.44,3425.24,3419.32,3432.31,3449.25,3461.94,3455.33,3558.04,3693.04,3769.93,3793.1,3814.43,3831.64,3844.25,3854.96,3860.96,3866.59,3871.16,3878.18,3881.8,3886.84,3888.12,3890.84,3888.52,3886.34,3881.26,3878.45,3872.52,3865.53,3851.99,3838.46,3822.46,3805.25,3780.86,3757.91,3706.67,3622.36,3501.34,3322.2,3127.49,2870.06,2750.85,2704.53,2700.33,2594.73,2296.09,1804.92,1370.36,1110.16,926.594,784.625,726.215,654.446,656.157,798.252,925.843,1089.86,1223.94,1254.4,1286.04,1411.68,1482.87,1527.63,1600.46,1658.71,1717.31,1765.39,1848.27,1953.95,2062.4,2215.7,2300.26,2399.27,2497.19,2601.57,2641.24,2740.84,2745.31,2805.9,2847.55,2867.19,2886.98,2890.45,2909.03,3011.3,3189.21,3370.1,3563.48,3732.75,3828.31,3878.65,3899.54,3908.71,3914.05,3931.78,3935.01,3932.02,3926.33,3920.32,3911.57,3900.65,3887.22,3873.67,3859.19,3820.9,3810.15,3792.51,3779.57,3764.83,3750.74,3735.26,3716.85,3696.59,3668.6,3634.23,3607.15,3554.48,3487.93,3451.93,3366.18,3309.94,3238.77,3153.23,3145.61,3091.47,3025.54,2975.99,2869.12,2809.92,2653.6,2580.64,2565.25,2507.49,2470.51,2407.71,2335.98,2247.82,2273.29,2335.51,2343.39,2383.89,2483.52,2530.35,2641.79,2744.2,2830.08,2904.79,2992.38,3120.51,3190.89,3276.88,3366.16,3428.65,3480.07,3543.17,3547.7,3550.77,3558.8,3561.42,3566.88,3562.42,3583.4,3582.09,3588.21,3582.03,3567.63,3560.79,3553.09,3536.08,3521.85,3499.51,3480.53,3460.68,3457.82,3438.14,3422.31,3404.91,3380.94,3238.89,2268.89,559.516,37.275,1490.71,1890.72,1865.35,1838.31,2074.36,2198.41,2241.67,2225.58,2236.52,2227.93,2220.92,2215.58,2211.91,2206.14,2205.32,2202.26,2205.09,2207.97,2215.07,2218.88,2220.35,2210.51,1866.76,633.335,1416.41,1893.32,1837.29,1754.1,1740.29,1680.3,1645.4,1608.51,1576.58,1553.79,1482.85,1390.59,1398.68,1375.55,1392.84,1536.39,1571.53,1607.33,1644.6,1652.89,1659.27,1697.42,1635.67,1691.99,1764.33,1765.81,1889.64,2030.1,2363.17,2757.76,3103.36,3447.91,3584.46,3688.65,3769.98,3805.5,3838.17,3866.44,3887.88,3906.93,3922.15,3933.84,3943.12,3948.85,3950.57,3951.26,3952.21,3951.43,3948.92,3945.3,3940.56
3359.53,3381.94,3387.09,3437.44,3482.87,3522.88,3556.43,3578.22,3616.34,3658.95,3695.03,3708.97,3724.37,3735.94,3746.41,3755.77,3762.23,3766.64,3772.57,3779.22,3786.56,3794.76,3802.33,3809.57,3816.89,3824.32,3833.66,3844.04,3851.95,3858.09,3862.13,3862.24,3860.5,3856.16,3849.44,3838.08,3822.03,3799.25,3772.41,3733.35,3676.36,3634.47,3548.03,3447.78,3341.43,3234.14,3154.71,3061.67,3029.11,2987.94,2919.85,2915.62,2839.56,2817.64,2771.88,2710.01,2655.67,2598.9,2562.41,2505.64,2533.33,2474.82,2467.45,2430.84,2429.21,2402.28,2349.06,2344.14,2263.59,2253.42,2291.42,2361.11,2372.69,2462.42,2655.84,2982.98,3196.51,3278.94,3373.09,3452.83,3514.07,3603.81,3678.02,3715.25,3748.19,3768.14,3779.69,3792.99,3804.62,3818.33,3831.58,3847.17,3855.84,3866.08,3877.2,3889.01,3900.42,3909.71,3918.88,3929.12,3936.75,3942.21,3945.12,3943.69,3941.15,3937.73,3931.91,3923.78,3913.31,3900.17,3885.73,3868.62,3851.2,3831.41,3801,3775.35,3744.97,3682.59,3631.3,3576.19,3487.15,3424.16,3359.62,3300.85,3216.54,3182.95,3138.08,3132.42,3086.49,3044.16,3033.94,3049.46,3035.51,3042.29,3045.16,3041.82,3078.74,3066.12,3119.42,3131.35,3151.95,3180.71,3244.64,3271.55,3325.85,3356.3,3366.6,3375.05,3386.28,3392.87,3400.87,3446.95,3477.41,3593.64,3699.53,3769.34,3801.34,3823.9,3841.08,3855.13,3865.83,3872.33,3878.59,3883.37,3891.07,3895.43,3901.24,3903.33,3906.04,3904.38,3904.01,3899.49,3897.76,3892.4,3887.31,3874.79,3861.74,3845.47,3828.33,3807.9,3786.96,3757.46,3709.03,3610.24,3519.95,3404.51,3287.82,3166.3,3130.45,3123.53,3051.77,2838.36,2598.82,2265.96,2016.78,1778.5,1554.02,1521.94,1554.76,1585.09,1762.85,1913.22,2021.84,2125.5,2170.85,2233.39,2284.34,2345.47,2416.44,2473.78,2490.28,2513.49,2544.81,2627.41,2661.63,2720.85,2778.36,2854.16,2953.29,2982.13,3064.43,3130.65,3161.16,3213.65,3256.3,3274.46,3305.01,3326.98,3413.6,3470.82,3522.18,3599.93,3691.51,3777.08,3835.37,3864.7,3883.41,3895.69,3909.1,3923.64,3927.16,3928.54,3927.95,3924.67,3920.54,3915.6,3905.16,3894,3883.07,3870,3856.19,3842.65,3828.88,3803.77,3789.08,3773.7,3757.17,3737.17,3714.17,3691.49,3658.07,3621.22,3586.43,3536.93,3487.39,3395.6,3341.15,3277.5,3242.98,3218.28,3182.95,3132.88,3089.2,3039.69,2888.51,2789.54,2694.43,2667.41,2636.78,2567.53,2463.84,2441.31,2389.84,2448.21,2476.75,2520.85,2584.16,2696.14,2769.15,2890.05,3014.79,3099.81,3167.58,3256.43,3345.96,3423.16,3446.97,3522.79,3557.03,3562.59,3591.09,3605.23,3605.19,3598.84,3607.69,3611.85,3616.65,3619.13,3621.38,3617.35,3624.32,3619.2,3611.9,3599.76,3589.15,3569.88,3555.12,3543.21,3527.03,3528.13,3512.51,3496.48,3485.22,3473.3,3336.96,2497.81,594.951,46.891,1130.85,1753.13,1736.99,1784.72,2035,2121.85,2207.14,2210.18,2232.56,2233.15,2220.99,2213.25,2211.7,2208.07,2205.48,2202.03,2204.87,2207.03,2213.4,2216.87,2218.26,2212.33,2016.49,795.543,1543.24,1979.4,1860.96,1806.04,1804.67,1774.75,1751.02,1742.18,1688.26,1609.71,1573.61,1434.53,1450.67,1477.66,1565.67,1653.26,1693.17,1697.51,1696.27,1716.05,1735.99,1753.91,1677.71,1781.29,1815.5,1819.9,1834.66,2055.99,2383.11,2722.47,3112.13,3421.72,3575.73,3702.51,3779.12,3813.97,3848.64,3875.67,3897.09,3917.44,3933.32,3945.1,3955.51,3962.17,3963.21,3964.92,3965.66,3964.35,3961.78,3956.53,3951.35
3302.34,3322.27,3352.86,3400.69,3443.72,3479.6,3533.87,3549.78,3591.65,3631.42,3666.9,3688.49,3705.49,3720.78,3737.13,3748.78,3758.49,3766.37,3774.85,3784.96,3794.62,3804.92,3814.26,3824.45,3833.64,3842.97,3852.57,3863.47,3870.96,3877.19,3880.06,3879.09,3876.33,3870.62,3863.01,3851.4,3834.64,3815.25,3783.42,3747.43,3708.71,3645.95,3544.49,3469.02,3370.92,3278.98,3157.88,3069.9,3003.92,2996,2934.1,2889.75,2863.96,2832.02,2770.09,2738.58,2678.29,2612.71,2550.29,2541.02,2483.18,2468.03,2456.85,2432.97,2420.93,2397.92,2391.68,2379.05,2364.14,2288.35,2328.2,2371.15,2358.39,2519.32,2670.67,2957.05,3129.34,3262.23,3355.52,3421.56,3491.32,3565.35,3666.37,3715.51,3751.83,3775.6,3787.65,3802.24,3818.16,3830.05,3840.62,3859.89,3869.25,3881.18,3893.36,3904.26,3916.54,3927.07,3936.49,3947.39,3955.82,3960.94,3965.17,3964.47,3962.44,3959.96,3953.83,3946,3935.06,3921.33,3905.38,3887.66,3868.5,3847.17,3819.4,3789.39,3754.13,3700.56,3646.83,3611.55,3522.64,3442.14,3368.54,3299.18,3227.35,3200.49,3146.43,3103.2,3073.59,3044.65,3028.99,3037.03,3030.07,3019.51,3050.33,3043.02,3077.75,3073.88,3085.09,3123.04,3140.65,3172.84,3207.88,3244.82,3286.26,3278.81,3335.72,3317.6,3368.66,3392.43,3388.01,3453.89,3514.02,3615.15,3727.18,3779.17,3807.52,3830.78,3849.46,3863.73,3874.66,3881.92,3889.54,3895.35,3903.97,3908.73,3914.8,3918.02,3921.85,3921.26,3921.59,3918.7,3918.03,3913.49,3908.73,3897.83,3885.4,3868.87,3851.16,3830.08,3807.53,3780.08,3734.88,3664.21,3552.37,3438.23,3334.35,3237.55,3144.02,3170.49,3162.49,3002.31,2873.02,2712.19,2561.75,2473.17,2355.06,2341.71,2340.73,2378.63,2474.17,2476.79,2516.74,2576.88,2671.58,2743.57,2749.72,2802.32,2827.2,2846.76,2889.42,2890.42,2909.28,2925.85,2979.85,2963.74,2994.12,3059.67,3117.74,3158.35,3221.6,3259.25,3313.96,3361.32,3373.14,3473.1,3524.98,3588.71,3658.13,3676.99,3734.5,3775.45,3806.86,3832.42,3850.12,3870.1,3884.04,3896.86,3907.51,3913.86,3918.98,3923.07,3925.01,3925.16,3923.09,3919.39,3911.28,3902.21,3893.2,3881.68,3869.44,3856.39,3843.9,3829.94,3815.23,3799.37,3780.74,3759.27,3734.3,3701.01,3669.69,3613.68,3578.97,3543.04,3480.74,3414.46,3384.56,3339.01,3325.66,3266.56,3226.32,3150.32,3074.92,3044.41,2912.98,2850.68,2803.59,2742.13,2676.44,2599.91,2486.6,2490.38,2520.4,2507.47,2539.39,2629.56,2757.91,2834.5,2967.35,3089.88,3215.41,3291.09,3364.48,3453.26,3498.2,3540.69,3591.2,3618.06,3647.79,3664.57,3668.48,3666.58,3665.83,3664.82,3664.92,3674.08,3674.2,3675.36,3669.46,3672.34,3671.94,3668.65,3659.47,3649.25,3636.84,3623.9,3618.82,3609.31,3603.04,3588.99,3575.41,3560.47,3550.63,3533.65,3372.54,2413.17,604.074,35.182,711.098,1683.26,1727.95,1723.57,1911.26,2071.54,2169.2,2193.63,2245.78,2222.77,2217.03,2217.35,2211.51,2207.8,2205.48,2203.7,2204.22,2205.28,2210.67,2213.98,2215.18,2209.06,2103.25,1015.44,1654.07,2024.49,1943.93,1890.47,1859.14,1826.31,1828.09,1816.4,1785.95,1709.75,1623.61,1551.5,1514.8,1660.15,1709.96,1785.73,1773.44,1779.34,1778.27,1822.23,1822.92,1804.92,1794.13,1818.55,1863.77,1951.7,2049.16,2264.74,2582.3,2977.58,3276.28,3493.36,3626.22,3705.16,3774.8,3810.34,3842.47,3884.55,3888.97,3921.02,3941.28,3953.45,3964.14,3969.64,3972.66,3973.5,3974.68,3973.55,3969.9,3964.54,3957.6
3313.14,3336.49,3362.97,3414.5,3457.91,3469.05,3496.5,3536.8,3576.66,3598.38,3630.12,3667.17,3688.43,3707.01,3721.74,3735.87,3749.89,3763.26,3775.65,3787.74,3800.73,3813.01,3823.85,3838.87,3853.42,3862.56,3872.6,3882.51,3889.62,3894.64,3897.11,3894.46,3889.81,3883.19,3874.15,3861.15,3844.37,3824.72,3792.75,3756.63,3717.71,3658.56,3564.63,3474.78,3383.3,3305,3221.57,3131,3026.73,2994.88,2955.29,2913.73,2879.14,2867.29,2780.93,2718.35,2687.48,2629.79,2553.99,2543.94,2527.55,2463.4,2479.26,2423.93,2426.16,2399.03,2392.93,2394.12,2400.62,2375.51,2340.93,2366.38,2398.09,2497.18,2624.47,2917.61,3111.67,3157.4,3263.53,3380.88,3485.31,3552.61,3662.79,3692.75,3748.31,3773.15,3786.35,3800.99,3819.97,3833.83,3846,3863.75,3878.66,3891.28,3904.79,3917.53,3930.25,3940.94,3951.53,3962.69,3971.86,3978.74,3982.95,3982.58,3981.14,3977.8,3971.88,3964.05,3951.9,3937.97,3920.69,3901.64,3880.69,3858.49,3833.36,3801.71,3761.78,3719.12,3663.31,3600.13,3532.22,3477.59,3393.32,3352.83,3288.54,3227.27,3185.04,3118.71,3097.19,3069.91,3044.33,3041.51,3017.37,3008.4,3028.11,3038.38,3077.85,3080.49,3081.54,3127.56,3128.86,3136.02,3179.76,3210.3,3267.25,3260.56,3286.35,3324.96,3337.83,3383.43,3443.93,3487.4,3520.89,3619.51,3735.85,3781.34,3810.9,3835.26,3855.14,3870.96,3884.21,3892.07,3900.51,3907.86,3917.09,3922.9,3929.61,3933.52,3937.31,3937.69,3938.67,3936.27,3936.31,3934.03,3928.77,3917.69,3905.61,3888.61,3870.39,3848.48,3824.52,3796.46,3743.01,3674.89,3586.08,3444.32,3344.42,3241.24,3190.61,3144.9,3076.83,3026.4,2934.55,2793.3,2681.99,2640.54,2580.77,2541.27,2544.99,2538.5,2555.59,2543.23,2538.47,2595.31,2683.53,2727.99,2752.71,2806.11,2840.15,2851.1,2896.91,2924.12,2950.95,2957.38,2984.46,3016.79,3044.27,3086.44,3127.94,3161.69,3223.91,3278.74,3313.75,3380.19,3441.58,3519.35,3569.15,3638.41,3695.02,3721.36,3747.01,3786.68,3814.15,3829.73,3844.44,3859.91,3873.71,3887.22,3897.72,3905.49,3911.53,3917.26,3922.37,3925.31,3926.05,3924.34,3917.83,3911.22,3904.58,3894.54,3884.21,3872.53,3859.3,3846.11,3823.82,3807.14,3787.79,3760.1,3729.85,3696.09,3648.99,3611.06,3571.25,3519.59,3454.84,3429.52,3406.5,3355.45,3304.35,3249.97,3176.31,3099.55,3080.35,3040.94,2949.89,2884.22,2837.48,2792.12,2676.42,2605.14,2573.18,2564.12,2552.29,2602.44,2705.08,2779.55,2914.25,3027.72,3193.81,3332.23,3387.52,3480.63,3531.5,3601.18,3670.82,3692.12,3708.49,3737.43,3750.53,3759.29,3768.71,3767.81,3765.84,3758.46,3752.19,3744.4,3743.7,3739.54,3740.16,3738.55,3737.85,3734.44,3725.32,3715.15,3702.86,3690.96,3677.95,3666.56,3653.94,3640.89,3627.17,3613.02,3603.34,3590.43,3487.22,2274.97,500.81,28.658,381.66,1648.72,1666.95,1643.6,1804.42,1942.75,2111.06,2153.89,2234.34,2205.7,2220.42,2215.79,2211.53,2207.58,2205.1,2203.19,2203.09,2203.29,2202.92,2201.44,2211.86,2205.96,2130.85,1164.32,1773.22,2050.82,2018.73,1960.59,1893.42,1872.05,1871.64,1854.37,1818.91,1759.7,1684.97,1586.14,1683.77,1783.16,1800.47,1894.57,1887.01,1899.91,1890.53,1926.76,1883.64,1907.77,1880.51,1941.23,2058.06,2213.14,2349.22,2634.28,3028,3260.3,3494.95,3622.03,3705.73,3758.29,3794.11,3830.65,3853.07,3881.08,3900.42,3927.09,3946.76,3958.87,3969.87,3975.79,3978.66,3980.57,3981.03,3979.92,3975.42,3969.7,3962.17
3400.64,3404.53,3454.38,3458.47,3502.88,3499.37,3476.29,3489.83,3502.11,3526.71,3570.18,3603.81,3628.02,3652.03,3678.32,3704.37,3732.38,3750.16,3766.32,3781.65,3797.34,3810.95,3823.34,3834.13,3875.78,3885.05,3894.05,3903.88,3908.87,3912.04,3913.18,3909.57,3902.84,3894.42,3883.2,3869.96,3851.58,3832.48,3804.85,3750,3712.67,3666.77,3589.35,3498.75,3393.59,3330.55,3232.71,3164.5,3096.96,3034.11,2985.72,2941.9,2883.13,2825.04,2771.58,2729.65,2687.18,2624.1,2576.89,2526.81,2477,2438.85,2407.32,2329.34,2305.74,2278.21,2297.62,2309.73,2303.65,2264.72,2231.66,2224.54,2234.49,2320.39,2567.79,2862.46,3024.91,3112.1,3204.08,3301.76,3415.41,3518.62,3616.54,3676.78,3722.06,3762,3780.65,3798.55,3820.73,3837.03,3851.01,3871.49,3887.87,3898.66,3916.83,3931.09,3944.47,3955.92,3965.79,3977.33,3987.16,3993.92,3997.9,3998.03,3996.76,3993.41,3987.85,3979.51,3968.13,3952.93,3935.95,3915.99,3894.49,3870.47,3845.08,3809.54,3773.24,3738.7,3686.34,3615.12,3536,3462.28,3412.11,3349.45,3270.25,3217.21,3158.28,3102.26,3066.58,3018.02,2995.8,3022.55,3008.3,3027.34,3018.47,3041.53,3052.97,3038.22,3061.16,3089.97,3112.35,3132.74,3177.64,3175.56,3195.56,3185.04,3245.59,3267.44,3304.34,3348.7,3414.39,3435.53,3503.16,3628.11,3725.21,3782.25,3813.87,3838.8,3860.32,3877.72,3892.14,3901.23,3910.8,3919.88,3930.14,3935.64,3943.38,3947.99,3952.01,3952.83,3954.31,3952.27,3952.32,3949.88,3943.97,3933.57,3919.86,3901.55,3881.43,3857.6,3833.04,3796.45,3738.61,3666.86,3599.94,3474.06,3358.59,3232.06,3172.37,3087.6,3041.07,2978.87,2907.79,2854.2,2739.99,2730.84,2642.76,2599.31,2539.24,2526,2578.61,2533.76,2541.05,2587.96,2656.07,2696.52,2740.03,2792.04,2768.91,2792.87,2830.27,2894.72,2866.71,2927.5,2972.84,2996.47,3036.27,3086.65,3114.62,3155.5,3212.65,3286.02,3333.2,3384.85,3454.85,3529.98,3613.88,3650.31,3702.28,3727.53,3749.94,3769.72,3809.54,3823,3837.16,3852.86,3866.27,3880.11,3891.08,3899.98,3907.57,3915.93,3923.42,3928.78,3931.58,3931.43,3926.1,3920.14,3915.19,3908.1,3898.58,3887.72,3875.07,3857.74,3838.69,3821.79,3801.44,3776.47,3740,3700.5,3623.57,3570.36,3531.03,3469.24,3421.27,3367.31,3325.21,3279.48,3233.79,3196.86,3102.01,3094.44,3045.96,2976.22,2913.18,2878.62,2791.39,2695.49,2640.93,2577.8,2506.98,2507.86,2532.65,2592.57,2710.44,2810.38,2987.26,3146.18,3283.95,3410.04,3487.99,3561.5,3646.5,3705.85,3742.31,3760.12,3790.77,3809.88,3827.09,3831.07,3831.9,3830.16,3821.39,3817.13,3806.02,3805.28,3800.14,3795.04,3791.36,3789.53,3786.55,3781.34,3771.86,3759.21,3747.02,3733.04,3718.8,3706.58,3694,3680.79,3666.84,3652.24,3636.76,3630.33,3564.14,1950.84,402.918,22.783,209.173,1506.61,1609.95,1514.83,1670.84,1865.86,2008.75,2110.3,2223.21,2202.6,2228.09,2218.08,2211.03,2206.98,2204.52,2202.3,2201.4,2200.75,2197.04,2197.46,2208.33,2202.49,2145.47,1447.46,1968.3,2046.45,2026.39,1996.53,1928.85,1883.33,1873.16,1848.79,1816.74,1740.32,1700.02,1656.23,1733.25,1815.05,1894.86,1981.99,1991.37,1995.29,1988.92,2015.94,2084.1,2103.16,2141.01,2225.72,2395.25,2592.32,2843.55,3165.13,3409.57,3561.53,3695.09,3758.29,3789.5,3818.38,3839.59,3869.68,3889.36,3906.7,3923.6,3941.03,3955.36,3966.66,3977.22,3982.85,3985.3,3986.68,3988.07,3986.14,3981.31,3974.77,3966.75
3439.24,3462.39,3479.94,3495.48,3514.73,3540.57,3555.98,3570.32,3585.41,3605.93,3626.96,3648.11,3667.81,3692.99,3719.69,3737.4,3758.69,3779.84,3799.66,3817.23,3833.45,3852.54,3867.91,3882.46,3891.85,3907.8,3916.74,3923.62,3926.79,3928.25,3927.13,3921.27,3912.81,3902.4,3890.48,3875.4,3857.43,3833.9,3794.51,3762.44,3711.83,3642.75,3520.81,3356.61,3219.73,3108.01,3039.12,3003.21,2902.59,2767.66,2590.06,2414.18,2277.62,2115.65,1949.73,1903.91,1844.54,1787.18,1721.15,1662.3,1586.51,1481,1398.21,1303.79,1204.04,1132.58,1050.9,997.348,912.57,898.677,878.688,865.977,979.631,1298.2,1742.25,2249.35,2546.4,2611.96,2672.32,2702.98,2792.39,2896.98,3068.37,3220.33,3350.91,3442.08,3537.75,3653.56,3743.64,3807.79,3843.84,3866.58,3877.24,3897.1,3928.89,3946.62,3960.12,3970.94,3981.22,3992.16,4001.2,4008.3,4013.15,4013.29,4011.3,4007.23,4001.63,3993.11,3981.86,3967.02,3949.96,3930.07,3907.93,3883.74,3854.83,3823.1,3786.36,3747.84,3695.17,3630.53,3554.9,3469.01,3415.33,3365.5,3311.05,3239.71,3194.58,3170.79,3117.81,3044.4,3053.44,3043.32,3008,3008.04,3036.45,3076.41,3035.11,3047.88,3074.05,3093.65,3112.79,3122.5,3110.34,3109.93,3156.63,3192.56,3172.13,3172.29,3231.89,3282.81,3358.85,3392.19,3471.68,3622.34,3695.9,3779.45,3809.84,3840.25,3863.99,3883.83,3899.33,3910.74,3921.37,3931.89,3942.98,3949.45,3957.57,3962.2,3965.62,3967.72,3969.08,3967.02,3966.93,3962.72,3955.93,3943.93,3928.46,3908.7,3887.08,3862.31,3831.73,3781.54,3724.45,3678.23,3575.31,3410.41,3300.16,3151.9,3129.21,3024.66,2998.32,2942.9,2850.94,2762.25,2723.78,2724.1,2642.73,2597.58,2516.82,2534.69,2524.41,2523.27,2529.9,2574.23,2656.92,2676.44,2728.81,2730.51,2749.89,2770.14,2806.84,2836.74,2845.7,2882.08,2932.6,2970.01,2993.78,3064.22,3087.57,3141.04,3192.78,3248.58,3303.55,3343.96,3446.43,3511.78,3593.92,3666.34,3707,3723.36,3748.66,3772,3807.29,3820.3,3834,3848.89,3863.25,3876.47,3887.65,3897.44,3906.12,3916.31,3925.2,3932.63,3936.92,3937.36,3933.28,3928.98,3923.92,3918.69,3910.79,3900.59,3888.12,3869.7,3850.58,3832.49,3811.84,3777.41,3736.25,3677.61,3607.51,3547.7,3494.94,3427.69,3355.63,3314.43,3259.62,3223.62,3192.24,3136.74,3060.19,2998.98,2938.16,2930.7,2910.68,2854.81,2782.41,2721.26,2664.39,2604.13,2492.46,2545,2575.16,2619.32,2729.23,2891.92,3089.27,3229.95,3336.59,3437.46,3574.88,3633.84,3707.33,3764.46,3797.77,3822.71,3839.36,3867.62,3876.73,3880.71,3882.43,3880.52,3875.39,3867.44,3859.9,3855.24,3849.53,3845.06,3841.56,3838.09,3833.67,3826.58,3815.8,3801.03,3785.94,3769.69,3754.17,3738.93,3725.63,3711.45,3695.82,3681.47,3670.27,3660.31,3608.54,1464.89,203.321,26.726,105.528,1438.37,1561.63,1485.75,1563.96,1807.97,1953.87,2097.78,2215.92,2189.57,2219.51,2211.5,2210.55,2204.02,2203.76,2201.04,2199.45,2198.3,2193.32,2198.22,2205.03,2199.66,2160.05,1747.07,2024.55,1933.95,1969.5,1979.21,1862.13,1842.58,1818.33,1793.84,1778.69,1692.42,1654.59,1732.81,1741.07,1788.86,1890.93,1994.73,2064.53,2088.08,2165.77,2152.24,2227.24,2325.77,2438.86,2665.81,2830.77,3080.89,3297.48,3510.15,3668.53,3738.03,3782.9,3811.89,3835.24,3853.25,3875.05,3893.04,3909.33,3923.97,3938.8,3953.59,3966.04,3976.42,3985.81,3990.56,3992.26,3993.51,3993.72,3990.93,3986.61,3979.34,3969.47
3420.09,3426.11,3444.38,3469.38,3464.55,3491.03,3506.32,3518.92,3550.86,3580.93,3607.35,3638.39,3672.48,3708.89,3735.84,3769.13,3802.46,3825.38,3847.18,3865.85,3882.05,3895.97,3907.11,3917.49,3924.54,3930.54,3937.52,3942.59,3943.35,3943.07,3940.21,3932.15,3923.01,3910.9,3897.5,3881.41,3863.52,3843.63,3820.53,3793.59,3761.98,3719.21,3625.1,3451.24,3297.22,3133.69,3047.29,2938.06,2835.24,2511.62,2146.84,1750.32,1352.84,984.811,725.071,603.712,534.93,457.034,358.833,241.888,144.187,81.146,57.369,41.341,20.586,10.27,10.532,6.665,3.049,3.034,3.019,6.714,17.176,45.199,119.633,303.864,463.746,504.044,444.167,502.229,596.704,667.273,823.329,980.633,1210.56,1406.4,1738.11,2298.36,2687.73,3323.4,3725.75,3855.83,3883.73,3900.23,3920.18,3954.09,3970.61,3984.87,3995.11,4005.24,4013.77,4020.04,4024.32,4024.71,4023.33,4019.46,4013.33,4005.65,3994.25,3980.45,3964.11,3944.72,3922.8,3898.21,3872.68,3834.19,3805.87,3766.55,3717.63,3683.61,3612.13,3541.53,3486.53,3437.46,3384.94,3345.01,3340.38,3310.92,3244.9,3184.58,3169.79,3170.53,3155.34,3177.14,3169.83,3153.04,3161.75,3172.45,3178.06,3179.99,3140.83,3164.24,3175.17,3165.68,3152.46,3170.68,3186.81,3198.98,3276.49,3306.91,3358.44,3394.06,3481.03,3618.86,3701.56,3776.36,3816.53,3845.41,3870.44,3892.36,3909.65,3923,3935.23,3946.01,3957.83,3963.97,3972.35,3976.39,3979.52,3981.18,3982.06,3979.22,3979.01,3973.25,3963.92,3949.73,3931.98,3910.47,3888.03,3862.14,3819.18,3782.39,3721.17,3641.23,3531.33,3379,3276.07,3106.34,3042.99,2990.04,2973.75,2884.92,2813.05,2704.73,2682.46,2645.09,2616.23,2567.16,2499.49,2485.99,2501.85,2514.4,2501.99,2538.33,2573.36,2612.55,2646.97,2651.55,2657.76,2721.35,2704.62,2753.69,2755.77,2822.02,2881.38,2919.43,2978.99,3005.29,3045.08,3090.43,3192.44,3253.14,3277.79,3342.07,3407.08,3541.19,3607.92,3672.16,3717.98,3726.45,3757.86,3773.83,3808.85,3822.67,3835.64,3850.76,3864.49,3878.91,3890.91,3900.31,3910.01,3919.38,3929.12,3936.27,3941.51,3941.62,3938.2,3934.7,3930.65,3924.86,3918.29,3908.02,3894.99,3881.72,3861.84,3840.06,3809.09,3774.8,3725.2,3651.95,3608.8,3516.49,3450.61,3379.8,3326.25,3264.4,3229.54,3190.04,3128.28,3065.96,2986.9,2957.67,2925.13,2870.5,2835.43,2778.43,2701.14,2690.25,2646.53,2647.37,2597.36,2613.75,2617.06,2684.82,2820.17,2978.48,3126.86,3269.05,3374.23,3492.59,3622.65,3680.42,3739.81,3780.28,3828.22,3865.84,3882.43,3899.76,3910.93,3915.92,3919.29,3918.91,3915.24,3908.54,3901.89,3897.55,3893.48,3889.35,3886.1,3882.45,3876.42,3868.8,3855.34,3839.13,3820.45,3802.41,3783.09,3765.72,3749.43,3733.03,3714.76,3700.11,3692.43,3678.63,3638.2,969.952,104.618,23.79,75.837,1412.96,1460.52,1393.68,1514.83,1735.48,1884.92,2047.5,2192.98,2190.86,2209.01,2205.01,2209.98,2203.38,2202.97,2200.11,2197.78,2196.34,2192.77,2197.24,2202.27,2197.6,2171.63,1668.05,2046.14,1735.87,1863.7,1890.16,1790.58,1796.52,1779.14,1695.11,1675.33,1679.58,1641.71,1669.19,1682.56,1731.62,1878.57,2004.4,2122.74,2192.41,2276.34,2339.4,2475.58,2563.73,2760.19,2983.79,3229.8,3417.25,3589.58,3720.69,3778.11,3807.47,3837.58,3856.57,3873.05,3888.28,3902.34,3917.27,3930.41,3942.66,3954.49,3966.56,3977.95,3985.76,3993.28,3997.97,3999,4000.06,3999.3,3996.42,3991.44,3983.65,3974.3
3366.31,3378.35,3368.38,3397.31,3408.54,3438.19,3452.56,3498.19,3521.44,3533.38,3576.94,3617.89,3654.77,3709.28,3750.66,3776.75,3818.21,3851.68,3874.94,3894.31,3910.21,3924.28,3934.85,3943.82,3949.86,3954.2,3959.41,3961.74,3960,3957.19,3952.72,3943.64,3933.31,3920.52,3905.84,3889.72,3872.41,3853.78,3830.74,3806.04,3779.54,3747.24,3688.87,3627.07,3552.93,3493.32,3414.8,3316.23,3236.76,3167.43,3087.42,3040.08,2913.65,2855.28,2628.77,2466.67,2284.34,2213.88,2072.04,1985.88,1902.79,1805.49,1650.56,1571.29,1433.88,1312.69,1210.07,1119.33,1088.05,1029.11,1021.76,1037.95,1102.58,1350.91,1859.85,2550.33,2879.59,2963.63,3059.21,3126.01,3240.65,3359.73,3461.27,3503.64,3570.45,3589.32,3641.46,3722.57,3768.35,3820.27,3855.26,3882.17,3902.99,3919.53,3939.92,3961.63,3988.72,3998.23,4007.21,4016.33,4024.05,4029.76,4034.35,4034.46,4032.99,4030.13,4012.3,4004.55,3994.7,3981.81,3966.31,3947.97,3927.26,3903.75,3879.11,3849.08,3812.83,3777.09,3727.74,3681.5,3631.7,3574.97,3529.73,3491.36,3446.59,3378.4,3339.08,3338.69,3317.74,3261.84,3255.16,3249.59,3224.47,3204.98,3215.79,3192.99,3160.41,3131.48,3088.35,3082.11,3030.3,2980.62,2955.74,2935.26,2891.64,2905.82,2960.66,2988.02,3060.55,3163.55,3253.67,3395.13,3537.9,3640.97,3729.15,3770.39,3807.87,3842.38,3873.89,3901.98,3917.02,3938.97,3950.88,3962.41,3973.81,3980.6,3987.42,3991.85,3993.81,3995.04,3995.07,3990.97,3988.73,3981.34,3969.42,3951.45,3929.96,3905.71,3879.99,3848.35,3815.99,3774.57,3686.87,3618.19,3482.08,3326.03,3215.87,3061.89,2999.64,2957,2938.46,2890.27,2804.52,2717.97,2658.95,2624.06,2597.99,2566.19,2493.55,2453.59,2461.08,2486.89,2523.51,2495.87,2523.71,2582.09,2570.55,2564.89,2583.98,2622.41,2634.07,2670.74,2700.33,2720.66,2825.47,2899.3,2919.45,2940.42,3001.42,3011.72,3107.79,3175.09,3263.23,3341.13,3388.42,3506.23,3592.34,3650.75,3710.7,3720.76,3756.98,3787.98,3810.17,3825.18,3838.56,3854.78,3870,3885.36,3898.58,3909.2,3918.28,3927.54,3936.28,3943.13,3947.1,3947.08,3943.94,3939.07,3934.6,3929.71,3921.58,3911.77,3898.85,3884.52,3861.75,3830.37,3803.38,3768.83,3722.19,3676.63,3578.95,3529.23,3455.33,3407.54,3354.7,3306.12,3241.99,3213.12,3150.21,3104.73,2994.15,2971.98,2955.84,2910.98,2811.13,2724.31,2718.08,2697.41,2687.21,2643.93,2645.89,2707.61,2729.14,2836.87,2940.94,3054.78,3212.92,3344.03,3456.5,3589.63,3662.89,3733.22,3782.13,3806.85,3854.45,3883.7,3904.47,3922.94,3934.42,3939.34,3943.88,3946.07,3944.13,3940.38,3935.83,3933.43,3931.03,3928.09,3925.55,3921.71,3914.35,3904.5,3889.9,3870.69,3850.68,3828.3,3805.64,3784.88,3765.42,3745.45,3723.77,3708.57,3700.65,3685.56,3646.85,761.133,50.989,16.296,70.795,1368.18,1408.64,1326.42,1450.05,1651.29,1854.43,2006.44,2193.07,2171.62,2219.14,2200.94,2209.81,2202.82,2200.15,2199.06,2196.08,2194.72,2192.4,2196.81,2197.68,2195.91,2175.23,1550.67,2014.05,1507.12,1726.59,1804.29,1728.81,1760.78,1690.15,1645.12,1613.3,1636.68,1575.43,1578.55,1639.25,1706.08,1807.5,1982.85,2135.32,2210.2,2337.6,2426.16,2674.44,2785.59,3075.84,3335.98,3478.35,3625.03,3747.85,3787.75,3834.6,3855.05,3872.62,3889.31,3903.77,3916.46,3928.48,3940.74,3950.97,3960.33,3970.38,3979.42,3987.35,3994.49,4000.38,4003.95,4004.7,4004.94,4003.02,3999.48,3994.14,3986.39,3976.82
3256.25,3256.67,3290,3310.07,3315.1,3334.44,3385.79,3417.33,3433.72,3479.51,3532,3586.54,3624.45,3685.16,3748.17,3794.88,3833.78,3861.18,3892.87,3914.76,3931.44,3945.5,3956.05,3965.59,3971.09,3973.8,3977.35,3977.22,3973.6,3968.64,3962.18,3953.16,3942.49,3929.31,3914.71,3898.95,3882.92,3864.95,3844.47,3821.03,3796.16,3761.49,3721.9,3661.98,3616.85,3567.54,3512.6,3434.14,3358.11,3281.65,3225.52,3154.19,3106.47,3050,3028.2,2994.73,2993.21,2996.61,2960,2936.5,2937.46,2910.03,2884.64,2862.51,2854.97,2838.21,2801.54,2754.85,2772.07,2749.21,2714.37,2708.48,2603.5,2569.21,2661.38,2969.37,3198.25,3238.07,3312.24,3342.54,3432.93,3535.28,3587.67,3661.11,3707.34,3734.4,3765.26,3802.95,3837.66,3873.32,3906.99,3931.32,3949.91,3964.86,3979.71,3992.15,4002.41,4010.78,4018.75,4027.05,4033.39,4038.28,4042.56,4043.16,4041.91,4039.77,4034.49,4023.77,4010.68,3999.03,3985.49,3969.12,3949.58,3927.1,3904.11,3878.76,3851.23,3818.49,3788.86,3750.78,3711.11,3650.03,3626.84,3560.69,3491.07,3397.13,3291.22,3208.33,3098.88,3018.58,2912.85,2816.81,2745.62,2664,2550.67,2462.06,2375.81,2344.19,2270.96,2144.34,2078.59,2059.59,2071.92,2073.06,2112.17,2168.27,2221.72,2351.42,2428.45,2577.66,2796.88,3179.79,3460,3641,3745.45,3780.88,3827.92,3856.35,3885.87,3914.48,3930.82,3950.17,3961.86,3972.29,3991.53,3997.34,4004.67,4008.29,4009.36,4009.36,4007.93,4001.69,3998.38,3988.71,3973.39,3953.94,3928.89,3902.44,3874.25,3844.2,3806.29,3758.86,3671.52,3568.96,3429.57,3285.51,3150.35,3003.02,3004.88,2903.88,2909.24,2783.23,2741.6,2667.93,2601.37,2549.21,2487.6,2442.73,2394.84,2346.54,2343.43,2351.33,2380.31,2411.85,2392.48,2429.61,2431.61,2366.75,2393.52,2419.44,2456.94,2495.02,2485.45,2547.66,2599.28,2658.05,2704.74,2781.35,2787.3,2870.28,2948.67,3068.26,3196.11,3272.35,3327.59,3418.89,3550.42,3611.72,3682.76,3716.84,3759.34,3796.71,3815.08,3832.3,3847.52,3864.6,3880.94,3897.28,3911.01,3921.06,3929.84,3938.38,3945.84,3952.21,3954.2,3953.68,3949.12,3943.85,3938.42,3932.24,3923.8,3912.51,3899.15,3884.94,3869.17,3837.93,3810.97,3772.35,3721.11,3661.28,3594.95,3493.55,3436.22,3386.71,3358.71,3300.82,3228.18,3171.21,3089.04,3028.73,2992.82,2963.03,2920.58,2852.76,2782.68,2719.26,2694.1,2679.85,2686.87,2697.01,2724.9,2762.71,2785.36,2884.67,3012.12,3154.34,3257.26,3382.64,3488.52,3608.72,3711.3,3752.53,3798.95,3835.19,3881.22,3905.75,3922.11,3936.73,3948.36,3955.16,3961.3,3965.06,3965.93,3964.29,3962.27,3962.6,3962.1,3960.73,3958.88,3954.56,3946.2,3935.3,3919.4,3898.03,3874.25,3849.65,3823.93,3799.57,3776.8,3753.32,3728.41,3711.04,3702.18,3684.82,3654.47,595.564,41.614,24.251,55.426,1408.82,1375.29,1343.86,1455.69,1617.27,1812.66,1976.87,2187.67,2167.14,2209.51,2208.93,2210.35,2200.28,2199.74,2198.83,2190.5,2191.54,2186.25,2194.82,2198.25,2190.72,2164.36,1288.94,1749.6,1410.99,1676.62,1797.12,1728.12,1717.33,1624.64,1596.81,1603.69,1591.44,1517.06,1528.55,1602.16,1669.47,1837.43,1940.41,2090.63,2216.89,2385.79,2601.55,2835.06,3085.09,3282.68,3504.89,3625.93,3729.24,3793.46,3841.09,3864.35,3884.88,3902.88,3918.1,3932.47,3943.44,3953.79,3963.99,3971.67,3978.6,3985.72,3992.54,3997.76,4002.81,4007.36,4009.71,4010.02,4008.98,4005.69,4001.73,3996.43,3989.39,3979.95
3231.66,3234.35,3210.51,3217.31,3237.13,3270.65,3289.8,3343.01,3398.62,3430.92,3486.55,3556.06,3612.62,3656.25,3733.74,3790.02,3840.25,3868.64,3904.75,3927.16,3945.89,3960.94,3972.51,3980.95,3985.92,3990.03,3992.93,3992.32,3987.34,3981.17,3974.33,3965.23,3954.82,3942.2,3928.67,3914.34,3899.67,3883.78,3866.09,3844.92,3818.12,3792.86,3758.41,3704.16,3659.69,3627.13,3558.58,3483.65,3418.77,3344.18,3261.75,3210.58,3133.33,3055.51,3008.96,3023.23,3009.62,2982.2,2948.07,2926.31,2900.52,2913.67,2862.44,2853.83,2830.97,2843.46,2811.9,2807.79,2820.75,2866.37,2854.83,2805.36,2715.96,2664.31,2729.19,2999.99,3197.85,3224.75,3253.38,3286.42,3352.76,3462.64,3512.99,3596.03,3653.91,3716.62,3766.96,3805.46,3844,3882.02,3910.19,3937.06,3962.62,3978.09,3995.34,4007.02,4015.29,4023.02,4030.66,4037.09,4041.75,4046.57,4050.94,4052,4051.99,4050.43,4045.51,4039.7,4033.5,4023.83,4011.38,3997.16,3980.38,3959.6,3937.4,3914.1,3887.38,3856.14,3828.15,3789.6,3751,3710.49,3671.61,3651.07,3596.11,3563.03,3532.28,3515.63,3519.65,3493.61,3471.36,3468.93,3479.62,3488.23,3482.65,3467.52,3465.58,3449.6,3454.51,3416.53,3383.56,3376.23,3359.09,3386.99,3407.19,3427.37,3454.81,3501.29,3519.63,3542.93,3571.77,3600.32,3628.62,3695.86,3749.76,3795.07,3839.9,3870.28,3900.04,3926.1,3947.16,3963.19,3978.9,3993.37,4002.96,4015.92,4022.64,4024.73,4025.19,4023.65,4021.24,4013.56,4008.86,3988.62,3971.41,3949.49,3918.92,3889.66,3863.88,3808.88,3696.33,3535.34,3238.24,2939.96,2593.51,2227.16,1979.85,1794.11,1768.91,1778.86,1652.79,1505.1,1192.19,931.034,687.967,464.833,330.706,253.982,194.479,172.498,155.456,120.884,113.419,131.259,118.291,85.609,92.876,100.816,93.886,76.587,105.208,80.299,83.91,89.706,123.358,144.2,187.942,238.414,324.966,485.368,577.382,732.878,887.868,1073.43,1180.44,1423.2,1925.44,2513.6,2937.95,3133.02,3342.89,3580.18,3715.42,3817.73,3860.06,3888.31,3904.24,3918.77,3930.95,3939.68,3947.69,3953.75,3959.69,3964.39,3964.6,3961.49,3956.14,3948.81,3941.25,3933.46,3923.28,3911.47,3897.03,3882.54,3865.85,3841.38,3819.31,3784.23,3732.76,3657.94,3591.71,3504.55,3439.77,3379.12,3314.18,3268.71,3232.41,3150.23,3084.52,3023.87,2980.45,2910.3,2861.06,2778.32,2772.18,2732.85,2746.03,2739,2748.97,2761.14,2787.25,2868.42,2936.85,3067.17,3121.73,3254.37,3362.04,3469.15,3494.76,3640.07,3729.28,3783.86,3821.59,3856.09,3892.84,3905.12,3928.45,3942.45,3955.83,3964.5,3971.98,3978.07,3982.65,3982.99,3984.18,3986.49,3988.6,3988.71,3987.42,3983,3975.06,3963.44,3945.28,3921.61,3895.83,3868.63,3840.58,3812.96,3786.48,3760.17,3732.03,3713.99,3702.92,3684.25,3652.51,545.274,23.882,24.428,99.089,1411.73,1365.47,1328.64,1438.94,1590.27,1781.09,1990.07,2169.02,2173.97,2210.76,2207.66,2208.34,2201.76,2199.04,2198.03,2187.18,2190.47,2186.41,2192.46,2194.01,2185.29,2151.52,1042.51,1351.62,1282.3,1669.12,1876.56,1771.97,1753.05,1704.81,1671,1596.39,1560.06,1497.65,1537.28,1558.6,1691.09,1822,1971.62,2029.34,2212.46,2481.49,2692.77,2970.91,3185.21,3374.84,3609.03,3701.42,3783.31,3828.59,3864.99,3888.22,3909.25,3927.67,3944.23,3958.02,3968.08,3976.73,3984.67,3990.6,3995.4,3999.47,4003.92,4006.88,4010.1,4012.77,4013.86,4012.58,4010.23,4006.06,4001.54,3995.98,3988.84,3979.23
3218.3,3163.52,3153.49,3159.88,3184.45,3192.67,3239.76,3312.42,3377.66,3391.88,3452.19,3530.99,3596.23,3647.34,3720.21,3787.72,3838.39,3881.34,3911.27,3933.21,3952.37,3968.09,3981.27,3989.44,3995.36,3999.68,4002.69,4001.54,3996.9,3991.1,3984.64,3976.5,3966.91,3956.24,3944.65,3931.96,3918.8,3903.99,3887.78,3867.61,3842.37,3818.86,3790.96,3742.54,3700.56,3642.87,3585.23,3518.49,3424.11,3353.46,3290.8,3214.51,3148.05,3089.18,3002.17,3030.34,2995.59,2952.19,2907.93,2930.12,2882.94,2849.75,2819.85,2869.77,2853.68,2872.97,2870.88,2878.86,2890.03,2888.63,2891.97,2826.85,2753.65,2712.43,2743.08,3057.3,3185.35,3236.18,3261.53,3308.12,3332.98,3434.64,3486.62,3570.11,3624.31,3697.67,3760.07,3811.81,3852.95,3888.35,3917.86,3941.96,3968.59,3987.1,4006.01,4020.45,4027.42,4034.06,4040.37,4045.81,4050.3,4054.87,4059.02,4060.54,4061.32,4060.04,4057.49,4052.4,4048.11,4041.11,4031.68,4019.19,4004.64,3985.22,3964.88,3944.29,3918.19,3887.38,3862.6,3824.54,3774.08,3708.46,3666.81,3603.8,3535.99,3502.78,3467.7,3460.26,3438.9,3438.35,3425.24,3420.55,3408.61,3394.31,3413.97,3409.1,3399.09,3419.84,3391.34,3376.61,3391.72,3428.85,3433.48,3446.21,3431.95,3466.68,3499.74,3522.61,3547.12,3571.98,3580,3580.29,3632.42,3724.59,3789.5,3832.56,3873.93,3905.33,3935.38,3960.57,3981.14,3995.98,4005.75,4014.93,4023.48,4036.17,4041.58,4042.65,4041.76,4039.32,4035.76,4026.73,4016.59,4003.11,3975.53,3952.43,3924.41,3894.52,3839.61,3698.93,3329.22,2829.53,2284.18,1876.63,1603.99,1367.71,1277.42,1202.35,1257.51,1308.41,1167.37,962.829,515.083,223.349,67.844,28.256,11.365,11.744,15.642,15.618,15.644,19.47,19.518,19.568,19.568,19.544,19.594,19.646,19.621,19.521,19.394,19.272,15.375,11.429,7.65,7.556,3.732,0,0,14.963,22.543,51.976,106.374,181.521,270.327,468.916,737.503,1202.55,1683.63,2256.67,2671.66,3173.57,3622.18,3806.09,3866.62,3905.2,3923.36,3936.3,3954.45,3960.81,3967.37,3971.75,3975.45,3977.53,3976.23,3971.17,3963.91,3954.71,3944.15,3933.62,3922.07,3908.86,3892.83,3876.36,3859.42,3838.36,3815.76,3789.33,3743.56,3695.59,3624.53,3600.62,3526.32,3461.78,3377.69,3331.31,3275.89,3214.09,3191.63,3161.83,3101.94,3003.79,2960.32,2945.62,2891.86,2851.8,2852.06,2847.99,2892.42,2904.75,2984.47,3058.4,3168.66,3241.63,3334.98,3413.09,3493.04,3590.08,3641.22,3704.06,3772.09,3809.63,3844.67,3865.62,3897.6,3909.48,3933.6,3948.72,3961.97,3973.83,3983.72,3992.75,3999.59,4003.58,4005.67,4010.43,4012.94,4013.98,4012.45,4008.03,3999.18,3987.21,3968.2,3944.21,3916.9,3887.97,3857.33,3827.3,3798.09,3769,3737.11,3716.63,3704.59,3690.83,3653.5,613.258,22.717,20.592,137.799,1542.02,1407.53,1373.43,1452.01,1616.46,1776.88,1978.66,2172.94,2164.13,2212.24,2208.37,2208.36,2203.26,2200.46,2197.22,2188.15,2189.59,2189.29,2190.77,2192.38,2169.39,2119.22,937.183,847.591,1193.11,1664.8,1901.19,1839.2,1832.09,1789.26,1706.84,1639.98,1622.29,1553.27,1563.88,1558.12,1698.63,1788.61,1939.68,2019.6,2212.01,2483.51,2660.01,2948.56,3209.99,3427.47,3618,3746.01,3802.75,3847.37,3880.84,3905.55,3928.28,3947.45,3964.63,3978.76,3988.21,3996.07,4003.15,4007.78,4010.48,4013.22,4014.4,4015.63,4016.49,4018.33,4017.86,4014.82,4011.12,4006.01,3999.89,3994.33,3986.31,3976.53
3168.62,3159,3115.99,3115.03,3115.87,3118.9,3174.69,3226.72,3267.42,3318.69,3365.55,3433.75,3526.09,3615.82,3689.96,3759.63,3833.8,3871.21,3910.71,3932.46,3951.98,3968.41,3981.36,3990.86,3998.26,4003.6,4006.83,4006.46,4003.6,3999.71,3993.48,3987.69,3980.13,3971.36,3961.67,3951.95,3940.62,3928.11,3914.1,3897.16,3877.55,3850.98,3827.62,3793.3,3747.82,3681.15,3613.1,3569.51,3493.22,3409.34,3324.8,3250.8,3168.79,3081.02,3028.01,2998.25,2937.66,2915.61,2898.68,2910.24,2900.34,2893.36,2878.33,2869.74,2843.94,2847.8,2846.9,2865.47,2860.17,2890.27,2895.45,2856.01,2806.09,2790.27,2775.08,3054.96,3169.23,3227.32,3260.1,3304.62,3363.83,3426.62,3494.7,3535.8,3596.66,3665.22,3743.83,3797.35,3850.6,3887.73,3919.28,3946.18,3966.31,3982.58,4005.79,4028.15,4035.81,4043.05,4049.56,4055.31,4059.85,4064.39,4068.77,4072.09,4072.97,4073.48,4070.84,4067.77,4064.91,4059.64,4053.02,4043.81,4030.33,4013.6,3994.62,3974.45,3949.3,3920.58,3887.61,3839.99,3793.28,3736.69,3667.91,3602.67,3562.26,3523.51,3473.46,3433.81,3397.2,3352.56,3366.28,3354.55,3368.63,3364.54,3349.48,3325.05,3329.98,3322.1,3344.96,3355.06,3346.35,3360.62,3373.52,3395.31,3411.62,3435.63,3482.07,3507.31,3532.57,3495.58,3529.79,3599.32,3647.62,3740.61,3824.14,3864.55,3906.65,3939.4,3970.08,3995.83,4015.66,4030.77,4038.69,4046.27,4053.4,4056.33,4060.98,4061.33,4058.71,4054.79,4050.05,4040.42,4032.87,4018.27,3997.83,3973.22,3944.26,3913.93,3882.34,3832.91,3783.48,3715.68,3498.07,3188.76,2756.47,2262.72,1910.59,1689.93,1537.63,1456.18,1321.76,1024.19,596.26,322.858,143.534,61.589,49.417,28.259,19.398,19.398,19.447,19.569,19.617,19.591,19.592,19.594,19.645,19.697,19.647,19.545,19.42,19.297,15.423,11.453,7.674,7.602,3.732,0,0,0,0,0,0,0,0,15.183,15.047,34.725,92.266,267.891,682.442,1646.93,2855.33,3691.41,3884.35,3931.54,3942.76,3953.64,3980.94,3985.08,3989.38,3991.24,3993.2,3992.42,3988.5,3977.92,3952.63,3941.9,3929.2,3916.19,3902.99,3886.56,3869.72,3852.43,3833.9,3812.31,3786.12,3759.67,3725.22,3690.86,3635.7,3595.7,3559.59,3514.18,3453.77,3394.26,3332.78,3324.81,3296.44,3229.37,3149.75,3096.22,3068.68,3014.58,2955.32,3010.69,3026.57,3039.45,3074.87,3093,3189.19,3248.29,3329.28,3399.8,3476.8,3538.16,3574.78,3654.04,3697.63,3740.38,3795.65,3834.46,3856.43,3875.94,3895.69,3913.47,3933.76,3950.36,3965.52,3978.61,3990.04,4000.25,4015.63,4021.02,4023.94,4027.69,4030.4,4031.25,4029.1,4024.13,4015.08,4010.24,3991.1,3965.88,3937.58,3907.66,3875.67,3843.38,3812.14,3779.51,3744.05,3723.01,3709.21,3689.66,3648.57,747.639,27.689,24.843,150.937,1620.7,1474.16,1397.51,1455.47,1586.93,1775.31,1970.46,2157.94,2175.52,2208.87,2211.26,2208.21,2202.67,2199.67,2196.45,2187.48,2189.21,2188.61,2189.75,2193.28,2166.04,2140.68,851.514,564.93,1279.81,1820.76,1993.75,1920.32,1922.85,1874.9,1772.59,1715.23,1666.86,1580.71,1579.01,1603.21,1715.79,1755.62,1891.33,1966.17,2193.45,2418.22,2639.35,2893.55,3173.56,3399.81,3626.18,3743.95,3817.35,3859.09,3889.88,3917.57,3941.79,3963.34,3981.22,3994.86,4004.65,4012.08,4018.52,4022.16,4024.65,4025.37,4025.05,4023.95,4023.7,4023.42,4020.71,4016.51,4010.3,4004.08,3996.89,3990.38,3981.44,3971.42
3150.95,3174.2,3125,3128.81,3121.89,3128.27,3147.66,3177.7,3243.27,3348.3,3403.68,3459.2,3525.78,3612.25,3697.03,3759.39,3837.97,3867.73,3897.94,3923.98,3943.18,3960.5,3974.11,3986,3995.26,4002.71,4008.54,4010.05,4010.18,4008.62,4004.24,4000.2,3994.5,3987.16,3980.56,3973.42,3964.14,3953.64,3941.92,3927.31,3909.4,3889.01,3863.13,3832.41,3786.41,3723.8,3670.31,3606.89,3538.04,3436.42,3360.13,3252.3,3160.58,3097.07,3043.13,2993.01,2932.66,2892.48,2898.6,2858.74,2890.19,2887.37,2862.09,2872.66,2855.48,2849.5,2869.2,2879.14,2878.82,2897.73,2888.37,2847.98,2824.21,2801.19,2805.42,3031.4,3150.48,3191.75,3228.47,3296.78,3358.34,3407.53,3475.76,3531.65,3592.54,3662.94,3730.3,3789.1,3843.28,3889.38,3922.71,3950.49,3972.01,3993.49,4008.07,4034.95,4043.35,4050.62,4056.71,4063.13,4067.27,4071.59,4076.76,4080.62,4083.43,4085.01,4084.93,4083.06,4081.36,4078.69,4072.87,4066.04,4055.7,4039.89,4022.64,4003.11,3979.67,3945.43,3901.45,3856.48,3807.47,3749.93,3690.11,3637.77,3548.73,3494.23,3428.4,3386.34,3383.58,3366.09,3351.86,3338,3297.27,3297.26,3303.61,3310.12,3325.72,3329.43,3310.84,3320.14,3299.32,3303.32,3336.73,3349.96,3399.32,3397.4,3481.09,3499.88,3509.66,3537.08,3552.55,3580.59,3647.3,3768,3840.75,3890.98,3930.94,3963.8,3995.07,4021.39,4041.57,4055.55,4062,4068.55,4073.62,4075.1,4079.33,4079.03,4075.21,4071.17,4065.62,4054.88,4046.5,4031.38,4010.43,3985.56,3955.81,3926.02,3890.03,3843.04,3808.75,3739.5,3656.77,3537.52,3387.69,3083.36,2922.59,2800.97,2645.64,2525.06,2399.64,2171.81,1711.16,1255.6,970.572,732.233,560.794,489.96,489.011,442.628,429.388,463.327,433.624,414.921,427.785,425.403,359.937,300.819,260.991,204.819,150.931,121.835,133.151,94.341,98.811,101.99,116.527,190.122,274.165,301.994,360.288,488.966,580.526,718.082,874.627,1073.21,1193.56,1319.23,1629.02,1950.82,2491.2,3181.26,3700.28,3916.49,3966.39,3977.57,3990.71,4002.64,4010.35,4013.12,4014.34,4013.68,4012.44,4008.95,4002.83,3993.88,3963.62,3938.15,3922.93,3907.7,3892.63,3874.07,3847.43,3832.81,3808.47,3785.56,3762.68,3740.52,3711.99,3683.46,3650.17,3612.43,3564.75,3513.6,3472.57,3425.03,3384.67,3326.17,3294.73,3153.75,3092.22,3047.74,2969.61,2990.44,2975.96,2964.87,2962.41,3045.38,3125.95,3206.88,3269.27,3326.89,3413.89,3476.19,3553.86,3598.64,3613.13,3607.24,3605.55,3662.65,3688.19,3741.62,3780.81,3823.44,3870.36,3909.74,3938.77,3954.04,3971.98,3988.11,3999.24,4012.64,4024.38,4025.1,4036.7,4040.62,4042.32,4045.35,4047.15,4046.23,4037.82,4032.71,4013.36,3987.96,3959.81,3929.4,3896.78,3863.19,3830.35,3795.63,3757.71,3728.51,3716.66,3688.4,3639.88,774.473,31.669,32.532,148.301,1652.22,1484.55,1417.41,1459.46,1557.01,1766.28,1941.37,2153.5,2174.76,2207.97,2211.66,2206.03,2201.9,2196.69,2195.55,2184.43,2186.76,2183.72,2184.4,2189.34,2138.59,2143.68,947.876,510.831,1411.34,1866.47,2024.11,1994.27,1952.16,1916.88,1823.23,1771.54,1728.16,1598.67,1555.49,1584.51,1696.1,1750.38,1862.89,1922.53,2122.21,2316.52,2547.52,2815.62,3090.36,3380.44,3604.7,3728.75,3817.64,3866.19,3898.38,3927.32,3954.39,3978.03,3997.06,4011.61,4022.08,4029.51,4034.86,4037.98,4038.39,4038.05,4035.72,4032.52,4030.21,4027.38,4022.99,4016.47,4009.51,4001.02,3992.69,3984.99,3975.41,3965.34
3207.93,3159.96,3165.51,3169.91,3163.1,3170.35,3194.79,3233.71,3283,3344.95,3373.55,3427.91,3496.37,3576.2,3665.39,3755.88,3814.89,3857.41,3883.37,3907.84,3927.9,3947.03,3962.7,3975.94,3988.69,3998.12,4005.75,4010.23,4013.92,4015.04,4014.1,4011.84,4008.82,4004.49,3999.31,3994.35,3987.64,3978.91,3968.52,3955.27,3939.09,3920.32,3899.37,3869.57,3831.38,3772.34,3714.97,3658.35,3557.64,3464.34,3365.37,3251.79,3163.39,3109.45,3007.5,2950.62,2940.68,2857.84,2869.52,2831.2,2831.72,2797.26,2817.11,2836.32,2819.94,2784.59,2792.29,2858.19,2873.88,2867.39,2830.39,2828.88,2745.83,2734.02,2775.27,2995.1,3127.68,3167.92,3184.82,3237.99,3306.24,3363.33,3419.02,3470.78,3565.93,3646.96,3705.15,3775.66,3836.91,3879.96,3921.29,3950.02,3972.99,3991.3,4014.11,4038.18,4047.19,4055.42,4062.16,4068.65,4072.79,4078.19,4084.25,4088.83,4092.69,4095.33,4096.12,4096.67,4095.9,4094.57,4090.25,4084.49,4075.46,4060.63,4044.61,4025.36,4001.41,3962.2,3924.03,3869.21,3819.44,3750.28,3687.43,3650.07,3568.97,3489.42,3443.89,3393.25,3380.75,3349.25,3331.88,3281.16,3291.16,3286.88,3293.73,3285.38,3306.17,3264.97,3285.69,3279.76,3289.38,3310.46,3318.34,3333.54,3363.01,3400.52,3436.35,3483.02,3498.5,3528.88,3541.98,3595.26,3654.33,3783.68,3854.63,3908.97,3949.54,3983.82,4015.87,4042.33,4062.46,4075.97,4082.16,4088.22,4092.35,4093.84,4095.74,4095.06,4091.48,4086.32,4079.81,4069.01,4060.82,4045.8,4024.58,4000.44,3967.25,3933.49,3893.25,3846.38,3799.24,3756.01,3691.44,3615.2,3508.95,3333.44,3202.45,3136.39,3108.05,3049.1,2974.02,2902.28,2812.01,2754.74,2675.07,2572.88,2497.98,2457.71,2442.03,2402.27,2374.32,2376.02,2352.92,2317.51,2361.23,2294.42,2212.48,2145.43,2115.98,2086.88,2047.5,2014.23,2015.39,2103.79,2155.46,2269.94,2364.62,2554.55,2756.44,2943.14,3028.51,3209.75,3257.19,3434.48,3446.47,3510.66,3686.23,3796.13,3850.95,3908.07,3948.01,3992.38,4008.03,4019.07,4025.1,4029.05,4035.57,4040.2,4040.84,4040.89,4039.34,4036.07,4032.35,4027.37,4017.99,4007.67,3995.37,3980.16,3963.45,3946.24,3928.94,3908.76,3886.92,3866.77,3836.63,3808.32,3783.63,3751.38,3727.48,3700.61,3670.08,3644.54,3622.48,3615.18,3588.94,3558.7,3524.08,3492.76,3444.7,3379.49,3377.91,3329.45,3313.64,3318.03,3303.92,3313.45,3359.57,3414.6,3472.44,3544.51,3592.03,3642.81,3696.6,3743.71,3767.79,3800.93,3828.47,3851.57,3876.72,3889.45,3910.76,3919.3,3932.72,3946.27,3961.69,3973.66,3992.42,4005.69,4017.15,4028.81,4038.84,4051.72,4058.06,4067.62,4075.09,4078.57,4078.83,4077.76,4074.27,4068.84,4068.07,4055.67,4037.08,4012.41,3984.2,3954.78,3921.74,3887.8,3853.21,3817.59,3778.48,3754.62,3738.39,3708.78,3662.34,546.553,29.048,27.805,133.046,1622.31,1431.89,1421.13,1484.47,1547.8,1709.42,1953.06,2148.7,2160.15,2197.7,2207.84,2208.11,2201.39,2197.8,2194.67,2186.2,2188.59,2183.07,2182.77,2184.93,2153.77,2161.68,1347.46,703.489,1713.66,2045.53,2112.17,2048.27,2007.87,1939.15,1863.9,1805.73,1740.54,1646.51,1605.58,1559.1,1639.41,1759.39,1855.86,1857.11,2038.85,2237.44,2448.43,2740.06,2991.98,3282.23,3539.37,3703.97,3804.55,3846.88,3881.51,3913.03,3941.29,3966.42,4014.82,4030.14,4040.85,4047.39,4052.66,4055.25,4054.94,4052.18,4047.89,4043.4,4037.93,4032.7,4025.85,4017.62,4008.32,3997.63,3987.97,3978.64,3968.45,3957.7
3259.35,3220.95,3226.69,3232.53,3236,3235.64,3258.58,3278.32,3301.64,3347.1,3391.49,3454.72,3512.25,3578.1,3668.77,3749.88,3793.19,3833.94,3862.76,3882.43,3903.96,3923.47,3942.16,3962.47,3973.4,3990.2,4002.69,4009.83,4017.43,4021.41,4024.09,4024.02,4023.02,4021.1,4018.97,4016.3,4011.52,4004.67,3995.31,3983.48,3968.63,3950.69,3931.65,3907.24,3873.25,3825.2,3764.78,3715.3,3633.26,3526.57,3437.76,3350.31,3234.77,3163.16,3103.53,3024.4,3013.82,2921.37,2882.46,2868.42,2878.95,2838.66,2813.49,2827.32,2829.07,2823.32,2848.02,2873.87,2874.07,2866.52,2859.06,2787.65,2777.39,2767.62,2793.25,2982.41,3119.56,3183.43,3202.6,3262.53,3286.6,3375.89,3421.82,3472.89,3545.81,3620.48,3685.44,3756.97,3828.97,3876.1,3914.35,3944.75,3969.28,3988.12,4012.86,4038.94,4048.84,4057.6,4065.8,4072.61,4077.86,4083.7,4090.2,4096.21,4101.26,4105.44,4107.05,4108.25,4108.22,4108.46,4105.96,4100.06,4092.79,4079.14,4061.84,4043.85,4018.65,3982.45,3930.6,3881.9,3831.57,3785.81,3700.12,3633.74,3579.15,3484.53,3409.58,3399.57,3341.54,3313.97,3287.92,3240.17,3236.98,3239.1,3225.12,3219.31,3226.91,3215.7,3228.41,3227.63,3241.08,3261.7,3280.94,3316.97,3313.31,3349.4,3430,3448.5,3481.67,3519.81,3553.8,3608.78,3679.88,3770.71,3871.69,3923.48,3965.13,4000.28,4031.39,4058.42,4078.43,4092.06,4098.93,4104.04,4107.22,4108.6,4110.82,4109.93,4106.12,4100.88,4093.96,4083.69,4074.67,4060.57,4040.73,4017.02,3984.29,3938.46,3904.69,3864.97,3816.43,3775.33,3694.05,3635.98,3514.54,3388.13,3246.23,3179.58,3084.06,3022.89,2966.21,2884.48,2810.37,2703.98,2660.21,2573.34,2528.06,2493.57,2438.05,2375.29,2313.61,2265.86,2240.15,2232.49,2213.94,2185.07,2124.46,2100.23,2026.39,2020.66,1980.38,1946.01,1984.83,2016.06,2091.55,2147.35,2240.88,2374.76,2585.88,2770.61,2964.36,3152,3348.28,3481.77,3595.09,3656.64,3749.46,3866.38,3929.25,3966.31,3999.81,4028.64,4048.45,4058.45,4061.26,4064.73,4070.24,4071.31,4070.07,4067.65,4064.53,4058.74,4053.01,4045.31,4035,4022.99,4008.92,3992.27,3973.89,3955.24,3935.93,3913.61,3891.6,3868.99,3840.5,3819.8,3794,3769.25,3731.4,3709,3689.56,3646.4,3611.23,3583.47,3557.48,3553.82,3487.61,3450.26,3401.64,3381.89,3362.24,3326.76,3323.18,3320.01,3328.63,3373.68,3396.86,3467.81,3526.63,3593.2,3658.17,3740.58,3782.3,3820.24,3875.05,3901.31,3929.91,3958.27,3971.76,3985.46,4001.68,4013,4023.76,4033.08,4039.84,4047.4,4054.98,4063.78,4073.15,4082.85,4089.99,4096.61,4103.07,4108.36,4111.39,4114.06,4114.63,4111.56,4107.4,4101.3,4092.79,4080.33,4061.95,4037.99,4010.71,3981.15,3949.25,3914.9,3880.49,3844.66,3804.9,3779.74,3763.14,3744.24,3699.61,301.378,29.258,25.502,128.502,1632.15,1411.93,1398.03,1478.83,1527.88,1690.12,1903.99,2131.67,2143.58,2183.28,2199.92,2210.6,2201.24,2197.46,2194.32,2188.02,2188.38,2182.89,2181.52,2180.26,2151.43,2175.09,1767.08,1016.13,1921.34,2117.36,2129.74,2087.23,2047.51,1999.31,1928.43,1842.25,1769.75,1675.2,1586.36,1538.41,1619.83,1703.72,1816.91,1851.13,1951.53,2155.34,2382.58,2635.37,2895.84,3177.17,3505.47,3698.25,3803.78,3851.5,3896.11,3933.03,3962.22,3987.2,4036.42,4051.51,4061.58,4068.24,4072.42,4074.16,4071.7,4068.03,4062.5,4055.7,4047.79,4039.15,4031.39,4016.77,4003.66,3991.11,3979.4,3968.09,3953.36,3942.9
3329.02,3302.09,3299.52,3283.8,3284.09,3276.04,3319.39,3325.6,3366.71,3412.44,3448.2,3512.89,3551.75,3604.01,3660.12,3726.21,3756.89,3788.64,3819.87,3843.66,3865.81,3888.66,3910.59,3929.76,3948.55,3965.27,3980.27,3991.44,3998.91,4018.81,4035.39,4038.55,4039.37,4039.43,4039.52,4037.88,4035.53,4030.42,4022.28,4011.22,3997.59,3981.65,3963.84,3940.88,3912.42,3864.42,3809.53,3767.81,3700.99,3592.81,3498.96,3428.38,3324.79,3264.57,3214.45,3146.65,3101.65,3051.23,2993.56,2968.91,2922.21,2902.18,2901.64,2875.06,2858.99,2885.83,2832.39,2820.03,2841.32,2790.61,2802.34,2732.93,2660.08,2695.37,2749.95,2984.54,3138.53,3160.86,3229.63,3270.12,3322.05,3350.12,3438.74,3470.13,3548.24,3602.13,3690.35,3749.47,3813.55,3861.82,3904.75,3937.24,3963.34,3985.18,4007.34,4039.41,4051.81,4062.18,4071.93,4079.42,4085.66,4091.75,4098.74,4105.58,4111.16,4115.52,4118.87,4120.73,4121.56,4122.3,4119.7,4114.4,4106.49,4093.4,4076.32,4056.91,4031.58,3999.17,3944.23,3890.23,3842.06,3767.49,3709.06,3661.13,3581.7,3457.39,3403.17,3347.74,3295.02,3275.39,3254.14,3253.12,3223.45,3216.08,3163.5,3133.78,3162.1,3185.49,3159.23,3150.01,3168.81,3211.14,3227.03,3232.97,3234.78,3249.74,3309.37,3331.77,3395.97,3449.16,3510.08,3611.52,3667.07,3782.42,3875.71,3933.77,3975.29,4012.01,4043.72,4070.8,4091.26,4105.99,4112.34,4117.93,4120.63,4122.08,4123.81,4123.44,4120.12,4114.4,4107.58,4098.41,4090.12,4076.03,4057.73,4034.58,3990.48,3954.72,3919.36,3877.82,3838.13,3781.05,3715.49,3630.38,3540.17,3386.49,3309.63,3195.25,3099.72,2982.04,2940.15,2873.17,2764.9,2630.66,2558.08,2494.96,2466.55,2335.82,2256.65,2179.76,2139.36,2055.07,2042.96,1990.4,1929.29,1922.41,1882.25,1823.57,1758.51,1736.04,1723.96,1698.28,1729.69,1748.02,1785.27,1866.64,1958.11,2131.56,2358.57,2548.69,2778.61,3031.16,3233.08,3426.99,3603.87,3711.78,3782.17,3874.12,3956.44,3980.7,4023.34,4049.79,4075.86,4087.4,4092.87,4096.03,4097.03,4096.36,4095.38,4091.98,4087.39,4080.42,4073.77,4064.59,4053.23,4039.42,4024.06,4006.36,3986.44,3966.21,3945.57,3922.6,3898.5,3873.22,3843.54,3820.99,3788.02,3758.76,3732.64,3704.03,3654.48,3608.99,3559.31,3532.18,3502.81,3466.79,3422.35,3406.84,3367.92,3367.87,3328.26,3323.01,3301.03,3327.7,3346.06,3406.1,3457.06,3514,3584.02,3632.31,3687.64,3760.27,3824.4,3851.96,3925.11,3962.46,3990.69,4011.54,4025.6,4040.28,4060.36,4070.25,4080.17,4087.58,4092.01,4097.26,4101.62,4107.18,4114.41,4120.23,4126.04,4131.51,4135.35,4139.3,4141.89,4144.34,4142.65,4139.52,4134.08,4127.35,4118.46,4106.5,4088.54,4065.95,4038.74,4010.63,3979.24,3945.68,3911.93,3876.22,3836.36,3811.24,3793.24,3770.58,3731.25,142.097,21.039,25.79,90.272,1597.78,1358.72,1391.74,1465.21,1508.27,1640.23,1858.7,2112.46,2130.29,2175.39,2184.96,2208.56,2201.08,2196.83,2194.06,2187.69,2188.03,2182.54,2180.26,2180.83,2156.48,2177.89,1984.38,1332.56,1999.31,2133.31,2133.17,2102.33,2080.32,2034.32,1961.67,1892.86,1789.8,1709.17,1583.1,1491.93,1597.94,1718.92,1855,1852.6,1975.15,2124.91,2266.48,2545.16,2844.18,3146.81,3479.93,3685.78,3832.37,3900.95,3940.73,3973.04,4015.58,4039.02,4063.13,4077.2,4087.17,4092.19,4095.68,4095.84,4092.58,4086.02,4078.22,4068.77,4058.82,4048.11,4036.36,4022.31,3996.09,3981.13,3967.02,3947.1,3933.87,3921.91
3393.21,3378,3367.17,3385.83,3373.7,3411.03,3420.28,3431.93,3436.52,3459.92,3506.29,3550.4,3588.18,3607.77,3655.58,3717.33,3755.57,3777.63,3803.79,3823.46,3847.37,3873.18,3897.5,3920.22,3946.34,3981.84,4000,4015.98,4030.04,4040.5,4047.86,4052.25,4055.7,4057.59,4058.43,4058.85,4057.1,4053.33,4046.61,4036.93,4024.58,4009.97,3992.75,3972.99,3945.68,3903.57,3857.59,3807.74,3770.99,3680.57,3606.8,3544.48,3443.27,3389.75,3343.7,3296.21,3223.8,3158.52,3105.92,3116.62,3074.01,3029.05,3028.89,3028.86,3037.77,3003.21,2984.42,2986.64,2977.64,2980.66,2910.81,2887.49,2803.09,2752.87,2789.94,3001.25,3163.16,3217.2,3279.49,3317.73,3361.03,3399.12,3465.8,3537.14,3595.01,3641.28,3690.04,3762.8,3813.89,3862.45,3899.6,3933.49,3961.17,3984.92,4004.79,4030.83,4053.8,4058.02,4079.63,4088.4,4095.03,4102.01,4109.44,4116.58,4122.74,4127.62,4131.34,4134.43,4135.12,4136.15,4133.33,4128.34,4120.42,4107.07,4089.29,4068.55,4042.22,4004.45,3957.1,3902.74,3850.11,3781.34,3691.94,3634.79,3578.77,3487.3,3419.49,3364.6,3328.86,3322.55,3295.96,3261.81,3229.99,3212.68,3193.26,3206.2,3195.77,3210.41,3198.4,3190.98,3197.12,3208.93,3215.64,3235.78,3229.03,3225.6,3231.81,3316.86,3358.27,3413.66,3485.87,3577.5,3671.03,3780.75,3879.36,3939.09,3982.11,4020.41,4052.98,4080.46,4101.3,4116.16,4122.87,4129.11,4132.1,4133.36,4135.58,4135.45,4132.52,4128.18,4122.19,4112.92,4104.81,4093.45,4076.82,4054.59,4006.56,3977.15,3940.32,3897.37,3851.22,3795.92,3718.47,3645.56,3545.7,3396.73,3324.15,3220.28,3135.9,3016.67,3008.12,2883.12,2797.43,2680.66,2629.2,2556.31,2472,2378.08,2314.93,2229.62,2163.02,2093.46,2053.9,2009.98,1978.5,1925.76,1871.88,1822.39,1786.79,1769.36,1789.48,1755.04,1737.41,1776.59,1808.05,1876.43,1987.17,2165.24,2357.34,2628.75,2792.51,3038.16,3248.94,3439.72,3638.26,3750.5,3824.36,3901.3,3967.79,3995.5,4036.98,4071.48,4094.43,4106.65,4113.36,4115.44,4117.42,4117.94,4115.98,4112.33,4106.6,4099.13,4091.53,4081.95,4069.81,4055.13,4038.84,4019.3,3998.59,3977.18,3955.19,3930.52,3904.31,3877.75,3849.85,3818.65,3783.56,3755.28,3714.71,3662.12,3611.71,3556.5,3503.18,3477.04,3435.86,3404.12,3392.41,3355.97,3342.88,3330.86,3301.58,3322.89,3311.21,3352.44,3383.55,3454.56,3516.25,3571.4,3589.12,3653.95,3732.88,3804.79,3872.23,3921.18,3973.8,4009.86,4035.59,4062.88,4081.39,4096.27,4107.88,4112.9,4122.81,4133.56,4137.49,4139.45,4142.29,4146.23,4152,4158.77,4163.22,4167,4169.44,4171,4173.24,4173.89,4171.78,4165.99,4159.19,4152.95,4143.71,4131.81,4115.22,4092.68,4067.21,4039.25,4009.83,3976.85,3943.57,3908.21,3868.38,3842.64,3824.13,3800.7,3760.59,188.645,24.334,23.596,57.077,1463.71,1284.15,1356.03,1432.95,1485.2,1638.82,1869.9,2070.27,2109.61,2153.61,2191.85,2206.55,2201.14,2196.75,2193.83,2189.92,2190.21,2183.01,2179.22,2177.43,2122.37,2178.79,2094.45,1711.43,1963.55,2127.19,2140.38,2121.58,2090.69,2045.11,1954.77,1888.12,1789.44,1674.17,1552.2,1495.16,1562.39,1680.38,1792.58,1893.26,1982.61,2120.56,2210.33,2467.6,2791.07,3134.88,3455.76,3713.85,3899.52,3962.99,3997.56,4028.19,4055.85,4078.36,4095.57,4108.97,4117.51,4122.46,4124.02,4121.71,4116.23,4108.23,4099.16,4087.37,4075.58,4062.14,4047.57,4031.85,4014.89,3998.64,3983.21,3967.04,3952.83,3941.27
3410.07,3409.68,3414.07,3423.45,3394.33,3401.15,3415.42,3422.73,3459.67,3458.88,3504.25,3518.08,3560.55,3601.02,3638.01,3714.44,3742.41,3769.38,3806.36,3825.38,3853.82,3881.58,3908.84,3934.65,3959.17,3982,4003.44,4021.65,4040,4053.32,4062.12,4068.95,4074.01,4076.91,4079.12,4079.92,4079.64,4076.02,4071.11,4063.02,4052.46,4038.81,4024.35,4005.95,3981.66,3949.76,3913.6,3876.16,3838.47,3759.09,3689.45,3626.99,3555.85,3518.98,3462.93,3413.72,3338.4,3276.47,3272.69,3224.51,3213.4,3221.59,3227.07,3250.23,3218.05,3196.77,3177.59,3177.4,3139.71,3130.24,3109.87,3077.06,2926.26,2813.84,2832.57,3076.96,3219.15,3276.7,3330.4,3363.5,3426.2,3446.97,3498.88,3538.28,3601.91,3663.21,3701.88,3751.26,3804.93,3854.04,3892.38,3927.61,3961.02,3986.38,4007.75,4026.83,4042.75,4056.42,4067.65,4101.69,4108.9,4115.84,4122.93,4130.79,4137.71,4142.26,4146.52,4149.73,4150.67,4151.7,4150.29,4145.45,4137.33,4124.87,4107.1,4085.49,4058.25,4020.77,3981.91,3938.39,3886.05,3815.12,3724.73,3667.53,3607.69,3473.78,3420.53,3367.21,3335.23,3354.4,3325.28,3291.72,3292.3,3241.37,3259.69,3241.9,3217.77,3219.74,3223.2,3221.72,3200.97,3210.5,3237.02,3235.3,3253.7,3229.68,3219.93,3269.54,3324.93,3342.11,3418.51,3526.91,3625.1,3760.56,3879.2,3939.65,3988.23,4027.03,4060.21,4088.14,4109.81,4126.25,4134.04,4139.74,4142.9,4145.33,4147.64,4147.8,4145.57,4141.76,4136,4128.25,4121.17,4110.9,4095.27,4074.42,4025.63,3995.54,3957.74,3916.77,3866.1,3795.76,3717.18,3620.09,3525.07,3385.11,3269.86,3162.73,3066.7,2970.2,2944.22,2818.57,2670.78,2603.56,2548.27,2441.64,2399.67,2307.2,2241.31,2152.07,2039.81,2007.29,1990.16,1974.31,1938.43,1929.5,1871.6,1875.24,1817.56,1765.09,1750.8,1736.25,1742.95,1741.05,1731.87,1815.75,1929.8,2071.99,2261.46,2481.76,2671.39,2923.47,3131.86,3384.3,3557.27,3684.23,3824.75,3899.18,3973.9,4017.37,4056.28,4094.51,4114.34,4127.3,4132.97,4135.96,4138.08,4137.58,4135.51,4131.89,4125.45,4117.33,4109.66,4098.33,4085.47,4069.6,4052.01,4031.99,4006.2,3982.25,3962.94,3936.77,3908.83,3874.34,3842.05,3803.29,3761.29,3717.36,3658.58,3627.6,3554.2,3507.39,3469.62,3418.48,3371.9,3332.35,3301.31,3283.82,3268.62,3250.51,3299.43,3302.02,3314.59,3366.56,3418.85,3481.31,3560.18,3608.5,3630.23,3680.7,3756.38,3823.7,3910.25,3952.02,3993.74,4031.3,4068.25,4097.1,4116.41,4131.88,4144.54,4153.87,4164.19,4171.46,4173.85,4176.08,4178.29,4182.42,4188.35,4193.1,4195.63,4197.58,4198.24,4200.71,4202.04,4201.07,4197.49,4191.56,4185,4178.17,4168.95,4157.47,4141.08,4119.87,4094.87,4069.01,4039.25,4007.57,3974.87,3938.78,3898.18,3871.88,3850.61,3828.64,3785.87,777.452,46.249,21.46,60.024,1027.4,1195.38,1350.13,1356.41,1453.69,1573.54,1814.67,2051.68,2093.92,2158.55,2171.89,2204.47,2201.16,2194.34,2191.29,2189.76,2187.6,2183.48,2178.8,2176.72,2125.88,2175.78,2131.34,1750.71,1888.24,2107.99,2136.97,2103.33,2071.35,2030.6,1949.9,1909.79,1747.02,1654.48,1536.04,1450.7,1508.08,1635.52,1749.99,1851.38,1994.02,2122.86,2239.89,2515.79,2782.32,3127.81,3503.96,3793.23,3948.68,4015.08,4045.99,4073.63,4098.05,4117.62,4131.94,4142.76,4149.04,4151.66,4151.98,4148.48,4141.25,4130.6,4119.19,4106.49,4092.22,4075.38,4059,4041.17,4022.7,4004.02,3986.34,3967.71,3953.09,3942.27
3409.5,3390.9,3383.96,3411.64,3400.53,3386.06,3403.69,3427.66,3472.45,3465.56,3483.32,3529.29,3543.02,3582.33,3622.6,3680.05,3704.53,3737.95,3764.65,3797.63,3840.73,3868.95,3901.8,3928.83,3956.56,3982.38,4006.88,4027.66,4047.75,4063.82,4074.94,4083.25,4089.89,4094.54,4098.23,4099.69,4099.55,4097.84,4094.37,4087.72,4078.62,4068.29,4055,4038.76,4017.48,3992.16,3959.37,3925.2,3889.53,3834.71,3780.08,3712.93,3648.88,3617.5,3564.64,3537.82,3482.2,3406.59,3341.13,3304.54,3297.24,3304.34,3328.88,3307.55,3306.75,3324.5,3312.31,3318.91,3307.84,3291.28,3245.68,3204.38,3017.1,2883.9,2825.3,3117.55,3301.44,3366.85,3371.06,3420.34,3465.13,3519.37,3568.02,3606.03,3656.81,3713.64,3735.43,3783.2,3826.06,3873.95,3911.05,3945.81,3975.09,4001.05,4022.67,4042.86,4059.34,4073.8,4093.29,4115.27,4122.72,4130.63,4137.33,4145.73,4152.64,4158.27,4162.44,4165.58,4167.52,4168.99,4167.97,4164.44,4156.54,4144.8,4128.26,4106.78,4079.62,4046.71,4007.87,3960.43,3916.09,3829.34,3783.42,3691.99,3623.24,3520.49,3479.45,3424.92,3423.87,3412.78,3388.29,3391.98,3366.29,3363.28,3339.86,3306.93,3290.77,3312.01,3304.76,3299.36,3288.21,3293.02,3266.25,3252.02,3206.49,3226.41,3235.74,3290.34,3350.94,3394.64,3413.09,3514.41,3647.4,3767.47,3888.39,3951.96,4000.82,4039.89,4073.49,4101.3,4123.17,4139.89,4148,4153.86,4157.64,4159.59,4161.81,4163.09,4160.59,4157.07,4151.8,4144.33,4137.32,4127.59,4113.88,4091.64,4046.96,4009.97,3970.57,3925.08,3875.41,3810.19,3735.27,3607.7,3475.34,3351.61,3201.39,3085.96,2998.69,2920.25,2875.75,2810.3,2619.23,2452.67,2367.58,2208.1,2153.33,2065.15,1999.61,1905.85,1827.17,1833.23,1734.75,1737.34,1721.8,1738.22,1729.76,1665.62,1596.06,1532.75,1478.56,1472.81,1419.89,1412.3,1374.37,1358.26,1453.88,1561.05,1845.19,2094.71,2302.8,2566.28,2843.52,3238.56,3479.21,3593,3767.8,3902.77,3997.59,4032.92,4083.34,4111.9,4131.53,4142.35,4148.3,4151.37,4153.18,4153.05,4150.82,4146.67,4139.44,4131.77,4123.6,4112.04,4099.2,4083.61,4060.78,4044.43,4016.37,3992.73,3971.79,3943.53,3912.95,3882.14,3835.81,3793.67,3745.99,3663.11,3623.59,3594.73,3514.27,3458.96,3416.69,3328.25,3267.12,3235.12,3203.91,3221.2,3206.25,3199.9,3244.91,3292.69,3322.58,3386.58,3400.82,3482.16,3560.64,3621.3,3654.45,3725.86,3773.31,3862.81,3933.81,3979.06,4021.9,4061.41,4094.23,4120.55,4141.25,4156.6,4168.25,4180.29,4191.1,4198.79,4201.92,4203.95,4206.11,4210.23,4214.7,4218.6,4222.02,4223.28,4224.2,4224.3,4224.48,4223.01,4218.94,4213.32,4207.27,4199.66,4190.99,4179.74,4165.19,4144.71,4120.92,4094.54,4066.43,4035.55,4002.09,3964.96,3922.69,3893.97,3869.33,3845.14,3794.53,1590.44,121.525,21.543,104.679,749.817,1058.75,1291.07,1367.64,1447.48,1578.46,1806.86,2036.94,2069.81,2149.11,2165.15,2206.81,2201.47,2194.31,2191.47,2189.8,2187.77,2179.85,2178.61,2178.38,2134.12,2177.9,2142.35,1665.63,1987.55,2067.73,2111.95,2098.56,2064.92,1991.22,1925.65,1851.17,1719.26,1621.73,1510.36,1419.41,1489.42,1647.1,1771.98,1862.97,1989.09,2153.74,2359.91,2640.49,2912.8,3293.92,3629.24,3890.12,4024.18,4070.56,4097.49,4122.09,4142.26,4156.67,4169.14,4176.98,4181.77,4181.61,4179.73,4174.25,4164.72,4152.98,4139.83,4125.3,4108.87,4090.85,4071.32,4051.14,4030.87,4010.62,3992.16,3975.39,3961.06,3952.7
3370.78,3358.11,3356.05,3386.12,3379.67,3386.73,3378.97,3375.36,3430.55,3441.38,3429.06,3470.78,3514.43,3541.57,3600.72,3648.18,3663.89,3697.88,3738.39,3779.36,3813.27,3856.42,3894.19,3926.77,3955.56,3983.3,4009.41,4033.87,4056.28,4074.2,4086.97,4097.32,4105.34,4111.17,4115.36,4118.56,4118.68,4117.46,4115.72,4110.26,4104.56,4095.29,4084.95,4071.25,4053.15,4031.87,4006.28,3958.52,3916.79,3875.35,3821.75,3791.05,3766.38,3685.6,3646.89,3589.33,3534.77,3481.3,3416.06,3390.17,3370.27,3344.48,3363.47,3320.83,3325.23,3353.7,3365.14,3355.56,3340.77,3328.98,3282.33,3218.96,3085.95,2843.74,2852.18,3128.54,3354.61,3380.11,3412.88,3458.79,3507.24,3556.57,3604.89,3639.92,3687.63,3734.05,3767.9,3810.39,3851.05,3893.56,3928.57,3962.73,3990.88,4016.8,4038.66,4059.25,4076.17,4090.19,4114.37,4133.77,4141.42,4148.71,4155.92,4163.25,4170,4176.41,4181.19,4185.02,4186.99,4188.85,4187.9,4184.62,4178.16,4167.81,4151.19,4130.46,4103.41,4071.48,4034.01,3991.9,3947.7,3891.51,3819.15,3770.2,3703.38,3608.09,3572.66,3543.59,3551.18,3504.9,3500.31,3475.28,3476.48,3483.48,3456.38,3429.84,3477.42,3474.22,3477.67,3431.01,3435.71,3426.54,3413.59,3426.3,3430.85,3454.84,3450.86,3434.33,3461.42,3498.25,3554.08,3616.56,3706.32,3805.64,3880.07,3946.57,3996.87,4037.06,4070.16,4112.02,4137.23,4153.23,4166.03,4170.86,4174.16,4176.02,4178.63,4179.15,4176.83,4173.52,4167.52,4160.66,4152.94,4144.36,4129.61,4106.09,4078.74,4039.65,3989.59,3929.88,3879,3820.53,3736.74,3612,3470.27,3317.04,3171.12,3061.53,2951.76,2872.51,2804.26,2662.78,2363.48,2124.63,1921.21,1713.13,1602.37,1441.41,1220.85,1168.96,1095.8,1077.02,1032.04,1049.12,1025.64,1033.51,964.648,899.035,928.606,850.336,825.054,755.009,754.712,754.664,719.485,707.166,754.544,918.384,1011.93,1175.85,1491.56,1960.19,2325.35,2689.73,3011.18,3332.64,3608.63,3853.22,3985.84,4054,4093.67,4129.63,4147.9,4158.09,4161.86,4164.69,4166.6,4165.92,4164.25,4159.91,4152.89,4144.87,4135.82,4125.2,4112.33,4097.24,4077.93,4051.09,4027.95,3997.91,3980.25,3949.67,3917.4,3875.07,3823.37,3777.59,3715.62,3655.56,3583.42,3514.67,3427.83,3344.24,3291.03,3217.56,3180.31,3175.79,3152.78,3147.79,3155.78,3177.07,3197.57,3254.2,3295.15,3386.9,3385.49,3458.69,3542.5,3593.77,3632.99,3723.27,3767.55,3862,3920.75,3987.93,4027.69,4078.91,4112.67,4139.92,4160.6,4176.64,4189.25,4199.56,4210.48,4218.19,4221.23,4224.32,4225.98,4229.64,4233.54,4237.7,4240.59,4241.3,4241.14,4241.56,4241.59,4240.58,4237.4,4231.41,4225.96,4218.92,4210.15,4199.44,4184.84,4165.99,4142.25,4116.62,4088.51,4057.36,4023.6,3984.59,3940.45,3907.72,3879.88,3852.53,3788,2060.71,208.879,33.646,142.182,662.465,1022.96,1232.65,1331.17,1465.44,1609.81,1823.4,2045.7,2093.31,2167.44,2177.59,2203.59,2202.17,2197.01,2193.99,2190.28,2187.82,2180.68,2176.11,2176.06,2162.27,2177.87,2111.82,1655.32,2050,2012.35,2071.13,2055.08,2017.99,1983.23,1889.31,1820.31,1692.73,1585.47,1495.12,1400.7,1470.99,1621.28,1754.14,1858.88,1992.52,2193.55,2437.51,2773.68,3128.83,3560.12,3836.07,3994.75,4093.32,4126.12,4150.48,4169.71,4185.37,4197.01,4205.27,4210.97,4212.55,4210.79,4205.67,4198.06,4186.72,4173.49,4158.74,4142.78,4124.12,4103.6,4082.82,4061.01,4039.12,4017.85,4000.54,3984.73,3972.44,3954.14
3377.31,3361.41,3362.3,3368.24,3375.95,3356.81,3363.2,3369.23,3412.28,3387.34,3412.02,3454.46,3481.32,3532.69,3546.81,3599.94,3651.74,3673.42,3697.06,3751.54,3790.62,3835.65,3880.15,3921.76,3955.96,3984.6,4012.84,4039.64,4064.71,4083.81,4098.91,4110.94,4120.2,4127.3,4132.64,4135.85,4136.97,4137.34,4136.35,4133.84,4129.16,4122.43,4114.24,4103.8,4089.92,4071.56,4050.12,4026.48,3987.72,3927.89,3894.93,3845.05,3825.5,3764.71,3703.54,3654.7,3604.01,3512.48,3436.57,3411.77,3370.62,3311.35,3297.87,3277.87,3323.86,3332.5,3344.99,3350.52,3363.73,3334.77,3268.18,3198.81,3041.86,2888.6,2817.37,3124.89,3325.65,3388.94,3402.62,3444.52,3495.3,3539.25,3588.37,3658.82,3705.08,3748.53,3773.38,3819.04,3861.96,3912.27,3947.66,3980.2,4008.22,4034.03,4056.71,4077.06,4093.79,4117.07,4141.23,4152.68,4160.79,4168.7,4176,4183.53,4190.04,4196.36,4201.43,4205.1,4207.9,4209.09,4209.04,4206.79,4201.98,4193.99,4178.47,4158.54,4133.55,4102.51,4067.15,4029.93,3988.1,3929.36,3881.69,3830.36,3773.93,3705.12,3658.42,3640.24,3634.57,3636.88,3621.21,3584.05,3591,3612.09,3593.22,3582.7,3571.84,3574.08,3576.36,3581.25,3559.49,3576.18,3584.25,3552.54,3553.74,3587.99,3597.46,3619.27,3640.81,3670.69,3650.2,3719.94,3748.03,3837.67,3916.92,3996.46,4037.72,4078.97,4112.2,4141.17,4165.97,4181.01,4187.56,4192.57,4195.42,4197.23,4198.22,4199.25,4196.82,4192.68,4178.43,4157.92,4149.41,4141.03,4125.19,4101.98,4072.7,4037.19,3994.65,3940.93,3884.73,3823.31,3737.55,3652.77,3519.97,3346.69,3231.79,3091.2,3005.79,2848.14,2802.5,2547.71,2269,1935.16,1720.17,1534.52,1326.3,1126.47,960.116,833.414,804.975,801.051,751.901,779.973,750.55,699.67,676.795,646.982,604.772,526.477,540.5,512.551,475.655,432.796,447.147,467.16,522.137,555.503,696.262,876.525,1161.18,1526.78,1851.93,2273.15,2623.69,3040.48,3483.49,3804.67,3985.22,4066.88,4108.73,4150.54,4163.03,4174.68,4178.41,4180.6,4182.88,4181.25,4179.4,4175.04,4167.62,4159.66,4150.64,4140.75,4127.69,4111.77,4091.51,4068.62,4043.7,4016.92,3988.6,3955.75,3921.39,3868.96,3809.34,3776.57,3725.22,3660.27,3611.19,3534.26,3449.05,3328.23,3268.95,3252.79,3225.51,3162.88,3173.97,3140,3214.08,3214.53,3242.99,3322.87,3390.09,3414.9,3440.45,3510.77,3577.33,3630.43,3693.65,3728.78,3786.14,3883.25,3934.35,4017.61,4055.84,4091.48,4126.46,4153.91,4175.03,4192.29,4204.4,4215.38,4226.38,4233.8,4236.72,4239.67,4241.1,4244.46,4248.92,4252.56,4255.58,4256.38,4256.36,4256.56,4256.75,4255.34,4251.25,4246.5,4240.86,4234.68,4226.12,4215.87,4202.6,4183.23,4159.85,4133.58,4105.18,4074.08,4037.79,3996.68,3950.94,3915.79,3883.95,3851.11,3759.75,1808.71,276.066,44.422,153.644,854.639,1094.06,1223.21,1314.37,1431.49,1627.8,1803.55,2037.58,2061.85,2159.07,2191.69,2206.7,2203.31,2197.67,2194.39,2190.43,2187.63,2178.89,2175.55,2175.11,2144.46,2175.51,2112.07,1533.22,1963.04,1762.55,1889.68,1944.34,1928.67,1926.04,1826.2,1765.29,1617.02,1495.36,1383.29,1336.78,1444.53,1617.95,1783.39,1863.42,2048.72,2255.13,2505.34,2908.69,3322.13,3732.83,3949.52,4087.43,4156.99,4182.13,4201.95,4216.07,4226.97,4236.08,4241,4243.43,4242.71,4237.72,4230.88,4220.94,4208.51,4193.18,4177.19,4160.02,4139.94,4117.59,4095.65,4071.53,4048.69,4029.15,4012.27,3989.88,3964.56,3956.79
3358.17,3352.67,3345.43,3361.08,3353.59,3346.95,3348.65,3338.94,3368.39,3347.95,3372.88,3409.16,3460.26,3458.47,3514.88,3547.59,3586,3635.9,3662.34,3709.04,3762.26,3824.4,3875.14,3914.74,3952.45,3983.47,4012.93,4044.43,4071.82,4093.1,4109.73,4122.57,4133.53,4142.31,4148.97,4152.32,4154.68,4155.21,4155.88,4155.8,4153.02,4148.68,4142.83,4134.69,4124.19,4110.01,4092.75,4074.32,4047.5,4010.18,3963.47,3904.07,3880.96,3809.87,3759.48,3708.45,3652.1,3582.68,3491.44,3414.6,3330.49,3292.07,3299.01,3290.24,3248.98,3278.46,3234.34,3236.17,3235.58,3232.64,3158.09,3123.52,3054.68,2818.97,2858.26,3100.89,3299.55,3355.9,3390.99,3436.12,3475.08,3536.08,3556.03,3630.75,3677.29,3739.7,3800.52,3849.74,3883.43,3929.43,3968.11,3999.82,4028.39,4054.7,4077.66,4098.06,4115.54,4134.97,4159.69,4174.42,4183.71,4191.83,4198.57,4205.8,4212.05,4219.12,4223.08,4227.5,4230.44,4232.22,4232.63,4230.55,4228.04,4220.81,4207.1,4189.21,4165,4135.42,4103.48,4063.95,4014.76,3964.82,3901.61,3848.37,3804.68,3758.37,3752.93,3700.24,3669.03,3657.19,3664.2,3651.22,3657.11,3655.77,3645.78,3624.1,3655.83,3644.81,3677.46,3653.61,3636.87,3635.95,3655.97,3638.33,3636.79,3620.63,3654.14,3632.54,3666.16,3664.24,3693.63,3699.06,3762.09,3866.29,3931.66,4014.84,4059.38,4100.02,4133.47,4164.87,4184.77,4201.53,4210.47,4218.29,4220.71,4222.14,4222.44,4222.44,4218.7,4214.74,4208.33,4200,4191.78,4177.87,4161.06,4129.21,4091.11,4054.63,4010.96,3960.28,3907.28,3852.24,3765.49,3675.09,3555.82,3439.37,3317.47,3227.35,3121.89,3060.41,2959.73,2715.63,2399.03,2088.65,1808.77,1543.8,1296.34,1134.41,1030.61,891.61,817.006,842.367,786.009,807.833,803.194,740.009,686.288,629.041,629.636,610.827,621.738,558.666,511.851,494.783,508.552,563.955,553.316,585.973,686.367,928.993,1220.51,1537.5,1881.1,2342.02,2721.22,3152,3606.92,3904.38,4041.64,4103.74,4130.96,4149.35,4167.04,4173.25,4197.23,4199.67,4201.58,4199.9,4197.75,4193.12,4185.4,4177.43,4169.05,4157.82,4140.2,4120.38,4090.57,4061.41,4035.07,4006.76,3975.74,3940.45,3903.84,3859.02,3813.71,3764.34,3694.1,3651.42,3596.43,3536.9,3402.55,3328.88,3274.31,3250.3,3173.98,3159.77,3177.42,3194.89,3222.18,3255.91,3282.85,3335.46,3394.84,3450.35,3485.4,3531.68,3622.63,3638.57,3702.78,3760.48,3820.12,3885.9,3957.25,4009.97,4073.16,4104.18,4139.55,4167.62,4186.01,4206.14,4219.3,4230.64,4242.38,4249.4,4253.63,4255.67,4258.02,4261.4,4265.71,4269.71,4272.68,4273.02,4272.86,4272.31,4270.89,4269.08,4265.24,4259.7,4254.56,4248.04,4240.04,4229.51,4216.6,4196.97,4173.84,4147.05,4117.73,4086.13,4047.42,4003.94,3957.39,3917.79,3881.48,3843.55,3700.97,1487.72,320.053,71.906,201.416,1169.41,1247.38,1296.86,1344.21,1452.09,1685.96,1873.17,2092.23,2127.91,2179.05,2201.52,2210.07,2204.15,2193.77,2194.06,2190,2186.69,2180.74,2171.21,2172.89,2144.43,2176.15,2111.75,1359.64,1723.51,1586.92,1732.05,1894.74,1877,1902.51,1816.57,1751.09,1609.02,1420.96,1319.32,1275.89,1418.4,1627.17,1815.62,1911.23,2078.55,2352.75,2660.38,3008.26,3505.96,3868.63,4079.28,4179.03,4214.98,4235.57,4249.74,4259.61,4268,4273.54,4275.01,4274.6,4270.78,4264.18,4255.05,4244.42,4229.95,4213.9,4196.86,4178.1,4156.45,4133.23,4109.67,4085.85,4063.37,4044.28,4016.74,3981.89,3958.63,3918.46
3341.06,3345.68,3335.24,3350.54,3350.9,3346.49,3338.5,3333.34,3332.2,3341.26,3348.3,3378.59,3423.51,3443.77,3493.52,3513.18,3547.95,3601.22,3638.77,3688.98,3729.98,3782.93,3860.31,3910.85,3953.33,3984.21,4018.75,4048.07,4079.24,4102.74,4121.04,4135.38,4147.61,4157.03,4165.35,4169.05,4172.52,4174.11,4175.44,4176.36,4176.19,4173.96,4170.34,4164.61,4157.61,4147.44,4135.21,4119.81,4096.19,4062.3,4025.45,3975.25,3926.27,3873.08,3825.67,3788.6,3708.27,3597.62,3528.3,3441.45,3363.54,3282.92,3253.24,3252.59,3208.62,3191.6,3156.17,3161.73,3148.62,3124.45,3090.13,3037.31,2940.43,2865,2840.95,3091.67,3243.99,3298.69,3356.56,3407.16,3456.82,3520.51,3570.39,3628.19,3680.44,3738.37,3815.75,3848.24,3895.2,3942.55,3981.2,4013.72,4046.8,4072.87,4096.69,4118.47,4136.44,4157.31,4182.45,4198.32,4207.63,4216.72,4224.48,4231.18,4237.56,4243.97,4248.46,4252.36,4255.2,4256.41,4258.04,4257.45,4254.92,4249.72,4238.28,4222.73,4198.92,4172.08,4142.62,4105.79,4062.6,4004.9,3941.21,3908.2,3843.57,3786.27,3752.27,3731.59,3696.71,3689.1,3683.77,3688.14,3688.44,3686.42,3695.17,3663.92,3672.72,3687.15,3709.48,3712.16,3719.18,3678.23,3683.98,3692.78,3686.27,3682,3710.83,3712.45,3723.92,3751.05,3724.01,3732.42,3781.39,3873.39,3957.1,4042.96,4095.44,4139.93,4172.77,4207.7,4227.56,4241.76,4244.9,4247.9,4248.81,4249.75,4249.81,4248.83,4244.78,4239.94,4233.3,4224.63,4215.06,4205.12,4188.36,4159.87,4129.64,4088.68,4035.23,3984.76,3929.46,3885.79,3791.29,3720.69,3592.44,3451.1,3384.68,3305.95,3259.92,3186.94,3090,2895.54,2598.74,2165.45,1939.15,1619.62,1379.06,1254.14,1057.06,950.568,954.627,932.096,948.759,884.461,932.531,873.848,832.246,792.38,755.49,725.358,724.514,627.319,577.684,586.528,618.827,635.346,631.987,768.962,896.509,1111.47,1420.53,1672.46,2026.83,2461.77,2920.44,3328.45,3779.4,3993.14,4104.73,4137.9,4162.38,4181.12,4192.23,4197,4220.45,4222.29,4223.06,4221.04,4219.06,4214.05,4206.37,4198.06,4188.85,4156.45,4134.15,4118.39,4096.54,4070.68,4042.46,4012.94,3980.52,3943.48,3905.76,3866.62,3816.69,3780.63,3726.55,3692.83,3638.01,3588.15,3502.92,3386.84,3329.48,3260.99,3258.34,3243.69,3242.67,3259.63,3269.39,3377.76,3359.41,3454.89,3517.89,3523.13,3560.19,3611.42,3681.86,3733.29,3803.16,3848.49,3920.11,3955.21,3998.75,4048.47,4104.23,4133.63,4163.27,4190.11,4215.15,4231.19,4243.65,4254.23,4264.92,4271.71,4275.49,4279.11,4280.52,4282.66,4286.6,4289.87,4291.63,4291.42,4289.54,4286.95,4284.94,4282.01,4276.82,4270.88,4265.31,4258.94,4250.21,4241.29,4228.39,4209.11,4185.8,4158.66,4128.91,4094.36,4054.05,4009.17,3959.5,3914.22,3872.67,3825.05,3577.15,1310.65,427.232,87.02,337.416,1500.44,1363.24,1417.19,1431.2,1489.36,1709.25,1905.82,2117.35,2142.84,2185.22,2212.23,2215.68,2204.59,2193.42,2193.35,2188.87,2184.99,2179.33,2168.29,2169.17,2156.71,2171.94,2091.73,1162.06,1417.12,1423.29,1705.85,1943.17,1913.74,1896.98,1850.27,1758.92,1642.86,1486.01,1363.84,1274.03,1411.27,1615.19,1812.88,1957.21,2057.75,2384.41,2752.55,3161.4,3652.41,4023.98,4195.77,4244.27,4265.76,4280.64,4291.48,4298.99,4303.21,4305.44,4303.92,4300.85,4294.38,4286.12,4276.9,4264.27,4248.8,4232.02,4214.35,4194.71,4172.72,4149.01,4124.05,4100.53,4078.84,4044.85,4016.21,3986.41,3932.03,3887.35
3355.84,3356.16,3367.88,3344.19,3347.23,3343.92,3342.95,3340.99,3350.83,3367.14,3365.95,3403.76,3434.45,3446.09,3479.78,3506.15,3568.23,3604.26,3648.93,3695.99,3737.52,3795.28,3852.95,3905.75,3953.74,3989.42,4025.59,4059.29,4087.28,4111.13,4131.18,4147.78,4160.52,4171.55,4179.69,4184.67,4189.25,4191.99,4193.88,4196.51,4197.33,4198.08,4195.94,4193.38,4188.99,4182.51,4173.44,4161.89,4141.97,4118.58,4087.61,4047.87,4012.49,3969.62,3906.35,3845.59,3746.16,3638.77,3578.61,3422.05,3368.62,3290.34,3260.68,3211.74,3200.96,3195.4,3172.58,3120.57,3123.29,3090.14,3026.97,2972.91,2866.31,2831.15,2828.28,3055.12,3165.26,3251.74,3303.27,3352.65,3395.88,3481.67,3521,3608.65,3698.83,3760.41,3806.6,3846.98,3900.37,3961.51,3998.48,4031.64,4064.99,4092.34,4117.18,4139.84,4159.51,4181.22,4207.07,4223.77,4234.17,4243.92,4251.17,4258.17,4264.39,4271.06,4275.31,4279.56,4282.79,4283.8,4285.31,4285.19,4284.28,4280.58,4271.48,4256.08,4235.48,4210.18,4183.77,4152.37,4106.66,4063.26,4023.91,3965.4,3912.36,3836.71,3803.29,3750.37,3736.98,3721.22,3683.71,3699.07,3732.85,3728.47,3744.83,3710.01,3732.38,3718.49,3720.2,3723.36,3743.66,3726.19,3710.7,3709.76,3701.26,3687.88,3702.23,3726.99,3739.31,3771.31,3741.38,3779.1,3810.95,3902.16,3989.11,4084.35,4135.36,4175.16,4208.57,4243.27,4261.01,4275.13,4276.26,4278.32,4278.45,4278.75,4278.24,4276.55,4272.17,4266.09,4258.95,4250.51,4238.97,4228.83,4210.72,4168.13,4138.23,4100.93,4051.9,4000.91,3940.07,3887.5,3810.44,3725.45,3602.61,3456.16,3405.06,3343.8,3301.6,3269.83,3195.4,3030.8,2781.1,2398.5,2084.25,1837.17,1567.13,1455.06,1312.56,1251.28,1191.05,1164.58,1131.7,1165.73,1165.94,1127.03,1080.92,1088.6,1015.21,945.104,852.829,797.589,798.531,885.775,894.709,869.822,946.154,1179.61,1354.04,1496.48,1766.19,2047.04,2354.16,2832.4,3223.68,3550.17,3911.96,4095.57,4153.55,4186.38,4209.79,4234.41,4243.41,4246.62,4247.67,4247.98,4247.8,4245.88,4242.92,4237.37,4230.36,4221.1,4202.33,4190.81,4168.32,4147.38,4124.54,4093.57,4064.57,4033.07,3999.55,3961.98,3922.86,3882.29,3838.42,3803.2,3759.99,3735.88,3686.63,3633.69,3582,3512.5,3454.48,3419.26,3375.63,3359.94,3350.61,3410.45,3459.04,3478.1,3507.95,3546.38,3620.78,3655.63,3679.13,3748,3802.5,3836.89,3891.83,3927.64,3972.33,4018.45,4062.36,4096.14,4126.48,4158.22,4184.6,4208.37,4223.58,4242.18,4247.88,4258.94,4263.67,4269.28,4271.74,4274.06,4278.96,4281.11,4287.97,4289.77,4290.32,4289.17,4286.01,4286.94,4283.62,4296.18,4289.76,4282.8,4277.31,4270.38,4262.07,4252.69,4240.21,4220.76,4196.26,4169.67,4138.55,4101.51,4058.88,4009.58,3956.28,3904.91,3856.44,3793.83,3265.61,1117.26,435.485,100.488,417.235,1648.52,1479.45,1507.29,1474.85,1561.54,1711.9,1909.9,2132.23,2138.82,2209.99,2209.36,2217.03,2205.21,2193.38,2192.38,2187.53,2185.14,2179.21,2167.24,2164.27,2128.78,2161.91,2119.81,993.514,1132.48,1240.84,1647.57,1899.09,1918.02,1893.64,1874.15,1790.47,1679.79,1534.25,1398.12,1300.96,1432.22,1638.78,1805.05,1986.42,2127.5,2451.76,2847.87,3383.06,3885.08,4191.76,4267.79,4292.21,4308.73,4320.75,4327.85,4330.33,4331.34,4330.66,4327.54,4322.06,4313.46,4303.64,4292.69,4279.05,4264.52,4246.79,4227.8,4207.22,4183.9,4159.05,4134.34,4111.65,4066.64,4046.88,4013.8,3972.2,3922.74,3876.24
3454.48,3430.84,3417.4,3410.71,3424.42,3415.24,3428.1,3403.42,3416.77,3410.81,3420.52,3470.42,3444.01,3458.91,3506.66,3529.25,3576.19,3625.24,3664.73,3730.2,3754.38,3792.33,3840.49,3903.83,3953.05,3996.04,4025.3,4060.88,4093.45,4118.24,4139.75,4157.92,4172.88,4185.36,4194.33,4201.07,4206,4209.53,4212.71,4216.42,4218.6,4220.07,4220.17,4218.99,4217.49,4213.96,4207.79,4198.81,4186.03,4160.61,4135.26,4108.2,4061.05,4012.58,3944.84,3875.88,3795.78,3693.47,3557.34,3467.61,3418.98,3322.99,3274.95,3249.24,3205.62,3205.89,3163.38,3146.52,3114.68,3067.41,3017.49,2921.13,2857.13,2810.24,2829.17,3047.18,3179.92,3251.2,3302.18,3343.13,3401.4,3472.78,3522.38,3615.28,3692.87,3771.23,3821.6,3873.91,3923.2,3976.17,4013.33,4054.44,4085.65,4113.41,4140.05,4164.14,4185.38,4203.16,4230.04,4251.45,4262.26,4272.4,4279.93,4286.91,4292.62,4299.3,4302.9,4307.22,4310.08,4311.88,4312.61,4312.53,4313.42,4309.4,4302.42,4288.8,4269.71,4245.99,4222.43,4184.49,4150.91,4115.57,4083.64,4017.1,3942.48,3869.35,3814.21,3788.1,3741.41,3725.67,3699.63,3712.49,3685.55,3685.45,3689.49,3651.52,3715.05,3725.69,3733.3,3742.35,3748.74,3742.14,3721.92,3714.5,3674.16,3689.92,3688.39,3708.81,3732.14,3767.52,3774.11,3795.37,3836.97,3910.68,4019.17,4112.82,4168.24,4207.64,4240.88,4275.47,4297.17,4305.75,4307.34,4309.24,4309.39,4308.73,4307.62,4305.05,4300.17,4294.39,4286,4276.54,4265.09,4253.04,4234.77,4204.38,4164.02,4122.19,4077.54,4026.1,3965.12,3902.19,3841.84,3732.38,3643.8,3543.32,3464.48,3340.21,3364.42,3351.75,3261.78,3220.04,3032.38,2902.23,2756.07,2654.68,2554.35,2517.39,2456.33,2383.69,2332.77,2273,2194.18,2230.41,2184,2180.72,2172.83,2077.2,2051.03,1982.68,1958.33,1975.88,2114.66,2104.78,2136.05,2283.9,2508.73,2664.87,2887.16,2969.01,3141.13,3241.97,3529.1,3732.46,3858.47,3993.68,4109.85,4189.07,4231.73,4249.67,4260.17,4267.47,4274.62,4276.12,4276.04,4275.27,4274.1,4272.17,4268.05,4262.3,4254.57,4245.86,4234.95,4223.35,4208.48,4191.44,4164.48,4137,4107.86,4075.35,4040.53,4001.57,3957.27,3905.05,3865.38,3833.4,3787.4,3743.31,3710.4,3665.71,3622.5,3539.67,3479.89,3440.83,3436.24,3453.62,3478.3,3544.76,3555.26,3619.21,3636.86,3697.74,3728.68,3757.44,3779.47,3833.51,3874.75,3926.59,3964.94,4023.08,4057.26,4092.53,4127.48,4161.13,4197.76,4217.24,4243.93,4265.75,4277.11,4287.26,4296.38,4304.22,4312.12,4316.56,4317.42,4317.63,4317.28,4317.62,4318.76,4320.38,4318.79,4314.14,4314.81,4314.79,4317.73,4310.9,4303.3,4296.15,4289.48,4281.92,4273.15,4264.25,4251.35,4231.98,4207.29,4178.55,4145.59,4106.81,4061.08,4007.88,3949.98,3891.72,3835.4,3749.82,2811.55,934.342,341.045,108.004,440.276,1805.94,1581.47,1573.87,1603.91,1631.49,1750.97,1951.27,2120.86,2130.32,2191.44,2204.54,2214.3,2206.11,2195.28,2191.4,2186.32,2180.83,2178.94,2163.94,2159.61,2094.67,2143.47,2108.21,722.244,724.419,969.878,1478.57,1896.78,1899.77,1886.05,1893.86,1820.24,1741.41,1595.66,1454.59,1366.19,1516.35,1705.86,1901.62,1991.42,2205.6,2566.41,3085.3,3644.55,4128.73,4280.57,4317.59,4334.5,4345.73,4354.16,4358.18,4358.74,4356.76,4353.44,4347.34,4339.4,4330.55,4305.93,4285.48,4281.16,4265.58,4251.97,4225.14,4212.04,4186.63,4160.91,4131.71,4093.71,4045.9,4057.75,4022.38,3956.71,3912.16,3879.59
3531.03,3511.41,3477.63,3471.8,3468.2,3456.82,3454.61,3463.79,3467.98,3487.85,3492.08,3505.4,3515.45,3528.07,3543.27,3569.44,3648.25,3672.71,3698.77,3751.82,3782.19,3814.13,3853.75,3901.96,3946.69,3984.46,4018.79,4050.96,4084.62,4114.6,4137.35,4159.94,4177.98,4191.52,4201.75,4217.17,4222.48,4226.81,4231.1,4235.57,4238.47,4241.43,4241.77,4243.64,4243.03,4241.13,4236.52,4230.09,4219.21,4199.38,4175.3,4153.65,4113.98,4066.69,4003.92,3928.72,3867.98,3773.75,3664.71,3547.94,3428.49,3332.56,3294.95,3265.54,3231.62,3208.67,3161.13,3139.25,3118.02,3108.27,3070.52,2970.72,2928.48,2837.5,2842.54,3040.93,3184.54,3273.28,3295.29,3342.18,3383.6,3468.97,3527.78,3599.62,3677.28,3770.76,3831.99,3904.82,3953.26,3993.58,4026.55,4066.72,4103.69,4134.11,4161.47,4187.99,4209.48,4229.49,4257.39,4280.87,4291.14,4300.6,4309,4315.33,4321.42,4326.95,4330.43,4333.54,4336.14,4336.84,4337.67,4338.11,4337.93,4334.98,4327.24,4315.54,4297.54,4276.36,4253.34,4221.05,4183.19,4152.42,4113.12,4043.93,3976.49,3885.02,3829.67,3813.22,3730.63,3714.38,3698.45,3669.98,3670.75,3682.16,3698.03,3659.77,3668.34,3710.84,3731.13,3736.85,3745.85,3742.85,3718.39,3698.78,3696.62,3674.05,3681.27,3679.66,3740.14,3756.09,3756.88,3774.31,3849.88,3950.91,4045.47,4142.21,4198.07,4236.33,4268.75,4303.34,4325.36,4333.46,4335.28,4337.96,4337.56,4336.87,4336.47,4333.65,4327.99,4321.6,4313.63,4304.41,4292.19,4279.31,4259.7,4234.3,4202.66,4159.92,4109.24,4057.29,3997.46,3931.15,3843.35,3775.23,3651.9,3521.96,3446.56,3378.68,3328.08,3331.33,3272.47,3194.76,2995.65,2946.89,2857.03,2849.06,2750.84,2700.3,2609.76,2503.56,2451.99,2381.99,2391.61,2350.09,2333.13,2314.81,2292.62,2321.48,2329.94,2298.02,2334.94,2443.73,2475.65,2567.44,2709.62,2885.43,3030.9,3152.9,3317.31,3438.65,3588.86,3711.66,3823.2,3969.79,4022.72,4107.17,4149.68,4252.62,4277.59,4289.2,4296.9,4302.49,4306.58,4306.93,4305.9,4304.52,4302.41,4298.35,4293.32,4287.92,4280.04,4271.25,4260.2,4247.24,4231.79,4201.11,4177.84,4149.71,4118.93,4085.8,4049.63,4010.33,3970.94,3915.38,3872.74,3825.17,3791.01,3730.05,3712.4,3669.3,3621.51,3590.44,3535.68,3503.71,3491.16,3513.84,3563.87,3608.05,3630.55,3664.39,3701.45,3744.38,3759.67,3806.54,3822.72,3875.87,3944.41,3998.22,4056.58,4106.02,4147.01,4180.23,4212.92,4246.8,4269.92,4296.01,4319.12,4336.88,4348.71,4356.94,4362.01,4367.44,4373.16,4374.83,4374.62,4372.08,4369.44,4368.8,4367.51,4367.45,4363.87,4358.74,4352.2,4344.9,4337.57,4329.49,4320.73,4311.92,4303.46,4294.58,4286.34,4277.18,4263.94,4244.96,4219.81,4191.04,4156.45,4116.46,4068.9,4012.74,3949.6,3887.04,3815.52,3676.3,2392.19,925.267,290.354,114.456,502.028,1848.35,1650.15,1689.8,1683.29,1713.52,1748.78,1896.16,2053.17,2091.05,2173.31,2197.7,2218.07,2207.07,2197.3,2190.57,2184.9,2180.77,2176.52,2160.96,2154.94,2106.48,2065.08,2113.85,859.154,480.63,387.601,694.642,1890.09,1861.32,1871.18,1864.29,1757.34,1694.88,1589.57,1512.42,1422.04,1635.7,1840.5,2072.8,2199.21,2580.38,3040.67,3551.89,4102.46,4279.86,4341.14,4357.98,4369.63,4377.96,4382.19,4383.61,4381.6,4377.7,4372.04,4364.53,4354.55,4344.34,4301.46,4289.1,4284.98,4268.8,4250.73,4230.23,4203.96,4182.7,4156.27,4118.1,4071,4069.75,4040.12,3998.04,3949.9,3915.6,3903.12
3630.98,3605.79,3566.39,3551.55,3533.97,3500.25,3504.8,3531.01,3499.89,3509.83,3533.03,3544.81,3570.42,3604.01,3601.82,3644.27,3668.36,3714.92,3731.5,3774.93,3791.03,3837.73,3888.68,3923.37,3954.04,3988.68,4022.36,4056.01,4087.25,4114.47,4138.62,4159.74,4178.62,4193.79,4204.96,4216.69,4239.13,4243.92,4249.06,4253.57,4257.45,4260.12,4262.85,4264.64,4265.35,4264.24,4261.35,4256.14,4246.48,4233.05,4210.47,4176.42,4139.92,4095.72,4047.29,3963.15,3881.57,3821.86,3717.58,3624.19,3523.42,3444.92,3361.23,3350.85,3308.52,3259.62,3189.52,3169.43,3139.96,3095.32,3071.15,3013.58,2902.55,2828.82,2798.35,3066,3211.68,3291.03,3344.79,3382.78,3427.92,3515.6,3560.76,3628.22,3688.45,3768.96,3828.66,3899.38,3948.27,3996.24,4033.26,4072.37,4116.64,4149.47,4181.17,4208.49,4232.69,4254.44,4271.35,4302.44,4317.59,4327.65,4335.9,4342.62,4347.41,4352.11,4355.35,4358.04,4359.31,4359.3,4358.64,4357.72,4357.87,4354.32,4345.96,4335.58,4318.98,4298.92,4275.7,4248.08,4202.27,4163.82,4123.76,4054.98,4010.88,3898.98,3820.36,3782.09,3753.75,3700.77,3685.27,3677.68,3690.18,3688.32,3692.83,3695.66,3688.3,3717.56,3699.92,3764.13,3762.1,3742.3,3722.05,3709.01,3723.14,3689.33,3680.17,3701.59,3709.94,3736.91,3757.57,3795.88,3845.12,3961,4069.31,4159.67,4215.21,4261.64,4294.72,4332.93,4349.23,4357.86,4360.16,4362.55,4362.73,4363.28,4362.77,4359.77,4354.81,4348.83,4339.81,4330.68,4318.82,4305.39,4285.91,4259.97,4227.57,4183.94,4132.75,4084.46,4021.14,3947.91,3879.91,3798.18,3678.64,3529.21,3419.99,3367.6,3336.79,3304.19,3272.52,3185.75,3027.04,3006.65,2924.66,2880.22,2792.72,2747,2607.05,2448.67,2452.73,2415.06,2369.86,2349.75,2359.63,2382.38,2398.78,2423.16,2472.62,2505.97,2579.87,2662.32,2719.85,2830.65,2929.66,3085.88,3171.29,3339.65,3475.04,3609.69,3703.08,3845.6,3917.3,4014.66,4069.82,4126,4192.26,4279.33,4316.28,4327,4333.02,4335.85,4338.32,4338.54,4336.77,4334.64,4331.87,4326.81,4322.57,4316.16,4307.9,4298.13,4287.39,4272.81,4256.86,4237.98,4215.38,4186.35,4154.45,4119.51,4082.96,4040.63,4001.01,3945.11,3892.52,3816.2,3773.93,3730.53,3707.01,3686.31,3628.64,3587.06,3548.01,3542.12,3563.75,3591.61,3599.97,3646.03,3685.52,3719.57,3762.56,3770.95,3829.25,3839.17,3872.49,3942.76,3999.71,4041.5,4106.97,4159.52,4216.18,4248.99,4287.24,4318.32,4341.67,4365.95,4383.3,4397.9,4408.33,4413.39,4416.42,4419.47,4422.52,4422.06,4419.1,4415.52,4410.98,4407.62,4404.81,4402,4395.8,4388.45,4380.22,4371.08,4361.37,4351.92,4341.53,4330.5,4320.25,4312.07,4301.71,4292.64,4279.78,4260.08,4234.84,4204.74,4169.21,4128.75,4079.14,4020.47,3954.92,3888.53,3819.65,3619.3,2338.51,1002.44,280.775,132.589,473.522,1833.61,1692.04,1746.61,1724.22,1735.97,1727.45,1881.74,2025.05,2046.89,2137.63,2191.4,2215.21,2207.89,2197.05,2189.63,2183.18,2178.65,2176.04,2158.08,2150.27,2128.99,1967.03,2141.51,1670.74,1236.25,450.965,353.973,1835.34,1717.46,1698.45,1710.06,1638.67,1555.39,1468.95,1372.99,1396.42,1758.91,2219.01,2571.75,2929.37,3366.49,3807.74,4173.85,4311.96,4366.54,4381.03,4390.83,4398.13,4403.07,4405.19,4403.66,4399.53,4393.85,4386.37,4376.95,4366.47,4323.76,4312.26,4299.33,4286.31,4270.07,4252.35,4231.25,4208.18,4186.95,4155.87,4126.89,4105.68,4071.22,4054.01,4015.28,3985.73,3980.56,3950.48
3714.59,3678.03,3671.71,3656.69,3611.51,3590.12,3585.55,3573.03,3571.18,3547.77,3560.54,3550.1,3583.49,3629.74,3659.53,3697.77,3698.06,3732.22,3743.87,3758.02,3796.75,3834.83,3874.56,3922.69,3959.45,3995.5,4029.36,4064.15,4096.55,4125.13,4151.24,4172.75,4192.85,4209.67,4222.49,4239.74,4258.54,4263.65,4268.21,4273.45,4277.42,4280.84,4282.93,4285.18,4286.8,4286.46,4284.02,4279.64,4271.25,4258.64,4236.37,4212.77,4172.32,4135.13,4091.56,4047.38,3973.73,3908.59,3800.65,3707.47,3627.42,3546.9,3498.46,3456.11,3407.14,3359.53,3303.91,3262.34,3227.96,3211.76,3128.87,3048.92,2998.59,2929.29,2906.48,3098.12,3303.7,3338.36,3393.13,3435.86,3471.75,3553.28,3628.73,3685.27,3722.57,3791.33,3862.02,3918.75,3960.25,4003.65,4039.52,4086.99,4132.07,4170,4202.79,4233.19,4260.66,4282.59,4300.21,4315.08,4326.1,4344.84,4364.73,4370.53,4375.37,4379.27,4381.02,4382.51,4382.4,4381.52,4379.22,4376.95,4374.28,4369.15,4360.78,4349.16,4332.32,4311.65,4288.31,4260.42,4219.45,4173.49,4155.4,4078.72,4025.28,3931.83,3861.38,3849.92,3789.8,3727.04,3712.89,3692.74,3675.26,3681.92,3678.58,3668.06,3665.92,3718.04,3745.76,3783.05,3810.66,3776.63,3716.17,3764.64,3746.1,3692.88,3698.85,3726.74,3731.13,3730.56,3728.54,3768.28,3852.6,3956.48,4061.91,4181.63,4235.73,4273.65,4310.99,4341.13,4371.11,4379.29,4383.46,4387.29,4388.31,4389.18,4388.6,4385.97,4381.26,4375.62,4367.65,4357.65,4345.69,4332.08,4313.1,4286.92,4254.92,4214.6,4167,4109.88,4036.43,3975.28,3889.51,3805.5,3652.38,3497.45,3422.08,3344.9,3305.16,3233.63,3208.23,3161.19,3003.84,2927.31,2876.06,2802.68,2724.8,2641.77,2528.89,2413.01,2369.86,2380.85,2386.79,2375.52,2401.33,2442.7,2426.84,2452,2488.4,2520.34,2598.98,2687.86,2791.17,2864.27,3011.31,3122.39,3236.47,3372.58,3528.91,3645.05,3762.81,3894.54,3959.82,4060.61,4123.28,4155.44,4258.21,4329.04,4349.57,4359.08,4365.41,4366.81,4368.93,4369.21,4366.87,4365,4361.25,4355.71,4350.47,4344.03,4335.83,4325.72,4312.77,4298.17,4280.9,4260.91,4236.73,4207.2,4173,4138.11,4099.98,4057.86,4011.8,3953.06,3869.59,3823.01,3758.81,3701.42,3681.78,3669.83,3594.66,3559.43,3532.12,3538.71,3588.73,3605.12,3628.2,3691.73,3729.45,3756.39,3792.46,3796.43,3851.76,3882.79,3955.07,3985.44,4041.56,4088.93,4156.76,4211.61,4265.79,4308.26,4344.41,4371.81,4398.51,4419.87,4438.2,4453.66,4464.04,4468.14,4471.52,4475.16,4475.72,4474.06,4469.02,4463.55,4456.15,4450.39,4445.65,4439.95,4432.4,4423.23,4411.86,4401.1,4389.73,4378.01,4365.06,4353.29,4341.67,4330.99,4320.74,4310.82,4297.62,4276.87,4250.04,4218.62,4181.8,4139.81,4088.37,4027.08,3959.13,3889.05,3798.84,3607.54,2655.76,1105.49,381.908,153.925,417.99,1761,1626.97,1779.78,1712.49,1670.86,1708.32,1814.98,1974.26,2031.47,2100.3,2145.55,2211.85,2208.12,2196.61,2188.54,2181.6,2176.73,2173.77,2155.7,2146.34,2137.05,1916.44,2140.62,2059.1,1844.57,265.883,168.494,1567.13,1402.44,1312.97,1353.58,1185.88,1222.92,1315.88,1458.89,1754.52,2463.07,3051.01,3529.15,3928.01,4192.68,4320.93,4367.84,4396.39,4406.63,4414.9,4420.43,4423.47,4425.26,4424.85,4421.16,4414.71,4406.8,4398.01,4386.57,4375.62,4359.16,4328.81,4316.7,4302.56,4286.46,4269.23,4249.67,4226.74,4197.98,4163.96,4145.59,4120.41,4090.48,4076.59,4052.18,4035.42,4015.6,4001.96
