2559.58,2557.72,2551.85,2565.27,2560.67,2553.78,2547.84,2546.16,2538.57,2531.06,2509.33,2499.61,2493.49,2488.41,2481.57,2482.55,2478.82,2475.43,2489.8,2483.99,2476,2481.47,2482.29,2477.25,2472.52,2480.61,2480.95,2481.66,2481.57,2481.21,2482.5,2474.84,2470.81,2469.56,2471.26,2474.87,2493.25,2497.97,2506.22,2507.75,2517.43,2520.89,2521.8,2517.01,2511.15,2506.22,2502.85,2503.04,2498.38,2498.59,2494.84,2489.44,2488.52,2488.05,2492.76,2498.89,2501.72,2503.48,2501.03,2506.27,2508.38,2510.05,2515.65,2517.8,2512.74,2504.78,2506.62,2507.18,2512.5,2508.67,2512.85,2507.86,2511.09,2512.3,2520.08,2521.53,2528.02,2527.87,2533.82,2544.39,2544.64,2539.21,2534.36,2522,2520.29,2520.93,2528.55,2532.04,2530.75,2533.65,2533.63,2534.04,2535.9,2537.79,2536.91,2536.47,2536.04,2535.95,2537.54,2540.82,2542.56,2544.03,2549.07,2551.57,2556.07,2561.51,2566.38,2569.23,2569.99,2572.16,2573.6,2574.31,2572.14,2571.36,2570,2568.49,2567.42,2566.91,2565.69,2563.57,2561.24,2559.25,2557.36,2556.24,2553.89,2551.49,2549,2546.49,2545.66,2544.72,2543.83,2542.26,2540.2,2539.11,2537.93,2537.17,2537.18,2537.39,2539.9,2540.09,2541.05,2543.3,2544.69,2546.87,2548.09,2549.08,2549.27,2548.37,2548.46,2548.27,2546.75,2546.64,2545.28,2544.81,2543.62,2543.74,2543.85,2545.17,2545.27,2545.45,2544.6,2542.7,2543.2,2541.49,2539.6,2538.59,2536.5,2536.22,2536.45,2537.87,2540.96,2541.4,2542.69,2544.29,2545.62,2546.9,2547.27,2547,2547.85,2547.84,2547.95,2548.7,2549.65,2551.99,2554.14,2555.74,2556.39,2556.48,2556.51,2557.48,2558.34,2558.99,2557.42,2556.03,2556.05,2557.45,2557.82,2557.28,2557.05,2557.22,2556.49,2557.5,2560.09,2560.59,2560.01,2560.11,2561.01,2561.83,2562.68,2563.99,2563.95,2562.07,2561.44,2560.71,2558.52,2555.88,2551.98,2546.9,2540.37,2533.2,2527.24,2522.75,2520.54,2518.66,2518.41,2519.32,2523,2528.74,2535.31,2541.51,2545.93,2549.74,2553.54,2556.68,2559.48,2560.67,2561.32,2562.97,2562.38,2560.33,2559.19,2551.54,2548.8,2551.51,2549.46,2539.29,2545.02,2543.88,2544.49,2543.46,2543.84,2544.26,2544.16,2545,2540.6,2540.73,2544.32,2542.89,2540.83,2540.86,2540.21,2539.12,2537.62,2537.47,2536.88,2537.06,2538.56,2541.08,2538.01,2527.07,2529.63,2545.09,2542.78,2545.17,2551.59,2557.36,2557.95,2556.95,2555.7,2553.89,2551.7,2545.43,2548.23,2547.98,2547.65,2547.95,2549.25,2550.25,2552.36,2550.81,2556.74,2557.51,2557.36,2558.37,2559.93,2560.16,2560.26,2559.53,2558.6,2558.4,2554.11,2549.67,2554.55,2548.5,2549.51,2547.24,2546.23,2545.29,2544.08,2543.59,2543.06,2542.83,2542.94,2542.47,2542.56,2543.89,2544.92,2545.58,2546.86,2547.71,2549.19,2551.02,2554.2,2556.95,2558.72,2561.46,2564.25,2566.62,2569.17,2570.65,2571.81,2572.44,2572.29,2571.11,2569.91,2568.42,2566.94,2565.18,2564.48,2562.93,2561.2,2559.96,2560.31,2560.91,2561.67,2561.91,2561.95,2561.84,2562.08,2563.03,2564.12,2564.18,2562.58,2561.84,2561.43,2561.14,2560.76,2560.72,2560.32,2559.42,2559.01,2559.29,2559.14,2558.12,2556.87,2554.96,2551.86,2548.03,2544.37,2539.9,2535.03,2529.83,2525.24,2522.2,2519.45,2518.03,2517.5,2517.91,2518.73,2519.97,2521.83,2524.29,2526.22,2528.21,2529.29,2529.47,2528.96,2528.35,2526.99,2525.24,2522.38,2519.7,2517.94,2516.4,2515.28,2514.75,2515.18,2516.81,2519.65,2522.63,2525.08,2527.34,2529.1,2530.98,2532.55,2533.44,2533.93,2533.52,2533.58,2534.08,2534.28,2534.41,2534.27,2534.08,2534.25,2534.62,2534.72,2535.31,2535.54
2539.12,2534.49,2539.4,2534.77,2538.2,2537.09,2532.43,2523.49,2520.32,2512.84,2504.96,2480.04,2469.14,2462.18,2460.19,2455.72,2446.95,2442.22,2439.61,2447.78,2437.59,2435.71,2440.75,2427.22,2441.33,2441,2444.62,2442.37,2443.04,2437.23,2436.55,2439.81,2440.33,2443.5,2447.14,2459.53,2468.77,2476.54,2481.05,2482.25,2489.68,2493.2,2496.73,2490.1,2482.72,2479.69,2479.6,2474.56,2475.91,2477.52,2475.1,2473.25,2477.24,2479.7,2483.74,2481.03,2483.06,2483.26,2479.03,2479.11,2480.07,2484.04,2485.96,2487.31,2488.84,2485.2,2479.05,2488.4,2489.61,2490.63,2491.42,2485.52,2489.42,2494.29,2497.08,2507.35,2510.86,2514.05,2522.53,2524.02,2523.71,2520.42,2514.46,2502.37,2493.95,2493.76,2492.28,2498.97,2504.73,2507.45,2506.97,2508.12,2510.32,2512.26,2511.56,2510.89,2510.03,2509.83,2511.72,2514.82,2516.12,2517.77,2522.84,2525.4,2530.75,2537.06,2543.08,2546.56,2548.17,2551,2552.44,2553.42,2551.24,2550.15,2548.62,2546.52,2545.63,2545.09,2543.95,2541.21,2538.7,2536.01,2533.72,2532.27,2529.64,2527.03,2523.14,2520.44,2519.32,2517.9,2516.81,2515.49,2513.52,2512.49,2511.39,2510.48,2509.77,2510.41,2512.1,2512.12,2512.3,2513.37,2514.97,2518.01,2519.63,2520.96,2521.98,2521.49,2522.42,2523.1,2522.61,2522.65,2521.49,2521.31,2521.41,2521.6,2521.63,2522.22,2522.31,2522.17,2520.2,2517.33,2517.04,2514.66,2512.52,2511.16,2509.26,2509.07,2509.25,2511.34,2515.17,2515.73,2517.48,2519.48,2521.16,2522.96,2523.79,2523.65,2525.02,2525.94,2525.86,2526.7,2527.63,2530.29,2532.76,2534.83,2536.13,2536.04,2535.86,2536.82,2537.82,2538.08,2536.12,2533.64,2533.01,2533.54,2533.73,2532.67,2532.37,2532.02,2531.16,2532.18,2534.59,2534.86,2533.84,2533.62,2534.18,2534.47,2534.76,2535.86,2535.36,2533.48,2532.16,2531.39,2529.62,2527.06,2523.45,2518.69,2512.15,2504.88,2498.76,2494.6,2493.01,2491.46,2491.72,2492.75,2496.82,2503.04,2510.48,2517.47,2522.81,2527.31,2531.34,2535.08,2538.3,2539.59,2539.68,2540.94,2539.83,2537.14,2535.16,2531.78,2528.47,2526.06,2523.79,2522.28,2519.82,2519.31,2520.11,2519.61,2520.5,2520.77,2520.92,2521.87,2521.89,2521.95,2521.42,2519.69,2517.87,2517.78,2516.96,2515.89,2514.2,2513.76,2513.11,2513.6,2515.92,2518.38,2516.19,2506,2513.26,2524.76,2527.64,2530.58,2537.13,2538.6,2538.95,2537.59,2536.24,2533.64,2530.91,2527.77,2526.1,2525.73,2525.79,2525.79,2527.42,2528.61,2531.02,2533.63,2536.1,2536.92,2536.95,2537.86,2539.32,2539.32,2535.32,2538.13,2536.92,2536.69,2535.13,2530.05,2530.89,2527.96,2525.48,2523.33,2522,2520.65,2519.2,2518.76,2518.12,2517.75,2517.86,2517.34,2517.54,2519.05,2519.61,2520.01,2520.53,2521.17,2522.4,2524.02,2527.09,2529.91,2531.46,2534.7,2537.9,2540.91,2544.18,2546.31,2548.35,2549.79,2550.45,2547.32,2549.4,2548.26,2546.83,2544.82,2543.7,2542.33,2539.55,2537.93,2537.49,2537.42,2537.7,2537.72,2537.78,2537.21,2537.57,2538.65,2540.23,2540.29,2538.51,2537.37,2536.85,2536.46,2536.23,2535.79,2535.41,2534.27,2533.87,2534.61,2534.75,2534.18,2533.05,2531.42,2528.5,2525.14,2521.56,2516.85,2511.82,2506.23,2501.58,2497.85,2494.83,2493.47,2492.86,2492.94,2493.71,2495.08,2497.17,2500.23,2502.65,2505.16,2506.74,2507.62,2507.85,2507.74,2506.51,2504.68,2501.69,2499.15,2496.65,2494.67,2493.08,2491.96,2491.97,2493.4,2496.04,2498.96,2501.81,2504.44,2506.72,2508.92,2510.86,2512.54,2513.45,2513.56,2514.42,2515.42,2516.28,2516.81,2517.31,2517.18,2517.27,2517.66,2518.03,2518.49,2518.5
2520.71,2515.83,2516.41,2511.03,2514.32,2514.3,2509.5,2504.63,2494.18,2490.01,2482.03,2470.96,2455.43,2440.63,2433.69,2426.87,2423.08,2417.99,2414.37,2410.62,2413.98,2404.21,2401.88,2412.36,2401.78,2401.3,2395.82,2404.72,2405.75,2408.73,2412.19,2413.31,2423.61,2427.26,2431.17,2438.15,2445.31,2450.31,2454.02,2458.31,2462.58,2466.15,2469.69,2472.63,2463.72,2456.86,2458.35,2461.28,2458.08,2460.78,2459.12,2457.67,2466.22,2463.97,2467.58,2468.41,2463.94,2462.22,2456.6,2455.23,2454.44,2453.62,2461.29,2461.72,2461.8,2462.11,2453.35,2455.76,2454.75,2462.69,2467.51,2467.99,2472.09,2476.79,2487.71,2490.66,2492.32,2493.48,2501.83,2503.21,2502.78,2499.3,2492.87,2478.74,2473.13,2472.63,2470.77,2468.45,2478.92,2485.54,2485.1,2486.38,2488.98,2491.1,2490.44,2489.93,2488.96,2487.79,2488.81,2491.55,2492.42,2493.56,2498.52,2501.31,2506.45,2513.04,2519.79,2524.03,2526.51,2529.49,2531.3,2532.65,2530.32,2529.1,2527.85,2525.94,2524.43,2524.28,2523.22,2520.01,2517.19,2513.72,2510.97,2509.47,2507.06,2504.41,2500.06,2497.23,2495.97,2494.48,2493.21,2492.14,2490.03,2488.81,2487.9,2486.86,2485.16,2485.32,2486.81,2486.41,2485.91,2486.29,2487.9,2490.8,2492.67,2494.76,2496.2,2496.78,2498.26,2499.87,2500.45,2500.67,2499.94,2500.32,2501.25,2501.77,2501.25,2501.14,2500.42,2499.62,2497.14,2493.34,2492.53,2489.8,2487.06,2485.61,2484.4,2484.59,2485.14,2487.55,2491.36,2492.38,2494,2496.34,2498.46,2500.52,2501.59,2501.66,2502.3,2505.09,2505.03,2505.31,2506.27,2509.3,2511.96,2514.55,2516.19,2517.03,2515.59,2516.74,2517.98,2518.06,2516.03,2513.38,2512.14,2512.46,2512.08,2510.52,2509.28,2509,2508.93,2509.54,2511.17,2510.98,2509.49,2508.76,2508.82,2509.28,2509.72,2508.95,2508.5,2506.5,2505.44,2504.65,2503.16,2501.37,2498.49,2494.05,2488.29,2481.37,2475.79,2471.97,2470.18,2469,2469.1,2470.13,2473.93,2480.34,2488.17,2495.33,2501.29,2505.98,2510.22,2513.79,2517.44,2519,2519.21,2520.09,2518.85,2515.77,2513.33,2509.44,2505.67,2503,2500.33,2498.55,2496.71,2496.21,2497.35,2497.29,2498.63,2499.38,2499.94,2500.75,2500.81,2500.94,2499.8,2498.12,2496.09,2495.98,2495.01,2493.91,2492.24,2491.29,2490.43,2491.38,2493.64,2496.76,2494.73,2493.69,2492.64,2504.37,2507.74,2515.43,2517.59,2518.78,2518.88,2517.51,2515.93,2513.43,2510.61,2507.43,2505.28,2504.84,2504.6,2504.89,2506.39,2507.49,2509.93,2513.17,2515.43,2516.91,2517.1,2518.22,2519.67,2519.33,2519.08,2514.19,2516.32,2515.65,2513.95,2508.25,2508.48,2504.82,2502.22,2499.48,2498.08,2496.81,2495,2494.56,2494.18,2493.92,2493.64,2493.47,2493.72,2494.87,2495.54,2495.77,2496.02,2496.08,2497.05,2498.3,2501.05,2502.82,2504.68,2507.87,2511.51,2515.19,2519.08,2522.11,2524.74,2527.04,2528.59,2528.75,2528.48,2527.55,2525.89,2523.78,2522.35,2520.37,2517.03,2514.64,2513.24,2512.51,2512.56,2512.26,2511.95,2511.22,2511.39,2512.38,2513.96,2514.32,2512.42,2511.17,2510.77,2510.41,2509.97,2509.33,2508.75,2507.31,2506.61,2507.81,2508.21,2507.56,2506.68,2505.19,2502.44,2499.22,2495.94,2491.77,2486.66,2480.9,2475.98,2472.44,2469.55,2468,2467.53,2467.37,2468.13,2469.25,2471.87,2474.88,2477.65,2480.28,2482.32,2483.59,2484.61,2484.76,2484.05,2482.51,2479.83,2476.87,2474.57,2472.09,2470.24,2468.93,2468.54,2469.81,2472.35,2475,2477.69,2480.5,2482.83,2485.48,2487.67,2489.57,2490.87,2492,2493.34,2495.07,2496.42,2497.95,2498.6,2498.69,2498.94,2499.58,2500.05,2500.42,2500.33
2500.83,2498.21,2491.26,2488.06,2484.54,2484.41,2483.57,2478.77,2479.01,2471.61,2449.88,2448.78,2446.93,2420.54,2407.95,2400.38,2396.45,2392.79,2384.27,2382.15,2378.55,2377.81,2372.19,2369.3,2370.85,2368.09,2372.87,2375.36,2374.06,2381.56,2392.96,2396.7,2398.34,2402.29,2409.18,2413.22,2416.7,2421.49,2425.25,2429.78,2434.35,2438.67,2443.2,2444.12,2443.9,2437.68,2435.94,2440.34,2438.59,2442.3,2441.86,2440.77,2448.48,2450.77,2450.23,2449.58,2443.16,2439.83,2432.68,2429.68,2427.62,2426.16,2426.69,2433.13,2433.1,2433.21,2433.73,2432.64,2427.48,2430.17,2438.69,2449.83,2454.74,2462.75,2467.24,2471.06,2473.44,2477.05,2481.22,2483.14,2482.79,2479.08,2471.67,2459.9,2452.1,2451.28,2448.96,2442.89,2448.15,2463.37,2462.59,2463.99,2466.92,2469.5,2469.27,2468.98,2468.24,2466.92,2467.62,2469.88,2470.06,2470.73,2475.14,2477.69,2482.78,2488.8,2495.46,2500.33,2503.46,2507.04,2509.34,2511.13,2508.88,2508.27,2507.18,2505.16,2503.44,2503.42,2502.35,2499.13,2496.05,2492.65,2489.95,2488.35,2485.92,2483.02,2479.3,2476.43,2474.93,2473.44,2472.33,2470.92,2468.76,2467.94,2467.23,2465.43,2463.24,2463.18,2464.17,2463.39,2462.4,2462.49,2464.44,2466.96,2469.12,2471.93,2474.53,2475.39,2477.23,2479.56,2480.91,2481.04,2480.9,2481.52,2482.41,2483,2482.35,2481.75,2480.44,2479.1,2476.36,2472.12,2470.88,2468.14,2465.05,2463.64,2463.12,2463.42,2464,2466.15,2470.34,2471.02,2472.9,2474.95,2476.74,2478.87,2479.87,2479.96,2480.79,2482.53,2482.41,2482.75,2483.8,2486.86,2489.61,2492.29,2494.65,2496.32,2496.06,2497.91,2499.52,2499.94,2497.89,2495.08,2493.84,2493.44,2492.62,2490.42,2488.65,2487.25,2486.38,2486.07,2487.45,2486.32,2484.59,2483.6,2483.31,2483.64,2484.21,2483.74,2483.58,2481.71,2480.4,2479.82,2478.85,2477.83,2475.6,2471.67,2466.11,2459.51,2454.9,2451.47,2449.97,2448.87,2448.86,2450.09,2453.41,2460.28,2468.44,2475.07,2481.12,2485.88,2490.03,2493.88,2497.31,2499.12,2499.71,2500.51,2498.87,2495.58,2492.68,2488.71,2484.58,2481.9,2478.99,2477.31,2475,2474.96,2476.38,2476.68,2478.23,2479.58,2480.57,2481.61,2481.65,2481.86,2480.68,2479.06,2477.2,2477.06,2475.75,2474.29,2472.54,2470.93,2469.43,2470.28,2472.46,2471.26,2469.32,2468.18,2471.25,2483,2490.6,2493.93,2496,2496.86,2496.75,2494.93,2494,2491.45,2488.52,2485.83,2483.85,2483.33,2482.93,2483.18,2484.94,2485.57,2488.04,2490.82,2493.28,2494.81,2495.2,2496.58,2497.92,2497.41,2497.47,2492.96,2494.41,2493.19,2491.28,2489.15,2485.76,2482.06,2479.19,2475.99,2474.3,2472.9,2471.57,2470.94,2470.34,2470.04,2469.97,2469.99,2470.58,2471.88,2472.55,2472.25,2472.53,2472.54,2473.36,2474.44,2476.31,2478.4,2479.81,2483.08,2486.52,2490.42,2495.01,2498.39,2501.94,2504.8,2507.13,2507.96,2507.82,2507.4,2505.62,2503,2501.57,2499.38,2495.39,2492.2,2490.07,2488.71,2488.27,2487.66,2486.7,2485.87,2486.02,2487.2,2488.83,2489.16,2487.57,2486.34,2485.87,2485.62,2485.15,2484.68,2483.91,2482.42,2481.54,2482.29,2482.4,2481.69,2480.76,2479.11,2476.49,2473.83,2470.88,2466.51,2461.63,2456.44,2451.56,2448.32,2445.34,2444.14,2443.08,2442.94,2443.63,2444.81,2446.98,2449.93,2452.61,2455.35,2457.61,2459.04,2460.27,2460.99,2460.7,2459.43,2457.05,2454.54,2451.82,2449.21,2447.4,2445.71,2445.17,2446.03,2448.14,2450.98,2453.44,2456.35,2458.92,2461.81,2464.27,2466.2,2468.04,2469.34,2471.4,2474.19,2475.97,2477.83,2479.03,2479.28,2479.72,2480.45,2480.76,2480.71,2480.39
2478.97,2472.3,2467.21,2464.49,2460.14,2456.46,2448.56,2446.59,2454.51,2446.93,2432.17,2424.82,2422.51,2411.88,2397.74,2376.79,2378.29,2368.29,2361.75,2356.58,2349.88,2351.34,2347.77,2342.1,2343.14,2346.32,2343.29,2354.35,2355.85,2360.25,2363.69,2367.79,2372.36,2376.43,2380.41,2384.37,2387.12,2391.94,2396.51,2401.32,2406.37,2411.3,2415.86,2419.41,2416.64,2409.12,2411.03,2416.91,2411.87,2420.72,2420.28,2419.27,2427.07,2429.53,2427.92,2426.06,2417.64,2413.35,2405.36,2401.97,2399.39,2398.23,2398.18,2397.77,2403.16,2402.46,2397.68,2400.55,2404.03,2409.46,2415.32,2422.65,2428.82,2437.64,2443.57,2448.14,2450.84,2454.64,2459.22,2461.58,2461.27,2457.8,2453.02,2446.04,2435.38,2432.25,2427.5,2421.67,2418.9,2434.13,2436.64,2437.49,2444.79,2447.03,2447.33,2447.26,2447.25,2445.91,2445.73,2447.06,2447.2,2447.87,2452.09,2453.88,2458.23,2463.51,2470.05,2475.83,2479.47,2483.39,2485.9,2488.55,2486.48,2486.33,2485.61,2483.9,2482.27,2482.4,2480.98,2477.73,2474.67,2471.45,2468.62,2466.67,2464.44,2462.22,2458.27,2455,2453.6,2452.11,2450.67,2449.31,2447.14,2446.77,2446.12,2444.14,2441.94,2441.74,2442.5,2441.64,2440.7,2440.77,2442.7,2444.96,2448,2451.47,2454.3,2455.41,2457.74,2460.02,2461.82,2462.33,2462.43,2463.37,2464.88,2465.51,2464.59,2463.47,2461.98,2460.24,2457.52,2453.1,2451.59,2448.54,2445.57,2444.64,2444.32,2444.95,2445.52,2447.42,2450.66,2451.4,2452.86,2454.4,2455.72,2457.56,2458.75,2458.58,2459.13,2460.38,2460.3,2460.32,2461.48,2464.41,2467.3,2469.72,2472.39,2474.64,2474.93,2476.67,2478.65,2479.15,2476.92,2474.31,2473.03,2472.57,2471.42,2469.25,2467.13,2465.3,2463.94,2463.31,2464.36,2463.24,2461.39,2460.13,2459.65,2459.95,2460.56,2460.6,2460.52,2458.54,2457.33,2456.93,2456.41,2455.85,2453.76,2450.62,2440.74,2439.56,2435.98,2433.05,2431.61,2430.85,2430.75,2431.58,2435.07,2441.98,2449.78,2455.36,2461.24,2466.01,2469.29,2472.91,2476.22,2477.79,2478.22,2465.89,2468.77,2465.48,2462.75,2450.17,2459.39,2456.41,2458.26,2456.51,2454.49,2454.85,2456.52,2457.42,2459.13,2456.51,2462.31,2463.65,2463.79,2463.87,2463.16,2461.89,2460.27,2459.99,2458.36,2456.75,2454.7,2452.61,2450.66,2450.6,2452.11,2454.15,2443.71,2437.98,2440.66,2464.79,2468.13,2471.61,2473.56,2474.59,2474.27,2472.47,2471.15,2468.96,2466.25,2464.05,2462.41,2461.94,2461.3,2461.51,2463.41,2463.79,2465.71,2464.34,2470.85,2472.42,2472.55,2474.11,2475.05,2474.6,2474.67,2470.46,2472.12,2470.99,2469.16,2463.43,2463.58,2453.52,2457.31,2453.78,2451.62,2450.12,2448.8,2447.82,2447.43,2446.89,2446.76,2446.87,2448.08,2449.48,2450.15,2450.44,2450.58,2446.91,2451.06,2451.78,2453.38,2455.02,2455.96,2459.33,2462.59,2466.92,2471.31,2474.72,2478.17,2481.82,2484.12,2485.62,2485.66,2485.41,2481.13,2481.26,2479.56,2477.03,2473.12,2469.6,2466.8,2464.97,2464.25,2462.9,2461.78,2460.92,2460.82,2462.25,2463.84,2464.65,2463.62,2462.51,2462.28,2462.48,2462.03,2461.77,2460.83,2459.54,2458.56,2459.05,2458.64,2457.77,2456.49,2454.92,2452.42,2449.55,2446.78,2442.84,2437.81,2432.91,2428.63,2425.56,2422.89,2421.19,2420.46,2420.37,2421.03,2422.2,2424.01,2426.64,2429.08,2431.42,2433.68,2435.33,2436.55,2437.53,2437.63,2436.86,2434.67,2432.2,2429.56,2427.08,2424.89,2423.33,2422.28,2422.98,2424.58,2427.09,2429.59,2432.52,2435.09,2438.03,2440.82,2442.97,2445.06,2446.49,2449,2451.98,2454.73,2456.56,2458.21,2458.81,2459.43,2459.88,2460.16,2460,2459.49
2453.64,2447.32,2444.33,2438.68,2437.3,2433.24,2428.45,2423.45,2420.08,2417.45,2413.82,2402.69,2397.19,2386.63,2365.55,2365.74,2349.07,2342.69,2343.79,2335.62,2326.22,2324.47,2321.32,2316.72,2313.44,2319.41,2326.7,2331.68,2333.36,2335.06,2337.97,2341.63,2345.5,2349,2352.15,2356.12,2359.01,2363.53,2367.6,2372.43,2377.06,2381.94,2386.76,2388.04,2385.84,2384.16,2386.72,2393.7,2390.22,2395.3,2399.6,2398.42,2401.24,2403.19,2405.7,2402.26,2392.1,2381.64,2377.88,2374.04,2371.42,2369.48,2368.98,2371.09,2373.51,2369.66,2368.39,2374.19,2374.76,2386.11,2389.9,2394.95,2400.89,2409.57,2415.4,2420.28,2422.94,2426.77,2430.57,2432.87,2432.67,2429.75,2425.36,2418.28,2413.75,2408.37,2404.25,2399.14,2393.69,2395.93,2407.59,2421.25,2425.13,2427.77,2428.52,2428.18,2427.8,2426.07,2425.28,2426.11,2424.16,2423.34,2425.73,2427.88,2432.1,2437.52,2444.22,2450.09,2454.29,2458.46,2461.58,2460.41,2462.25,2462.51,2462.31,2460.73,2459.37,2459.69,2458.31,2455.3,2451.82,2448.82,2446.19,2444.37,2442.42,2440.04,2436.11,2433.25,2431.74,2430.25,2429.06,2428.01,2426.09,2425.46,2425.18,2423.25,2421.23,2421.07,2421.59,2420.47,2419.67,2419.75,2421.68,2424.03,2427.15,2431.05,2434.22,2435.24,2437.88,2440.15,2442.35,2443.12,2443.61,2444.89,2446.45,2447.12,2446.22,2444.82,2443.15,2441.36,2438.61,2434.78,2433.05,2430.04,2427.81,2427.25,2427.25,2428.31,2428.42,2430.43,2432.75,2433.34,2434.45,2435.16,2436.07,2437.41,2438.43,2438.16,2438.24,2438.86,2438.68,2438.54,2439.3,2441.96,2444.36,2446.66,2449.04,2451.29,2452.04,2453.73,2455.42,2455.84,2453.95,2451.77,2450.59,2450.07,2448.94,2446.9,2445.06,2443.21,2441.67,2441.26,2442.07,2441.07,2439.42,2438.44,2438.24,2438.5,2439.05,2439.37,2439.03,2437.41,2436.67,2436.34,2435.91,2435.75,2434.05,2426.85,2426.59,2421.4,2418.46,2415.54,2414.15,2413.89,2413.74,2414.18,2417.56,2423.88,2431.23,2436.5,2441.85,2445.82,2448.37,2451.33,2454.7,2456.09,2443.36,2443.52,2446.77,2443.21,2432.07,2441.42,2437.97,2439.31,2437.04,2436.06,2434.18,2434.89,2437.33,2438.7,2440.72,2442.89,2444.96,2446.62,2446.86,2447.17,2446.73,2445.81,2444.39,2444.05,2441.97,2440.45,2438.46,2435.82,2433.09,2432.65,2433.23,2434.66,2423.53,2417.78,2428.3,2443.18,2446.28,2449.91,2451.58,2452.32,2452.13,2450.42,2449.31,2447.12,2444.49,2442.8,2441.47,2441.29,2440.87,2440.85,2442.84,2443.22,2444.61,2446.81,2448.95,2450.15,2450.24,2451.5,2452.47,2451.51,2451.78,2447.82,2449.43,2448.44,2446.76,2441.02,2441.44,2434.68,2434.95,2431.59,2429.35,2427.79,2426.03,2425.07,2424.43,2424.1,2423.97,2424.47,2425.56,2427.23,2428.03,2428.9,2429.16,2428.9,2429.32,2429.72,2430.89,2432.38,2433.27,2435.98,2438.95,2442.99,2447.59,2450.92,2454.23,2457.69,2460.27,2462.11,2462.55,2462.39,2460.81,2455.86,2456.6,2454.27,2450.2,2446.64,2443.43,2441.02,2439.78,2437.99,2436.68,2435.68,2435.62,2436.92,2438.8,2440.05,2439.74,2439.18,2439.56,2439.88,2439.84,2439.63,2439.21,2437.86,2436.82,2436.66,2436.38,2435.38,2434.09,2432.25,2429.76,2427.21,2424.38,2420.38,2415.87,2410.96,2407.19,2404.3,2401.95,2400.54,2399.78,2399.44,2400.05,2401.12,2402.95,2405.3,2407.36,2409.73,2411.86,2413.25,2414.63,2415.59,2416.03,2415.57,2413.71,2411.34,2408.99,2406.34,2404.31,2402.36,2401.08,2401.27,2402.78,2404.75,2406.78,2409.19,2411.83,2414.58,2417.33,2419.77,2421.89,2423.58,2426.23,2429.64,2432.56,2435.29,2437.03,2437.88,2438.49,2439.17,2439.36,2438.87,2437.95
2425.67,2420.5,2414.48,2411.71,2409.85,2405.43,2401.23,2396.86,2383.81,2374.18,2370.85,2374.09,2372.07,2358.92,2339.02,2339.03,2334.7,2325.26,2321.56,2316.37,2312.14,2303.38,2300.8,2302.18,2302.5,2303.29,2309.79,2311.61,2312.82,2314.33,2316.68,2318.97,2321.28,2323.58,2326.15,2329.92,2332.5,2336.28,2339.67,2343.65,2348.41,2353.45,2355.76,2357.56,2356.12,2354.61,2360.83,2366.63,2367.46,2371.74,2372.61,2375.61,2377.92,2379.29,2381.42,2373.59,2361.62,2354.89,2350.3,2346.7,2343.83,2341.41,2343.2,2341.92,2334.17,2334.85,2336.59,2344.43,2350.63,2356.99,2361.49,2366.28,2371.89,2379.47,2385.27,2389.36,2392.39,2396.48,2400.17,2401.99,2402.1,2399.72,2396.06,2390.12,2383.56,2375.95,2377.31,2371.49,2366.54,2365.13,2384.08,2397.8,2401.53,2404.07,2404.4,2403.97,2403.27,2401.12,2399.92,2400.63,2397.26,2396.1,2395.27,2397.5,2401.55,2406.72,2413.51,2419.82,2424.25,2428.72,2432.09,2435.06,2436.93,2437.24,2437.14,2435.73,2434.33,2434.32,2432.36,2429.94,2426.93,2424.07,2422.6,2420.96,2419.4,2417.39,2414.17,2411.68,2410.25,2408.89,2407.69,2406.96,2405.3,2404.63,2404.29,2402.07,2400.3,2400.54,2400.73,2399.7,2398.93,2398.57,2400.8,2403.43,2406.68,2410.45,2413.33,2414.35,2417.41,2419.93,2422.15,2423.04,2423.87,2425.26,2427.54,2428.79,2427.86,2426.33,2424.34,2422.53,2419.86,2416.81,2415.16,2412.59,2410.49,2410.65,2411.59,2412.57,2412.65,2414.09,2415.95,2416.54,2417.21,2417.37,2417.42,2418.33,2418.94,2418.4,2417.95,2418.43,2417.71,2416.67,2416.82,2418.99,2420.8,2422.72,2424.55,2426.68,2427.25,2428.83,2430.58,2430.98,2429.46,2427.73,2426.87,2426.3,2425.46,2423.99,2422.64,2421.13,2419.66,2419.7,2420.64,2419.74,2418.63,2418.34,2418.13,2418.34,2419.16,2419.49,2419.03,2417.58,2416.99,2416.55,2416.57,2416.37,2415.03,2412.7,2408.88,2405.03,2402.06,2400.07,2398.54,2398.05,2397.87,2397.83,2400.84,2405.76,2412.17,2416.46,2421.12,2424.69,2426.88,2429.36,2432.29,2411.68,2420.35,2416.36,2419.74,2403.79,2422.75,2419.45,2420.55,2417.88,2416.17,2415.54,2414.46,2415.66,2414.16,2416.61,2423.63,2426.18,2428.6,2430.41,2431.08,2431.64,2431.45,2430.83,2429.23,2428.64,2426.83,2425.11,2423.37,2420.11,2412.21,2415.54,2415.55,2416.24,2404.49,2397.8,2407.85,2422.13,2425.05,2428.28,2429.95,2430.42,2430.18,2428.4,2427.44,2425.63,2423.37,2421.58,2420.56,2420.86,2420.58,2420.3,2422.52,2422.73,2423.95,2421.91,2427.34,2428.66,2428.19,2429.01,2430.01,2429.08,2429.28,2425.53,2427.72,2426.59,2418.54,2416.4,2420.23,2410.04,2413.57,2410.45,2408.36,2406.47,2404.73,2403.27,2402.76,2402.39,2402.73,2403.45,2404.45,2406.16,2407.68,2408.78,2409.19,2408.91,2409.33,2409.52,2410.11,2411.07,2411.84,2413.6,2415.92,2419.69,2423.83,2426.64,2429.69,2433.26,2435.65,2434.52,2438.1,2438.33,2436.94,2434.58,2432.95,2430.35,2426.54,2422.59,2419.36,2416.43,2414.78,2412.84,2411.29,2410.42,2410.25,2411.48,2413.11,2414.87,2414.98,2415.1,2416.22,2416.93,2417.27,2417.44,2416.87,2415.83,2415.05,2414.58,2414.19,2413.12,2411.49,2409.77,2407.26,2404.93,2402.33,2398.63,2394.55,2389.86,2386.78,2384.3,2382.26,2381.34,2380.62,2380.23,2380.81,2381.66,2383.6,2385.75,2387.55,2389.32,2391.51,2392.81,2394.09,2394.98,2395.36,2394.9,2393.33,2391.41,2389.08,2386.36,2384.44,2382.6,2381.45,2381.38,2382.53,2383.96,2385.64,2387.8,2390.35,2392.72,2395.29,2397.76,2400.03,2402.17,2405.03,2408.47,2411.77,2414.55,2416.59,2417.74,2418.64,2418.97,2419.14,2418.62,2417.25
2397.38,2392.91,2388.84,2383.18,2384.5,2380.58,2376.44,2365.81,2356.96,2350.68,2347.21,2344.08,2338.91,2320.78,2316.85,2302.74,2306.91,2306.48,2300.69,2290.82,2286.82,2289.14,2288.02,2287.55,2288.66,2292.64,2293.42,2293.91,2294.78,2295.75,2297.18,2297.63,2298.38,2299.13,2300.85,2304.41,2306.96,2310.11,2312.96,2316.5,2319.09,2323.96,2327.47,2329.3,2333.3,2331.84,2335.94,2342.34,2349.31,2351.24,2348.73,2347.57,2349.92,2351.04,2353.25,2349.5,2337.23,2326.73,2325.77,2325.7,2324.95,2322.08,2320.17,2312.66,2308.83,2306.77,2316,2320.78,2324.16,2330.82,2335.77,2340.07,2344.43,2350.99,2356.06,2359.86,2362.95,2366.17,2368.36,2369.66,2369.14,2367.63,2364.25,2359.09,2353.68,2348.46,2344.12,2345.49,2341.44,2340.69,2360.03,2369.61,2377.34,2378.99,2379.35,2378.7,2377.76,2375.49,2373.89,2374.2,2369.89,2368.62,2367.94,2370.05,2374.09,2378.88,2385.47,2392.1,2396.65,2401.43,2404.98,2407.55,2408.82,2408.94,2408.89,2407.61,2405.71,2405.37,2403.22,2400.65,2398.68,2396.89,2395.46,2394.09,2392.67,2390.94,2388.09,2386.24,2384.81,2383.74,2382.65,2382.4,2381.36,2381.19,2381.45,2379.83,2378.27,2378.53,2378.31,2377.4,2376.42,2375.97,2378.16,2380.48,2383.77,2387.27,2390.41,2391.69,2394.56,2397.13,2400.26,2401.48,2402.45,2404,2407.17,2408.9,2407.87,2406.17,2404.52,2403.35,2401.11,2398.71,2397.75,2395.15,2393.69,2394.82,2396.26,2397.63,2398.04,2399.13,2400.7,2400.5,2400.83,2400.37,2399.94,2400.04,2399.9,2399.33,2398.39,2397.89,2396.82,2395.47,2395.19,2396.5,2397.39,2398.92,2400.58,2402.52,2402.82,2404.17,2405.44,2405.63,2404.75,2403.41,2402.83,2402.69,2401.9,2400.85,2399.88,2398.85,2397.74,2398.28,2399.43,2398.71,2398.42,2398.32,2398.68,2398.88,2399.74,2400.28,2399.65,2398.41,2397.94,2397.94,2398,2398,2397.18,2395.42,2392.18,2388.72,2386.62,2384.7,2383.27,2382.84,2382.04,2381.84,2384.04,2388.22,2393.31,2397.05,2400.39,2403.05,2404.47,2406.87,2391.77,2396.99,2397.14,2392.75,2387.72,2402.23,2399.86,2400.88,2397.96,2395.46,2394.18,2394.07,2393.62,2395.36,2398.79,2402.37,2406.08,2409.57,2412.99,2415.48,2416.8,2417.66,2417.48,2416.79,2414.81,2413.96,2411.86,2409.39,2406.66,2398.4,2394.48,2392.57,2395.73,2395.84,2387.41,2388.9,2398.51,2399.54,2402.05,2404.93,2405.8,2406.15,2405.71,2403.99,2403.13,2401.71,2400.09,2398.66,2397.79,2398.9,2398.98,2399.01,2400.73,2400.93,2401.86,2403.4,2404.6,2405.79,2405.38,2405.67,2407.11,2406.29,2403.06,2403.07,2405.55,2404.65,2400.28,2395,2399.01,2392.19,2392.42,2389.36,2387,2385.25,2383.69,2382.48,2381.61,2380.97,2381.41,2382.73,2384.03,2386.11,2387.69,2388.68,2388.97,2385.62,2386.3,2383.53,2383.73,2387.06,2387.33,2388.95,2393.22,2396.56,2400.11,2402.5,2405.14,2407.81,2410.14,2411.91,2412.75,2413.01,2411.87,2410.12,2408.31,2406.27,2402.66,2399.21,2395.79,2393,2391.11,2388.59,2386.76,2385.74,2385.62,2386.73,2388.32,2390.21,2390.89,2391.47,2392.75,2393.9,2394.69,2395.33,2394.79,2394.01,2393.08,2392.52,2392.06,2390.66,2388.91,2387.03,2384.7,2382.62,2380.05,2376.75,2373.01,2369.05,2366.29,2364.2,2362.72,2361.96,2361.46,2361.42,2361.97,2362.87,2364.61,2366.39,2367.85,2369.35,2370.9,2372.13,2373.01,2373.58,2373.61,2373.19,2371.65,2369.76,2367.63,2365.16,2363.26,2361.55,2360.46,2360.41,2361.2,2362.52,2363.82,2365.8,2368.2,2370.54,2372.95,2375.23,2377.51,2380.14,2383.03,2386.66,2389.83,2393.01,2395.38,2396.49,2397.49,2398.17,2398.47,2397.6,2396.16
2370.51,2367.08,2361.01,2356.84,2356.13,2357.13,2350.11,2339.7,2334.36,2328.52,2323.02,2319.92,2315.68,2306.6,2294.16,2291.81,2283.32,2280.44,2283.17,2278.23,2275.66,2273.86,2273.35,2273.83,2274.91,2277.02,2276.4,2275.84,2276,2276.03,2276.11,2275.54,2274.54,2275,2276.69,2280.1,2282.35,2285.59,2288.29,2292.07,2296.49,2301.79,2305.27,2309.88,2309.45,2306.67,2313.27,2322.39,2323.05,2325.2,2322.66,2325.22,2322.98,2323.88,2325.09,2325.4,2313.74,2299.36,2295.09,2294.5,2297.84,2291.27,2292.75,2288.54,2288.04,2293.59,2296.79,2298.89,2302.64,2307.44,2312.41,2316.16,2319.69,2325.47,2329.51,2332.91,2335.73,2337.76,2338.72,2339.33,2339.21,2338.95,2336.82,2332.89,2328.04,2322.97,2321.97,2321.5,2321.11,2318.26,2328.58,2342.78,2349.49,2354.86,2355.22,2354.55,2353.35,2351.54,2350.25,2350.24,2345.75,2344.39,2344.13,2346.01,2349.49,2353.94,2359.71,2365.92,2370.96,2375.85,2379.02,2380.43,2381.31,2381.46,2381.55,2379.68,2377.43,2376.49,2374.1,2371.42,2370.1,2369,2367.71,2366.37,2365.09,2363.73,2361.39,2360.18,2359.09,2358.68,2357.82,2357.89,2357.49,2357.57,2358.5,2357.17,2355.31,2355.24,2355.08,2354.41,2352.97,2352.27,2354.1,2356,2359.1,2363,2366.32,2367.64,2370.49,2373.02,2376.56,2377.68,2378.68,2380.19,2382.98,2383.94,2382.77,2380.71,2378.26,2376.18,2374.44,2373.11,2372.99,2371.6,2372.06,2374.15,2376.55,2379.1,2380.12,2381.37,2382.31,2381.8,2381.35,2380.32,2379.19,2378.85,2378.08,2377.16,2375.88,2374.74,2373.3,2372.07,2371.95,2372.85,2373.29,2374.4,2375.78,2377.45,2377.99,2379.07,2379.97,2379.63,2378.6,2377.75,2377.5,2377.16,2376.81,2376.18,2375.74,2375.5,2376.06,2377.06,2378.86,2378.49,2378.78,2379.31,2380.05,2380.38,2381.04,2380.74,2380.05,2378.77,2378.67,2378.41,2378.78,2379.04,2378.58,2377.4,2374.92,2371.95,2370.17,2368.65,2367.5,2366.99,2366.07,2364.92,2366.12,2369.44,2373.41,2375.84,2378.41,2379.91,2380.83,2369.23,2375.64,2376.51,2380.65,2359.31,2384.19,2377.74,2379.4,2376.61,2373.63,2371.31,2370.12,2370.49,2367.32,2369.71,2376.77,2381.47,2385.78,2390.06,2394.67,2398.44,2400.76,2402.22,2402.21,2401.72,2399.71,2398.5,2396.1,2392.77,2385.03,2383.84,2374.94,2374.56,2376.36,2375.65,2366.91,2375.55,2376.14,2376.9,2378.8,2381.22,2379.77,2379.39,2378.94,2377.08,2376.38,2375.12,2373.84,2373.12,2372.32,2373.19,2373.71,2373.7,2375.54,2375.46,2376.23,2373.63,2378.49,2379.91,2379.94,2380.55,2381.67,2381.83,2379.09,2382.67,2382.18,2381.26,2377.21,2372.27,2376.62,2366.66,2370.07,2367.2,2364.54,2362.76,2361.6,2360.59,2359.91,2355.68,2360.08,2361.75,2363.01,2364.89,2366.73,2367.59,2361.01,2364.37,2362.3,2359.72,2365.18,2365.8,2365.94,2369.67,2370.98,2373.61,2376.58,2378.24,2380.18,2382.55,2384.37,2385.99,2386.69,2386.83,2385.88,2384.53,2383.41,2381.69,2378.46,2375.47,2372.16,2369.28,2367.21,2364.86,2362.95,2361.5,2360.77,2361.26,2362.85,2364.48,2365.72,2366.27,2367.94,2369.07,2370.28,2371.15,2371.27,2370.62,2369.68,2369.13,2368.78,2367.48,2365.89,2363.75,2361.32,2359.19,2356.96,2354.01,2350.81,2347.51,2345.07,2343.51,2342.51,2342.13,2341.93,2342.16,2342.85,2343.78,2345.11,2346.4,2347.69,2348.7,2349.94,2350.63,2351.06,2350.96,2350.66,2349.33,2347.94,2346.01,2343.88,2341.51,2339.83,2338.43,2337.51,2337.49,2337.91,2338.94,2340.36,2342.31,2344.68,2347.26,2349.54,2352.1,2354.05,2356.69,2360.15,2363.59,2367.22,2370.23,2372.71,2374.27,2375.4,2376.18,2376.51,2375.72,2374.42
2343.63,2341.32,2337.57,2336.58,2336.45,2332.37,2330.54,2320.56,2312.63,2307.55,2302.5,2296.78,2292.59,2284.57,2273.71,2267.64,2277.64,2270.78,2268.93,2264.58,2261.92,2260.62,2260.33,2259.9,2259.7,2260.45,2258.45,2256.56,2255.55,2254.63,2253.43,2252.17,2250.67,2250.58,2251.83,2255.31,2257.55,2260.99,2264.19,2268.26,2273.02,2278.86,2280.28,2288.41,2293.65,2296.64,2296.28,2302.71,2303.43,2308.64,2305.96,2304.43,2301.72,2298.31,2306.05,2301.88,2290.6,2280.29,2273.14,2272.29,2272,2270.34,2274.74,2273.21,2275.3,2275.98,2276.94,2281.36,2285.24,2290.31,2294.63,2297.49,2300.17,2303.17,2305.93,2308.31,2308.77,2309.91,2309.74,2309.69,2309.6,2310.25,2309.66,2306.88,2304.83,2300.57,2298,2300.67,2298.17,2295.95,2297.89,2303.03,2322.2,2327.75,2331.95,2331.36,2330.8,2329.75,2328.52,2328.53,2325.26,2324.26,2324.25,2326.03,2329.17,2332.67,2337.51,2343.08,2347.87,2352.32,2354.58,2355.45,2355.9,2355.94,2355.84,2353.94,2351.51,2349.86,2347.13,2344.69,2344.13,2343.39,2342.42,2341.24,2340.09,2339.02,2337.03,2336.43,2335.83,2335.86,2335.18,2335.6,2335.6,2336.27,2337.27,2336.41,2334.88,2334.96,2334.54,2334.47,2333.34,2332.73,2334.66,2336.36,2339.19,2342.86,2346.29,2347.92,2349.93,2352.26,2355.27,2356.53,2357.39,2358.42,2361.07,2360.78,2359.53,2357.66,2355.18,2352.94,2350.8,2350.12,2350.66,2349.65,2351.17,2353.47,2355.96,2357.97,2358.81,2359.92,2360.39,2359.84,2359.14,2357.88,2356.75,2356.25,2355.71,2354.85,2353.84,2352.44,2350.98,2349.72,2350.05,2350.3,2350.47,2350.89,2352.07,2353.32,2353.94,2354.48,2354.97,2354.46,2353.82,2353.23,2353.44,2353.46,2353.36,2353.05,2353.38,2353.75,2354.8,2356.37,2357.97,2358.3,2359.42,2360.45,2361.44,2362.13,2362.51,2361.94,2361.16,2360.18,2360.18,2360.13,2360.44,2360.74,2360.52,2359.58,2357.59,2355.06,2353.68,2352.26,2351.93,2351.27,2349.95,2348.16,2348.59,2350.84,2353.64,2355.43,2356.43,2356.43,2338.93,2344.11,2350.28,2350.73,2333.58,2354.67,2354.22,2356.06,2354.19,2352.09,2350.19,2348.16,2348.03,2345.53,2346.53,2351.97,2356.05,2360.93,2365.75,2370.85,2375.76,2379.79,2382.5,2384.33,2384.94,2384.51,2383.18,2382.04,2379.19,2371.52,2371.07,2361.75,2359.47,2354.45,2355.37,2352.97,2351.76,2351.32,2350.94,2351.31,2352.84,2354.29,2352.24,2351.74,2350.82,2349.19,2348.35,2347.55,2346.73,2346.45,2345.99,2346.46,2346.6,2347.04,2348.23,2348.81,2349.1,2346.54,2351.38,2353.25,2354.51,2355.92,2357.32,2357.33,2358.15,2358.92,2358.65,2358.28,2354.33,2349.84,2354.45,2344.76,2348.18,2345.31,2342.71,2340.86,2339.5,2338.36,2334.07,2333.16,2337.13,2338.73,2340.03,2341.8,2343.72,2345.04,2342.31,2339.82,2341.59,2341.41,2344.53,2347.96,2348.13,2348.77,2349.83,2351.82,2353.72,2354.47,2356.17,2357.73,2358.97,2360.48,2361.25,2361.42,2360.57,2359.89,2359.3,2358.27,2355.67,2353.07,2350.14,2347.6,2345.71,2343.12,2340.81,2339.04,2337.9,2337.76,2338.51,2339.77,2341.21,2342.11,2343.7,2345.12,2346.49,2347.86,2348.52,2348.48,2348.18,2347.32,2346.93,2345.75,2344.14,2342.53,2340.55,2338.45,2336.21,2333.44,2330.7,2327.83,2325.75,2324.64,2324.12,2323.87,2324.03,2324.54,2325.55,2326.19,2327.5,2328.8,2329.8,2330.58,2331.26,2331.42,2331.36,2330.86,2329.65,2327.98,2326.07,2323.87,2321.41,2319.01,2317.31,2315.72,2314.7,2314.88,2315.48,2316.37,2317.67,2319.95,2322.26,2324.6,2327.03,2329.25,2331.4,2334.13,2337.47,2340.9,2344.38,2347.32,2350.09,2351.78,2353.02,2354.35,2354.98,2354.45,2353.25
2316.87,2316.36,2314.33,2311.46,2311.6,2310.5,2310.95,2303.39,2303.11,2300.53,2293.93,2286.34,2273.23,2264.81,2260.69,2255.54,2263.57,2257.98,2256.54,2251.74,2248.74,2246.71,2245.31,2243.67,2242.79,2241.95,2238.81,2236.09,2234.75,2232.98,2231.4,2229.84,2228.39,2228,2229.19,2232.35,2234.67,2238.23,2241.4,2246.15,2251.08,2257.16,2259.73,2261.8,2272.82,2281.19,2283.32,2285.03,2285.82,2288.18,2287.41,2285.24,2281.97,2278.48,2274.37,2269.51,2265.21,2259.15,2255,2251.53,2251.51,2247.52,2257.15,2256.79,2257.28,2259.09,2261.64,2266.03,2270.62,2274.93,2278.61,2280.11,2280.86,2281.8,2282.76,2282.89,2281.71,2281.03,2280.49,2279.94,2280.33,2281.73,2282.3,2282.53,2281.48,2275.21,2273.56,2277.47,2275.8,2274.71,2277.21,2282.21,2284.32,2302.5,2307.27,2311.01,2310.9,2310.61,2309.59,2309.97,2307.58,2307.21,2307.22,2308.79,2311.63,2314.28,2318.38,2323.47,2328.01,2332.05,2334.07,2333.74,2333.83,2333.73,2333.97,2331.4,2328.17,2325.33,2321.87,2319.43,2318.98,2318.31,2317.78,2316.32,2315.4,2315.17,2313.84,2313.85,2313.66,2314.18,2314.22,2314.88,2315.38,2316.24,2317.49,2317.03,2316.55,2317.06,2317.83,2318.53,2317.9,2317.89,2319.56,2321.34,2323.66,2326.34,2328.86,2329.55,2331.1,2328.28,2334.89,2335.66,2336.27,2336.77,2338.41,2337.5,2336.33,2334.95,2332.59,2331.17,2329.32,2328.91,2329.54,2329.13,2331.28,2333.53,2335.54,2337.18,2337.66,2338.52,2338.91,2338.57,2337.94,2336.7,2335.52,2335.2,2334.54,2333.88,2333.1,2331.99,2330.59,2329.6,2330.23,2330.33,2330.05,2330.25,2330.98,2332.02,2332.24,2332.49,2332.76,2332.3,2332.45,2332.46,2333.01,2333.33,2333.6,2333.79,2334.74,2335.48,2336.54,2338.09,2339.74,2340.35,2341.78,2343.36,2344.38,2344.86,2345.51,2344.77,2343.94,2342.87,2342.89,2342.76,2343.03,2343.44,2343.16,2342.58,2340.75,2338.37,2337.15,2336.3,2335.83,2335.2,2333.37,2331.25,2330.96,2332.8,2334.78,2335.62,2336.03,2317.85,2321.19,2325.95,2327.31,2310.77,2331.49,2331.17,2334.32,2332.8,2330.98,2329.74,2325.71,2328.34,2325.68,2327.01,2328.98,2332.2,2336.03,2340.64,2345.71,2350.34,2357.52,2360.92,2363.68,2365.2,2365.68,2365.5,2364.62,2363.55,2345.49,2357.47,2345.62,2328.19,2341.42,2339.66,2335.91,2332.87,2326.93,2321.02,2327.45,2327.12,2327.83,2328.78,2326.49,2325.5,2324.75,2323.08,2322.45,2321.92,2321.61,2321.8,2321.68,2322.07,2321.67,2321.85,2323.51,2324.39,2324.27,2321.7,2326.26,2328.4,2330.48,2332.33,2334.19,2334.52,2335.43,2336.66,2336.76,2336.28,2329.63,2328.58,2333.68,2324.31,2327.54,2324.47,2321.46,2318.97,2317.39,2315.96,2314.57,2310.4,2313.81,2315.59,2316.91,2319.06,2318.83,2320.7,2319.02,2317.62,2324.82,2322.98,2328.68,2329.37,2329.65,2330.01,2327.96,2332.41,2333.52,2333.55,2333.88,2334.93,2335.47,2336.46,2337.06,2336.94,2336.6,2336.45,2336.34,2335.95,2334.45,2332.67,2330.45,2328.47,2326.67,2323.79,2321.53,2319.89,2318.1,2317.53,2317.78,2318.63,2319.54,2320.29,2321.85,2323.27,2324.46,2326.42,2327.66,2328.25,2328.57,2328.34,2328.22,2327.44,2326.1,2324.59,2322.66,2320.32,2317.87,2315.19,2312.67,2310.4,2308.5,2307.7,2307.4,2307.49,2308.18,2308.81,2309.82,2311.12,2312.52,2314.01,2314.72,2314.97,2315.24,2314.93,2314.09,2312.46,2310.67,2308.41,2306.05,2302.97,2299.93,2297.23,2294.82,2293.27,2292.15,2292.08,2292.58,2293.13,2294.48,2296.36,2298.58,2301.08,2303.6,2306.26,2308.45,2311.41,2314.68,2318.36,2321.94,2324.94,2327.76,2329.99,2331.99,2333.54,2334.47,2334.28,2333.39
2289.57,2290.22,2290.18,2288.8,2287.99,2285.49,2282.28,2277.13,2279.65,2273.15,2270.19,2262.85,2256.1,2253.59,2245.48,2241.77,2241.11,2246.67,2244.44,2238.85,2235.34,2232.57,2229.92,2227.49,2224.49,2222.79,2219,2216.16,2214.73,2213.04,2211.33,2209.63,2208.65,2208.58,2209.62,2212.52,2213,2216.18,2220.1,2224.95,2229.92,2236.66,2240.66,2244.88,2245.91,2255.92,2267.1,2265.92,2264.51,2271.33,2267.89,2259.63,2259.26,2251.85,2250.62,2243.21,2242.26,2239.18,2232.92,2232.2,2237.72,2237.26,2236.62,2240.66,2242.64,2245.1,2248.57,2253.02,2257.3,2260.77,2263.33,2263.26,2261.58,2260.11,2258.63,2256.88,2254.06,2252.69,2251.61,2250.94,2251.29,2252.96,2254.51,2255.45,2254.95,2249.3,2248.71,2253.79,2253.55,2256.56,2257.07,2262.19,2264.65,2265.76,2279.77,2287.8,2292.49,2292.45,2291.42,2292.35,2290.65,2290.69,2291.23,2293.18,2295.9,2298,2301.56,2306.24,2310.83,2314.13,2315.62,2314.81,2314.09,2313.65,2312.96,2310.21,2305.85,2301.93,2297.92,2295.3,2294.98,2294.64,2293.94,2293.06,2292.49,2292.64,2292.1,2292.67,2292.86,2293.9,2294.37,2295.45,2296.36,2297.69,2298.89,2299.08,2299.69,2301.14,2302.32,2303.52,2303.37,2303.93,2305.63,2307.06,2309.25,2311.06,2312.78,2312.57,2313.45,2314.25,2311.17,2316.09,2316.39,2316.22,2317.03,2315.56,2313.84,2312.77,2311.39,2310.15,2308.14,2308.14,2308.9,2309.34,2311.81,2314.08,2315.38,2316.41,2316.69,2317.64,2317.76,2317.53,2316.91,2315.75,2314.72,2314.51,2314.17,2313.57,2313.68,2312.2,2311.02,2310.2,2311.26,2311.5,2310.84,2310.66,2311.19,2310.69,2311.41,2311.67,2312,2311.82,2312.09,2312.53,2313.3,2313.84,2314.26,2314.69,2316.07,2316.64,2317.18,2318.86,2320.59,2321.41,2323,2325.07,2326.82,2327.18,2327.65,2328.15,2327.35,2326.77,2327.23,2327.04,2327.29,2327.5,2322.94,2326.73,2324.91,2322.37,2320.98,2320.31,2319.96,2319.05,2316.87,2314.68,2314.17,2315.41,2316.96,2317.83,2295.51,2303.12,2310.69,2310.88,2291,2312.04,2311.25,2314.19,2313.18,2308.83,2304.87,2301.25,2298.19,2301.76,2302.16,2300.41,2302.25,2305.37,2309.05,2316.68,2321.54,2331.1,2334.21,2340.52,2343.68,2342.56,2332.41,2346.84,2342.24,2337.66,2339.01,2324.25,2313.47,2311.34,2308.86,2317.79,2317.02,2310.17,2303.89,2290.18,2284.52,2305.5,2305.44,2305.56,2303.38,2302.27,2301.33,2299.46,2298.67,2298.23,2298.11,2298.09,2297.99,2298.21,2297.95,2298.29,2300.11,2301.22,2300.91,2298.67,2303.32,2305.54,2307.5,2309.69,2311.57,2311.85,2312.87,2314.54,2314.95,2314.91,2308.89,2308.2,2313.37,2301.23,2307.43,2304.28,2301.24,2298.48,2288.22,2292.47,2285.2,2283.79,2292.15,2293.57,2292,2291.76,2288.97,2291.34,2297.88,2305.2,2305.04,2309,2309.99,2311.06,2311.66,2312.02,2312.45,2313.44,2313.88,2313.16,2313.05,2313.17,2312.95,2313.58,2313.84,2313.71,2313.68,2314.14,2314.65,2312.57,2314.55,2313.78,2312.36,2308.65,2309.31,2306.55,2304.2,2302.08,2299.92,2298.85,2298.61,2298.4,2299,2299.63,2300.62,2301.63,2303.1,2305.11,2306.49,2307.79,2309.08,2309.38,2309.69,2309.68,2308.82,2307.51,2305.91,2303.96,2301.54,2298.77,2295.98,2293.93,2292.17,2291.43,2291.34,2291.67,2292.58,2293.71,2295.26,2296.82,2298.32,2299.9,2300.55,2300.91,2300.72,2299.97,2298.75,2296.59,2293.62,2290.49,2287.41,2283.73,2279.83,2276.3,2273.55,2271.1,2269.71,2269.46,2269.8,2270.17,2271.56,2273.43,2275.76,2278.21,2281.02,2284.04,2286.4,2289.42,2292.76,2296.62,2300.15,2303.21,2306.25,2308.93,2311.5,2313.53,2314.87,2315.34,2315.3
2263.39,2263.05,2265.2,2266.66,2270.37,2269.87,2267.84,2271.71,2267.39,2266.42,2264.08,2259.16,2247.76,2254,2244.5,2242.01,2237.82,2235.3,2229.59,2223.25,2219.45,2215.98,2212.66,2209.29,2205.95,2204.1,2200.26,2197.87,2196.42,2194.69,2192.9,2191.47,2190.48,2190.27,2191.28,2192.91,2194.44,2197.93,2202.05,2207.32,2211.78,2217.73,2218.75,2227.12,2224.82,2225.14,2241.96,2246.38,2240.94,2247.68,2241.21,2236.33,2229.91,2226.1,2222.07,2226.95,2221.64,2219.09,2218.87,2216.72,2213.85,2218.83,2221.6,2224.02,2226.48,2229.23,2232.47,2236.44,2240.06,2242.45,2244.28,2242.46,2239.04,2235.07,2232.25,2229.46,2225.08,2220.9,2219.36,2218.37,2221.11,2223.34,2226.47,2229.27,2224.37,2222.28,2225.33,2231.25,2232.7,2236.8,2241.39,2244.19,2246.66,2248.35,2249.65,2262.51,2271.34,2275.24,2274.19,2275.48,2274.4,2274.84,2275.96,2277.89,2279.77,2281.24,2284.23,2288.42,2292.14,2295.18,2297.06,2296.15,2294.75,2294.05,2292.72,2289.3,2284.69,2279.96,2275.05,2271.38,2270.61,2270.21,2270.24,2269.72,2269.67,2270.67,2270.83,2271.9,2272.54,2274.06,2274.81,2276.42,2277.81,2279.58,2280.95,2281.81,2282.8,2284.89,2286.68,2288.37,2288.81,2289.92,2291.72,2293.57,2295.58,2297.1,2297.92,2297.31,2297.5,2297.79,2298.07,2298.08,2288.85,2296.98,2296.73,2294.18,2292.21,2290.94,2289.97,2289.04,2287.27,2287.5,2288.47,2289.5,2292.15,2294.09,2295.26,2295.69,2295.77,2296.57,2296.51,2296.42,2296.09,2295,2294.48,2294.64,2294.33,2294.03,2294.44,2293.32,2292.55,2292.03,2293.38,2293.3,2292.52,2292.64,2293.1,2292.53,2292.87,2292.72,2292.6,2292.21,2292.69,2293.59,2294.36,2295.31,2295.44,2296.01,2297.39,2298.31,2298.94,2300.28,2301.35,2302.39,2304.05,2306.12,2308.24,2309.17,2309.81,2310.54,2310.34,2310.47,2310.9,2310.94,2311.14,2311.41,2311.39,2311,2309.2,2306.85,2305.53,2300.39,2304.3,2303.05,2300.77,2298.46,2288.62,2298.29,2299.51,2282.51,2281.68,2289.11,2288.03,2275.5,2296.83,2292.65,2294.59,2277.22,2289.91,2280.3,2273.88,2279.51,2282.56,2289.76,2290.22,2290.61,2291.58,2293.78,2297.11,2301.33,2302.24,2305.23,2307.94,2304.32,2306.96,2302.43,2306.24,2309.4,2304.95,2307.68,2306.33,2299.71,2293.37,2288.7,2284.02,2282.35,2278.07,2283.61,2277.67,2271.26,2265.78,2274.67,2270.2,2266.11,2274.61,2281.44,2280.4,2278.24,2276.97,2276.65,2276.24,2275.86,2275.35,2275.67,2275.39,2273.07,2278.29,2280.3,2272.06,2278.67,2280.03,2285.39,2287.83,2287.33,2289.02,2289.42,2292.63,2294.52,2295.64,2296.04,2290.52,2290.08,2295.09,2283.35,2289.54,2283.68,2275.03,2272.56,2267.8,2269.17,2264.96,2263.38,2263.3,2266.6,2267.46,2267.1,2267.27,2267.08,2270.81,2283.41,2285.95,2287.97,2292.4,2293.91,2294.84,2295.25,2295.79,2290.88,2295.95,2294.97,2294.03,2293.25,2292.31,2292.3,2292.33,2289.14,2291.76,2292.6,2293.58,2294.59,2292.79,2295.6,2295.24,2294.82,2288.92,2291.1,2288.73,2286.67,2283.58,2281.85,2280.65,2279.79,2279.57,2279.65,2280.54,2281.37,2282.68,2284.8,2286.46,2288.22,2289.93,2290.88,2292.25,2293.06,2292.45,2291.71,2290.37,2288.43,2286.19,2283.31,2280.67,2278.34,2276.55,2275.8,2275.76,2276.42,2277.67,2279.03,2280.73,2282.62,2284.32,2286.33,2287.35,2287.85,2287.35,2286.5,2285.12,2282.21,2278.2,2273.87,2269.81,2265.1,2260.1,2255.99,2252.17,2249.09,2247.21,2246.8,2247.07,2247.3,2248.65,2250.76,2253.63,2256.26,2259.39,2262.54,2265.39,2268.72,2272.28,2275.91,2279.58,2283.06,2285.95,2288.82,2291.67,2294.23,2296.26,2297.45,2297.82
2241.96,2245.8,2246.81,2250.34,2255.84,2256.29,2255.03,2257.56,2259.39,2261.54,2259.81,2252.28,2242.34,2243.7,2238.32,2233.08,2227.87,2222.12,2215.18,2208.15,2204.06,2200.34,2196.34,2192.81,2189.33,2187.36,2183.35,2181.16,2179.77,2177.94,2176.32,2174.98,2174.34,2174.2,2173.54,2174.97,2177.97,2181.5,2185.6,2190.8,2195.05,2200.58,2203.28,2208.52,2208.72,2208.55,2212.47,2223.19,2224.56,2225.37,2221.99,2215.26,2209.65,2206.62,2210.39,2210.92,2208.97,2199.64,2204.38,2202.24,2202.21,2202.49,2205.52,2208.02,2210.27,2212.69,2215.66,2219.12,2222.03,2223.75,2224.66,2221.38,2216.38,2211.53,2207.11,2203.17,2196.46,2194.46,2192.51,2191.16,2191.45,2196.32,2200.1,2204.09,2199.71,2195.48,2201.71,2208.14,2210.72,2216.48,2222.03,2227.48,2228.49,2231.19,2233.21,2232.76,2250.74,2254.93,2258.24,2259.5,2258.91,2259.05,2259.68,2261.26,2262.98,2264.27,2266.8,2270.69,2274.53,2278.8,2280.73,2278.84,2276.76,2275.3,2273.1,2269.31,2263.73,2257.87,2250.75,2246.24,2245.58,2246.08,2247.01,2247.31,2247.71,2249.32,2250.37,2252.23,2253.57,2255.55,2257,2258.99,2261.15,2263.16,2264.65,2265.76,2267.01,2269.34,2271.56,2273.84,2274.86,2276.01,2277.86,2279.71,2282.08,2283.01,2283.69,2282.74,2282.25,2272.97,2277.01,2280.61,2270.29,2277.43,2275.77,2259.46,2270.4,2269.04,2268.38,2267.36,2265.69,2266.28,2267.65,2269.24,2272,2273.66,2274.56,2274.4,2274.31,2275.43,2275.35,2275.56,2275.64,2275,2274.71,2275.53,2274.83,2274.64,2275.39,2274.67,2274.19,2273.83,2274.96,2274.8,2273.72,2273.93,2274.69,2274.39,2274.47,2274.63,2274.81,2274.88,2275.68,2276.79,2277.89,2278.89,2278.57,2278.58,2279.04,2279.26,2279.4,2280.4,2280.65,2281.01,2282.39,2284.96,2287.21,2288.92,2290.18,2291.3,2291.52,2292.41,2293.48,2293.9,2294.27,2294.68,2294.79,2294.86,2288.85,2277.66,2288.35,2287.58,2287.06,2285.41,2282.78,2258.45,2274.56,2274.99,2262.73,2264,2271.83,2270.37,2257.21,2269.69,2274.73,2266.66,2268.69,2265.84,2259.74,2259.57,2259.34,2267.3,2269.93,2274.77,2275.1,2274.6,2274.7,2276.1,2278.67,2279.67,2280.39,2283.01,2278.27,2280.33,2280.63,2279.71,2283.75,2283.84,2282.9,2282.29,2283.88,2278.52,2275.27,2270.59,2272.77,2277.33,2273.39,2265.08,2262.07,2261.33,2259.56,2258.18,2251.82,2244.1,2240.46,2246.33,2255.77,2257.51,2255.89,2248.12,2251.31,2254.05,2250.56,2250.75,2250.81,2241.21,2244.03,2252.64,2247.82,2248.8,2256.03,2261.18,2266.51,2266.47,2270.89,2267.89,2273.66,2272.91,2277.07,2277.72,2272.67,2272.14,2268.56,2266.59,2264.16,2259.26,2250.97,2248.49,2248.88,2252.53,2250.61,2250.98,2250.41,2245.65,2253.07,2254.94,2257.63,2259.98,2261.16,2266.15,2269.57,2266.92,2271.84,2276.86,2278.63,2279.33,2279.95,2280.23,2277.13,2275.42,2273.99,2275.01,2273.59,2272.99,2272.54,2269.19,2266.83,2272.67,2274.16,2275.91,2277.62,2278.49,2278.83,2279.18,2278.51,2274.27,2274.72,2272.04,2268.65,2266.34,2264.39,2262.72,2261.47,2260.49,2260.62,2261.4,2262.6,2264.59,2266.31,2268.45,2270.7,2272.12,2274.19,2275.56,2275.54,2275.1,2274.29,2272.35,2270.35,2268,2265.46,2263.47,2261.26,2260.62,2260.6,2261.13,2262.39,2263.73,2265.32,2267.11,2268.81,2271.28,2272.36,2272.96,2272.83,2272.13,2270.12,2267,2262.28,2257.16,2251.97,2246.29,2240.38,2235.34,2230.72,2226.89,2224.5,2223.77,2223.8,2223.93,2225.39,2227.53,2230.4,2233.88,2237.82,2241.53,2244.81,2248.65,2252.47,2256.33,2260.18,2263.65,2266.7,2269.43,2272.7,2275.62,2277.86,2279.52,2280.85
2227.43,2227.22,2229.87,2233.85,2237.88,2242.21,2242.42,2244.28,2245.03,2241.71,2247.18,2241.8,2233.14,2232.81,2226.93,2220.68,2214.95,2208.66,2200.84,2193.68,2189.57,2185.95,2181.14,2177.36,2173.52,2169.97,2166.45,2164.43,2163.01,2161.16,2159.48,2158.37,2157.7,2157.65,2157.91,2160.2,2163.07,2166.55,2170.39,2175.42,2179.46,2184.42,2189.12,2191.43,2195.79,2195.04,2193.7,2199.69,2200.87,2208.87,2203.11,2206.76,2204.53,2194.93,2196.87,2195.36,2192.1,2191.17,2188.99,2186.94,2186.76,2186.93,2189.76,2191.94,2193.98,2196.09,2198.81,2201.49,2203.99,2205.45,2205.42,2201.48,2196.66,2191.54,2186.87,2182.98,2178.32,2173.68,2171.65,2170.33,2170.52,2172.51,2176.08,2179.98,2178.12,2176.32,2177.32,2186.37,2189.21,2195.12,2200.46,2206.51,2210.68,2211.5,2213.9,2214.78,2216.19,2234.2,2238.17,2243.65,2241.19,2241.29,2242.22,2243.2,2244.15,2245.34,2247.55,2252.12,2256.52,2260.51,2262.47,2260.18,2257.58,2255.35,2252.89,2248.56,2241.82,2234.95,2227.52,2223.28,2223.01,2224.11,2225.43,2226.31,2227.31,2229.15,2230.79,2233.44,2235.58,2238.06,2239.12,2241.59,2243.99,2246.95,2248.35,2249.48,2250.73,2253.27,2255.57,2259.03,2260.4,2261.61,2263.7,2265.97,2268.35,2269.1,2268.91,2268.59,2267.82,2258.02,2256.62,2263.21,2261.18,2257.77,2255.3,2242.64,2235.91,2242.82,2246.49,2245.3,2243.38,2243.92,2245.67,2247.38,2249.87,2250.97,2251.83,2251.74,2251.98,2253.3,2253.38,2253.7,2253.94,2253.51,2254,2255.49,2254.93,2254.49,2255.43,2255.4,2255.09,2254.83,2255.72,2255.56,2254.35,2254.86,2255.92,2255.85,2255.88,2256.16,2256.72,2256.95,2257.71,2258.98,2259.82,2260.39,2260.01,2259.71,2258.92,2258.43,2257.73,2258.19,2258.16,2258.4,2259.7,2262.02,2264.96,2266.85,2268.88,2270.51,2270.6,2271.59,2273.39,2274.11,2274.84,2275.75,2276.17,2276.59,2275.76,2260.5,2266.64,2270.25,2269.8,2254.6,2247.27,2257.81,2242.93,2238.55,2243.45,2258.01,2248.63,2234.78,2247.93,2252.21,2256.07,2252.32,2251.09,2242.4,2245.04,2245.1,2252.6,2252.28,2254.71,2256.07,2255.73,2254.29,2253.59,2253.93,2255.37,2256.11,2258.86,2258.66,2258.99,2258.62,2256.59,2258.92,2260.58,2260.93,2268.05,2267.12,2263.47,2258.75,2262.83,2256.69,2253.25,2252.47,2246.77,2243.87,2243.42,2239.86,2238.45,2237.48,2231.54,2224.44,2220.52,2218.6,2216.94,2236.21,2234.66,2230.52,2229.68,2229.16,2220.47,2217.93,2218.71,2220.75,2231.84,2240.57,2241.3,2242.39,2244.36,2245.18,2251.04,2253.51,2255.34,2247.53,2244.45,2252.03,2250.82,2260.2,2255.76,2252.31,2246.15,2244.95,2245.74,2241.07,2240.94,2243.13,2245.37,2244.09,2241.75,2238.87,2237.38,2236.65,2236.68,2238.11,2240.4,2240.56,2241.58,2244.16,2247.81,2251.21,2254.56,2260.1,2262.46,2263.54,2261.93,2264.49,2263.72,2256.65,2257.04,2257.43,2255.35,2254.25,2253.44,2249.98,2252.09,2252.94,2254.64,2256.92,2259.25,2260.86,2262,2263.05,2263.08,2262.01,2260.2,2257.94,2254.46,2251.66,2249.02,2246.06,2243.66,2241.71,2241.04,2241.63,2242.64,2244.47,2246.01,2248.47,2251.05,2253.15,2255.77,2257.75,2257.91,2257.9,2257.42,2255.87,2254.3,2252.56,2250.19,2248.55,2246.53,2246.16,2246.21,2246.79,2247.78,2248.99,2250.22,2252.03,2253.51,2255.64,2256.6,2257.02,2256.39,2255.59,2253.69,2250.2,2245.18,2239.23,2233.36,2226.76,2220.55,2214.94,2209.34,2204.72,2201.73,2200.55,2200.28,2200.1,2201.51,2203.77,2206.88,2210.79,2215.29,2219.67,2223.8,2228.26,2232.52,2236.49,2240.93,2244.35,2247.69,2250.57,2253.88,2257.01,2259.48,2261.71,2263.36
2212.48,2210.77,2211.28,2214.99,2218.36,2228.34,2229.9,2231.94,2235.93,2233.56,2229.88,2227.47,2223.85,2219.81,2214.19,2207.77,2202.4,2196.22,2188.31,2180.95,2176.6,2172.18,2166.73,2162.14,2157.57,2153.65,2150.33,2148.69,2147.73,2146.05,2144.82,2144.35,2143.93,2144.15,2145.05,2147.18,2149.74,2153.05,2156.96,2161.17,2164.32,2168.89,2172.84,2176.97,2178.49,2181.75,2181.77,2181.3,2180.21,2186.19,2190.29,2186.96,2180.87,2179.12,2181.44,2181.84,2179.54,2176.5,2174.12,2172.34,2172.24,2172.38,2174.94,2176.98,2178.72,2180.8,2183.43,2185.83,2187.82,2188.41,2187.68,2183.81,2179.07,2174,2169.37,2165.36,2160.49,2155.7,2154.05,2152.78,2152.58,2153.86,2157.08,2158.96,2159.52,2157.62,2161.22,2164.95,2169.87,2175.41,2180.61,2186.04,2189.71,2192.99,2193.47,2194.75,2196.7,2202.14,2215.58,2216.83,2222.76,2222.94,2223.45,2223.94,2224.47,2225.37,2227.11,2231.65,2236.19,2240.04,2241.75,2239.48,2236.99,2235.15,2232.76,2228.53,2222.01,2214.71,2207.98,2203.69,2203.66,2204.8,2206,2207.04,2208.15,2210.37,2212.17,2214.88,2216.81,2219.28,2220.63,2222.46,2224.68,2226.81,2227.98,2229.5,2230.58,2233.44,2236.44,2240.13,2242.39,2244.37,2247.09,2250.03,2252.42,2253.25,2253.66,2252.98,2251.61,2245.35,2234.59,2245.01,2233.55,2240,2236.61,2214.46,2220.14,2213.03,2225.03,2223.53,2221.58,2221.72,2221.74,2223.22,2225.4,2226.39,2227.65,2227.89,2228.43,2229.87,2230.12,2230.53,2231.19,2231.03,2232.17,2234.27,2233.93,2233.75,2235,2235.11,2235.37,2235.19,2236.3,2236.03,2234.83,2236.29,2237.29,2237.17,2237.64,2237.92,2238.56,2239,2239.67,2240.7,2240.9,2240.56,2238.97,2237.53,2236.32,2235.28,2234.39,2234.64,2234.26,2234.21,2235.68,2238.04,2241.16,2243.72,2246.13,2247.75,2248.12,2249.45,2251.56,2252.63,2254.05,2255.33,2256.35,2257.4,2257,2255.71,2253.41,2252.41,2247.59,2236.95,2229.78,2227.3,2221.06,2220.9,2229.76,2231.35,2218.28,2226.38,2235.28,2231.43,2232.17,2232.62,2229.07,2232.03,2236.6,2236.83,2239.13,2238.95,2238.79,2239.41,2237.76,2235.05,2233.13,2232.44,2230.32,2232.18,2233.96,2230.84,2231.15,2233.53,2240.05,2235.05,2234.44,2235.18,2247.1,2246.4,2245.59,2243.33,2240.17,2236.71,2234.11,2233.19,2227.7,2227.34,2222.18,2219.13,2217.17,2216.34,2210.73,2203.79,2200.28,2198.45,2196.65,2198.6,2204.04,2206.72,2203.01,2199.71,2205.35,2202.9,2208.49,2213.17,2215.4,2218.29,2218.92,2219.75,2221.05,2223.88,2227.97,2230.63,2232.55,2233.31,2226.02,2221.14,2225.8,2241.04,2237.63,2231.78,2229.33,2228.14,2229.34,2237.18,2234.33,2231.41,2228.95,2227.25,2224.59,2222.02,2219.81,2218.11,2217.22,2215.88,2217.88,2222.54,2224,2226.63,2230.29,2231.55,2235.98,2242.13,2244.8,2246.16,2247.47,2242.98,2244.72,2245.13,2242.62,2239.74,2237.05,2235.32,2233.87,2232.58,2231.88,2232.2,2233.95,2236.16,2239.16,2241.67,2243.77,2245.74,2246.61,2246.12,2245.04,2242.98,2239.81,2236.93,2233.98,2230.41,2226.99,2224,2222.17,2222.34,2223.25,2224.81,2225.89,2228.31,2231.04,2233.33,2236.28,2239.04,2239.72,2239.85,2239.66,2238.6,2237.64,2236.18,2234.56,2233.31,2231.64,2231.59,2231.69,2232.42,2233.44,2234.3,2235.1,2236.38,2237.51,2239.18,2239.49,2239.18,2237.99,2236.69,2234.66,2231.33,2226.17,2219.96,2213.93,2207.1,2200.66,2194.74,2188.96,2183.69,2180.14,2178.42,2177.53,2177.21,2178.33,2180.73,2183.83,2187.99,2192.71,2197.28,2202.22,2206.9,2211.64,2216.05,2220.56,2224.38,2227.66,2230.89,2234.35,2237.44,2240.13,2242.74,2245
2199.59,2195.8,2195,2197.34,2199.78,2208.86,2210.38,2214.57,2216.42,2217.06,2216.74,2212.88,2207.36,2204.56,2200.26,2194.84,2190.23,2184.3,2176.44,2169.15,2164.82,2160.21,2153.58,2148.61,2142.94,2138.51,2135.69,2134.44,2133.68,2131.97,2130.88,2130.58,2130.89,2131.87,2133.22,2135.26,2137.39,2140.42,2143.77,2147.64,2150.21,2153.87,2157.34,2160.76,2161.66,2164.02,2165.03,2164.52,2163.67,2169.35,2167.05,2171.19,2170.15,2164.42,2167.45,2166.62,2164.93,2162.34,2160.2,2158.44,2158.36,2158.55,2161.03,2162.98,2164.46,2166.25,2168.6,2170.62,2172.3,2172.26,2170.98,2166.78,2162.36,2157.57,2153.44,2149.31,2144.51,2139.69,2135.93,2136.93,2134.32,2137.58,2135.77,2137.39,2140.32,2143.18,2143.86,2149.61,2149.18,2156.84,2160.9,2166.25,2169.6,2172.76,2175.76,2175.04,2176.82,2178.17,2178.77,2197.62,2194.94,2203.43,2203.79,2203.98,2204.57,2205.31,2207.16,2211.58,2216.39,2220.22,2222.11,2220.94,2219.14,2217.66,2215.66,2212.06,2205.73,2198.61,2192.45,2188.29,2187.82,2188.88,2190.16,2191.43,2192.9,2195.72,2197.31,2199.41,2200.89,2203.04,2203.86,2205,2206.63,2207.89,2208.15,2209.36,2210.99,2214.58,2217.68,2221.47,2224.47,2227.05,2229.87,2232.94,2235.8,2237.01,2237.26,2236.31,2234.39,2227.62,2229.34,2226.62,2215.25,2221.59,2217.02,2197.97,2198.56,2190.51,2197.59,2200.1,2197.87,2197.31,2196.5,2198.27,2200.59,2201.5,2202.97,2203.27,2204.23,2205.9,2206.05,2206.86,2207.8,2208.09,2209.29,2211.26,2210.99,2210.99,2212.75,2213.69,2214.1,2214.29,2215.64,2216.5,2216.02,2217.81,2219.38,2219.59,2220.11,2220.46,2221.25,2221.6,2222.34,2223.25,2222.97,2222.02,2219.59,2216.81,2214.79,2212.85,2211.46,2211.1,2209.97,2209.66,2210.94,2213.41,2216.74,2219.53,2222.11,2223.98,2224.46,2226.22,2228.44,2230.04,2231.47,2233.55,2234.82,2236.4,2236.64,2236.02,2234.4,2220.35,2215.2,2226.86,2224.19,2204.54,2202.5,2210.77,2206.73,2199.76,2208.88,2213.47,2214.11,2206.79,2208.57,2209.72,2206.78,2217.8,2217.14,2222.11,2221.92,2222.02,2221.79,2221.51,2219.23,2215.29,2212.94,2211.05,2208.16,2209.08,2209.72,2205.91,2204.06,2213.72,2215.15,2210.32,2215.34,2221.13,2223.31,2222.87,2222.5,2221.16,2219.11,2218.51,2216.37,2215.91,2213.17,2210.27,2205.46,2200.44,2198.19,2197.07,2194.22,2185.51,2182.22,2180.63,2179.33,2178.2,2177.44,2180.07,2188.22,2193,2192.76,2184.94,2192.88,2195.06,2197.19,2199.52,2199.34,2199.8,2200.51,2202.11,2205.96,2208.31,2209.66,2210.91,2204.65,2205.76,2203.59,2208.74,2211.44,2212.33,2217.9,2224.65,2220.79,2221.39,2218.62,2216.14,2213.21,2210.89,2207.73,2204.72,2202.2,2199.94,2198.32,2198.52,2197.87,2202.15,2203.62,2206.57,2210.32,2214.02,2214.14,2220.93,2226.42,2228.09,2227.16,2230.11,2230.07,2227.96,2225.08,2221.64,2218.44,2215.73,2213.86,2212.21,2210.95,2210.88,2212.69,2215.19,2218.71,2221.75,2224.59,2227.47,2229.15,2229.66,2229.15,2227.05,2224.49,2221.75,2218.72,2214.69,2210.74,2206.89,2204.11,2203.52,2203.6,2204.4,2205.21,2207.04,2209.86,2212.28,2215.37,2218.65,2219.74,2220.75,2221.28,2220.88,2220.33,2219.52,2218.42,2217.77,2216.28,2216.42,2216.69,2217.61,2218.62,2219.23,2219.73,2220.43,2220.97,2221.93,2221.7,2220.55,2218.62,2217.1,2214.43,2211.4,2206.48,2200.76,2195.06,2188.66,2182.33,2176.41,2170.42,2165.03,2161.07,2159.01,2158.01,2157,2157.66,2159.59,2162.4,2166.55,2171.36,2176.14,2181.3,2186.34,2191.49,2195.89,2200.62,2205.01,2208.36,2211.57,2215.21,2218.54,2221.36,2223.71,2226.28
2186.82,2182.04,2179.78,2180.34,2181.52,2184.8,2193.63,2197.18,2189.85,2198.32,2198,2195.12,2191.43,2189.18,2185.88,2181.21,2177.58,2172.15,2164.97,2158.57,2154.16,2149.26,2142.59,2136.96,2131.28,2126.74,2124.09,2122.88,2122.01,2120.84,2119.55,2119.67,2120.51,2121.52,2122.97,2125.19,2127.07,2129.25,2131.8,2134.81,2136.71,2139.29,2141.92,2144.83,2144.34,2143.77,2144.85,2146.35,2143.04,2151.77,2151.84,2151.77,2153.76,2153.2,2152.62,2152.26,2151.59,2149.94,2148,2146.77,2146.9,2146.82,2149.26,2150.92,2152.11,2153.44,2155.31,2156.85,2157.67,2156.91,2155.09,2150.98,2146.69,2142.04,2138.17,2133.89,2126.94,2122.63,2121.66,2120.48,2119.8,2113.61,2123.05,2119.79,2122.67,2124.89,2130.02,2132.97,2134.48,2136.45,2142.53,2145.88,2147.79,2150.34,2153.29,2155.21,2154.72,2156.05,2156.83,2157.79,2175.18,2179.58,2183.62,2183.62,2184.39,2185.11,2187.53,2192.23,2197.55,2201.47,2203.98,2203.71,2202.74,2201.73,2200.16,2196.98,2190.78,2183.97,2178.12,2174.49,2173.59,2174.89,2176.21,2177.7,2179.79,2182.7,2184.47,2186.23,2186.87,2188.69,2189.06,2189.51,2190.4,2190.77,2190.04,2191.37,2193.22,2197.44,2200.85,2204.83,2208.15,2210.88,2213.8,2216.48,2219.18,2220.37,2220.47,2219.78,2217.87,2202.19,2203.74,2210.08,2190.33,2205.97,2196.48,2195.35,2173.16,2169.2,2180.45,2178.68,2180.84,2179.58,2177.6,2179.07,2180.77,2181.72,2182.64,2182.78,2183.22,2184.82,2185.23,2186.41,2187.87,2188.66,2189.75,2191.63,2191.28,2191.55,2192.74,2193.52,2194.4,2194.82,2196.71,2198.26,2197.92,2200.4,2202.11,2203.1,2204.2,2204.65,2205.16,2205.44,2205.82,2206.76,2206.16,2204.69,2201.52,2198.17,2195.17,2192.61,2190.41,2188.73,2187,2186.66,2187.93,2190.49,2193.91,2196.95,2199.68,2201.69,2193.92,2204.72,2207.21,2208.65,2210.32,2212.78,2214.35,2211.66,2216.69,2216.81,2206.92,2197.01,2196.11,2195.02,2188.29,2186.11,2188.96,2188.84,2180.15,2186.38,2196.06,2197.03,2185.72,2186.96,2188.47,2189.57,2190.24,2203.64,2202.28,2204.45,2204.26,2204.31,2203.84,2203.27,2200.53,2194.04,2191.36,2188.89,2187.59,2187.77,2187.67,2181.52,2184.51,2191.51,2195.21,2192.75,2197.75,2201.55,2201.44,2201.18,2201.27,2200.62,2201.8,2199.93,2198.64,2197.34,2195.09,2192.62,2190.52,2185.77,2181.13,2179.85,2177.19,2168.72,2169.01,2167.96,2164.73,2164.09,2163.66,2163.91,2179.3,2178.97,2178.93,2176.5,2179.63,2181.85,2183.95,2185.35,2184.69,2184.35,2184.24,2184.92,2187.31,2188.72,2187.66,2189.24,2188.57,2195.12,2186.67,2190.11,2196.18,2195.45,2206.4,2210.88,2209.58,2207.9,2205.44,2202.98,2199.96,2197.17,2193.55,2189.97,2186.9,2183.62,2181.73,2181.35,2182.52,2184.2,2185.79,2188.82,2192.59,2194.17,2196.77,2201.35,2207.07,2211.34,2212.51,2213.44,2213.74,2211.74,2208.35,2204.54,2200.58,2197.47,2194.9,2192.93,2190.81,2190.17,2191.6,2194.32,2197.86,2201.36,2204.82,2208.36,2210.7,2211.84,2211.9,2210.47,2208.49,2206.4,2203.4,2199.25,2194.84,2190.38,2187.01,2185.63,2184.62,2184.57,2184.48,2185.76,2188.37,2191.01,2194.43,2197.91,2199.71,2201.6,2203.21,2203.77,2204.11,2203.87,2202.98,2202.73,2201.88,2202.02,2202.27,2202.73,2203.21,2203.44,2203.71,2203.67,2203.45,2203.46,2202.12,2200.28,2198.22,2196.56,2194.24,2190.84,2186.55,2181.67,2176.52,2171.02,2165.21,2159.88,2154.33,2149.42,2145.64,2143.26,2141.92,2140.75,2140.85,2142.47,2144.75,2148.25,2152.67,2157.16,2162.39,2167.41,2172.2,2177.04,2181.86,2186.06,2189.8,2192.91,2196.71,2200.03,2202.95,2205.89,2208.51
2172.84,2167.38,2164.39,2163.96,2163.48,2165.84,2166.68,2176.29,2173.14,2173.99,2173.78,2173.3,2170.71,2170.02,2167.81,2164.32,2161.44,2157.06,2151.07,2145.34,2141.11,2136.27,2129.63,2124.47,2119.46,2115.41,2113.59,2112.88,2112.62,2111.85,2111.34,2112.14,2112.72,2113.75,2114.46,2115.77,2116.8,2117.85,2119.1,2120.81,2121.01,2122.39,2123.67,2126,2127.1,2124.08,2122.83,2122.22,2123.58,2129.98,2131.12,2136.24,2136.82,2137.19,2137.53,2138.24,2138.4,2137.69,2136.34,2135.12,2135.3,2135.41,2137.55,2139.29,2140.19,2141.19,2142.38,2142.97,2142.89,2141.1,2138.7,2134.56,2130.47,2126.24,2122.53,2118.39,2113.21,2111.71,2109.29,2110.5,2107.45,2107.85,2103.17,2108.85,2108.72,2107.77,2112.12,2114.01,2114.98,2118.51,2121.6,2126.52,2127.4,2129.79,2132.8,2134.62,2136.73,2135.46,2136.29,2136.79,2136.95,2154.27,2158.48,2162.5,2163.27,2164.53,2167.02,2172.01,2177.62,2182.03,2185.05,2185.78,2185.57,2184.93,2183.94,2181.18,2175.98,2169.58,2164.32,2161.02,2160.47,2161.8,2163.68,2165.55,2167.74,2170.75,2167.99,2173.75,2173.91,2174.55,2174.52,2174.05,2174.08,2173.64,2172.44,2173.36,2175.17,2179.39,2183.15,2186.86,2190.5,2193.29,2195.82,2198.58,2200.89,2201.98,2202.09,2201.58,2199.99,2188.72,2177.55,2192.6,2182.27,2188.97,2179.24,2160.96,2173.8,2152.26,2154.61,2166.4,2155.55,2162.87,2160.89,2162.39,2163.61,2164.67,2165.9,2166.3,2166.98,2168.6,2169.08,2170.22,2171.65,2172.22,2168.35,2173.8,2173.05,2172.56,2172.78,2173.35,2174.36,2174.86,2176.84,2178.86,2179.7,2182.39,2184.46,2186.34,2187.99,2188.42,2188.79,2188.98,2189.5,2185.95,2189.39,2187.72,2183.94,2180.1,2176.57,2173.16,2166.32,2160.08,2166.95,2162.01,2158.46,2160.9,2173.02,2176.31,2179.5,2172.76,2182.62,2184.59,2187.14,2188.8,2186.35,2188.59,2185.86,2196.64,2197.68,2180.49,2171.02,2170,2182.07,2172.35,2166.04,2177.3,2171.88,2163.25,2163.58,2173.8,2171.52,2169.35,2170.72,2171.96,2173.29,2174.24,2174.49,2186.5,2185.47,2184.88,2184.25,2183.88,2183.15,2182.12,2178.58,2173.99,2171.14,2168.52,2167.05,2166.67,2159.81,2158.63,2164.37,2169.06,2175.24,2175.17,2178.1,2182.05,2182.2,2181.91,2182.16,2181.85,2183.37,2182.18,2181.37,2180.64,2178.85,2176.61,2174.67,2170.61,2166.12,2164.76,2160.02,2154.35,2152.5,2156.79,2151.77,2151.77,2151.25,2151.79,2164.06,2166.55,2166.97,2167.44,2167.9,2170.12,2171.45,2172.4,2170.97,2169.92,2168.8,2168.14,2169.25,2169.76,2171.09,2168.35,2170.6,2175.25,2172.07,2176.33,2180.5,2185.13,2194.17,2196.23,2195.14,2193.54,2191.39,2188.98,2185.95,2182.95,2179.1,2175.22,2171.58,2167.65,2165.45,2164.9,2165.47,2166.97,2168.51,2171.63,2175.57,2177.5,2180.33,2182.17,2188.08,2194.67,2196,2197.24,2197.79,2195.8,2192.26,2187.66,2183.43,2179.68,2176.55,2174.03,2171.43,2170.07,2171.1,2173.51,2177.59,2181.16,2184.91,2188.89,2191.85,2193.89,2194.4,2193.6,2192.46,2190.87,2188.19,2184.22,2179.3,2174.38,2170.55,2168.56,2167.17,2165.9,2164.84,2165.01,2166.79,2169.21,2172.55,2176.04,2178.17,2180.8,2183.16,2184.83,2186.24,2187.04,2187.18,2187.24,2187.05,2187.49,2187.68,2187.7,2187.44,2186.85,2186.13,2185.43,2184.24,2183.13,2180.89,2178.5,2176.4,2174.76,2172.64,2169.55,2165.94,2161.76,2157.86,2153.27,2148.68,2144.16,2139.38,2134.93,2131.78,2129.46,2127.91,2126.59,2126.45,2127.42,2129.1,2132.22,2135.93,2140.01,2144.64,2149.49,2154.38,2158.78,2163.45,2167.91,2171.55,2174.84,2178.87,2182.2,2185.23,2188.24,2191.09
2154.07,2148.26,2145.49,2144.05,2142.74,2141.84,2149.99,2152.07,2150.23,2150.38,2147.28,2147.17,2145.9,2146.47,2145.44,2143.11,2141.93,2138.79,2134.54,2130.27,2127.21,2123.38,2117.57,2112.81,2108.93,2105.54,2104,2103.63,2104.56,2104.01,2103.27,2103.13,2103.45,2103.72,2103.73,2104.03,2104.1,2102.8,2102.16,2103.01,2102.6,2103.32,2104.15,2105.83,2106.52,2107.59,2105.98,2109.65,2106.67,2113.52,2115.2,2116.83,2118.1,2119.76,2121.46,2123.01,2124.1,2124.4,2123.99,2123.16,2124.02,2124.78,2126.87,2128.25,2129.42,2130.01,2130.1,2129.49,2128.35,2126.04,2123.19,2119.11,2115.36,2111.57,2108.45,2105.9,2102.33,2099.49,2099.27,2098.44,2097.8,2097.94,2095.13,2095.02,2096.01,2094.06,2094.82,2097.97,2097.41,2099.49,2101.01,2102.34,2105.24,2107.37,2109.92,2111.72,2113.55,2115.16,2113.51,2114.64,2114.95,2119.3,2132.33,2140.75,2141.95,2143.84,2146.56,2151.84,2157.85,2162.7,2166.05,2168.08,2168.75,2168.31,2167.74,2166.3,2161.89,2156.31,2151.96,2149.12,2148.98,2150.74,2153.11,2155.41,2157.83,2160.5,2157.23,2162.63,2162.02,2161.71,2160.99,2159.73,2158.89,2157.29,2155.24,2155.76,2157.46,2161.2,2164.88,2168.06,2171.52,2174.01,2176.52,2179.06,2181.29,2182.49,2182.87,2182.46,2180.99,2165.75,2167.98,2174.68,2155.76,2171.59,2162.33,2149.16,2135.91,2140.74,2151.65,2150.48,2148.87,2138.42,2145.49,2147.16,2148.06,2149.27,2150.81,2151.7,2152.43,2153.74,2154.24,2155.33,2156.5,2156.7,2156.8,2157.05,2155.64,2154.76,2154.23,2154.15,2154.63,2154.99,2157.07,2159.39,2160.7,2163.54,2165.93,2168.11,2170.04,2171.01,2171.53,2171.81,2172.1,2172.95,2163.5,2165.96,2166.74,2158.5,2154.45,2150.6,2143.54,2145.9,2139.22,2129.54,2126,2145.95,2153.48,2152.65,2147.27,2153.83,2163.9,2165.88,2168.43,2161.2,2163.2,2156.55,2175.74,2177.47,2156.81,2153.09,2154.74,2162.09,2156.68,2155.67,2149.46,2148.41,2147.36,2147.56,2147.98,2148.34,2150.61,2156.98,2154.8,2156.08,2157.28,2160.47,2162.7,2169.67,2168.13,2164.8,2163.88,2165.28,2163.8,2162.09,2159.87,2155.24,2152.28,2149.44,2147.6,2140.63,2141.03,2140.41,2146.85,2150.64,2154.85,2155.2,2162.96,2164.74,2164.75,2164.72,2165.17,2164.83,2166.61,2165.47,2164.83,2164.78,2163.09,2161.13,2159.49,2155.69,2153.98,2150.52,2143.51,2140.31,2138.72,2143.32,2138.89,2139.49,2139.43,2149.35,2154.16,2154.04,2154.54,2154.87,2155.53,2157.03,2157.63,2158.07,2156.32,2154.84,2153.23,2151.56,2151.85,2151.97,2151.23,2151.26,2153.64,2158.16,2162.59,2164.92,2169.58,2176.57,2178.85,2181.03,2179.86,2178.68,2176.83,2174.48,2171.4,2168.68,2165.05,2161.11,2157.26,2153.16,2150.52,2149.5,2149.57,2150.67,2152.19,2154.67,2158.39,2162.98,2165.71,2169.65,2173.29,2177.75,2179.25,2180.57,2181.39,2179.63,2176.04,2171.36,2166.91,2162.6,2159.18,2156.55,2153.53,2151.65,2151.96,2153.84,2157.31,2161.17,2165.16,2169.32,2172.79,2175.29,2176.52,2176.76,2176.4,2175.21,2173.06,2169.06,2164.42,2159.46,2155.52,2153.09,2151.24,2149.44,2147.47,2146.79,2147.77,2149.25,2152.26,2155.56,2158.31,2161.04,2164.19,2166.77,2169.21,2170.82,2171.87,2172.49,2172.75,2173.24,2173.44,2172.87,2171.69,2170.1,2168.69,2166.98,2164.89,2162.69,2159.52,2156.31,2153.74,2151.92,2149.99,2147.66,2144.85,2141.54,2138.8,2135.49,2132.05,2128.49,2124.84,2121.48,2118.89,2116.88,2115.63,2114.31,2114.01,2114.64,2115.86,2118.31,2121.35,2124.48,2128.76,2133.19,2137.56,2141.67,2146.01,2150.1,2153.84,2157.18,2160.83,2164.43,2167.62,2170.75,2173.52
2133.88,2128.82,2126.26,2126.72,2126.82,2132.01,2125.29,2128.55,2125.85,2122.97,2124.09,2115.43,2121.39,2122.31,2122.39,2122.06,2121.52,2120.41,2117.9,2115.08,2112.96,2110.52,2105.79,2101.26,2097.8,2095.03,2094.2,2093.73,2094.29,2092.81,2091.13,2089.97,2089.63,2089.13,2088.19,2087.48,2086,2083.5,2082.61,2083.03,2082.53,2082.86,2083.99,2085.82,2086.81,2088.49,2089.58,2090.96,2092.62,2095.75,2098.1,2100.72,2102.83,2104.98,2107,2108.92,2110.07,2110.5,2110.38,2110.02,2110.19,2110.28,2111.09,2111.13,2111.56,2111.59,2111.17,2110.29,2109.34,2107.08,2104.93,2102.2,2099.82,2097.08,2095.11,2094.13,2091.48,2091.09,2086.62,2088.12,2087.11,2084.26,2084.79,2083.76,2079.27,2078.57,2078,2077.07,2077.58,2078.4,2079.3,2079.96,2080.04,2081.71,2083.81,2085.72,2090.23,2092.09,2093.76,2092.29,2092.72,2093.31,2098.17,2112.02,2121.96,2124.58,2127.98,2133.55,2139.95,2145.15,2149.15,2151.79,2152.94,2152.8,2148.52,2152.16,2148.71,2143.92,2140.33,2137.9,2137.57,2139.17,2141.29,2143.39,2146.17,2148.15,2144.16,2144.65,2147.94,2147.08,2145.54,2143.87,2142.23,2139.44,2137.02,2137.2,2138.12,2141.69,2144.93,2148,2151.08,2153.52,2155.85,2158.57,2160.46,2161.77,2162.3,2162.24,2161.35,2147,2140.72,2156.56,2138.29,2154.68,2146.11,2129.14,2129.79,2121.4,2136.9,2135.53,2129.84,2132.76,2117.88,2132.79,2133.39,2134.45,2136.14,2137.12,2138,2139.14,2139.3,2140.26,2141.58,2141.35,2140.86,2140.51,2134.23,2137.01,2135.75,2134.85,2134.92,2134.88,2136.68,2139.09,2140.88,2144.07,2146.76,2149.04,2151.56,2152.36,2153.11,2153.42,2153.89,2154.87,2149.93,2143.73,2140.17,2140.56,2136.29,2127.98,2129.27,2122.58,2107.34,2106.33,2124.73,2122.48,2121.67,2120.75,2133.03,2144.11,2145.57,2147.63,2141.33,2142.8,2136.04,2155.56,2157.17,2137,2133.89,2134.65,2140.51,2139.28,2133.95,2137.39,2131.85,2131.28,2130.84,2135.39,2131.82,2132.29,2134.82,2137.46,2139.04,2139.88,2140.74,2143.59,2150.27,2152.18,2150.47,2146.72,2145.62,2146.63,2144.47,2142.38,2140.4,2136.36,2133.83,2128.99,2130.13,2127.91,2126.5,2129.18,2133.9,2135.25,2141.3,2141.67,2146.63,2148.18,2148.3,2148.52,2148.73,2148.71,2150.93,2150.18,2149.78,2149.86,2148.64,2146.61,2145.27,2141.32,2139.14,2133.42,2126.36,2125.9,2127,2129.3,2127.72,2126.3,2126.95,2137.48,2142.69,2142.71,2143.34,2143.8,2144.52,2145.61,2145.53,2145.21,2143.01,2141.25,2138.92,2136.59,2135.94,2135.58,2134.78,2132.99,2135.71,2140.35,2147.13,2149.43,2154.27,2161.4,2166.34,2166.03,2164.81,2163.54,2162.04,2160,2157.12,2154.68,2151.17,2147.37,2143.63,2139.29,2136.45,2134.92,2134.45,2135.21,2136.21,2138.51,2141.82,2145.91,2150.7,2154.57,2158.05,2160.06,2161.63,2163.23,2164.19,2162.95,2159.65,2155,2150.83,2146.49,2142.89,2139.9,2136.81,2134.28,2133.84,2135.2,2138.33,2141.99,2145.91,2150.33,2153.97,2157.1,2158.87,2159.98,2160.47,2160.16,2158.4,2155.39,2150.93,2146.37,2142.18,2139.74,2137.35,2135.04,2132.65,2131.21,2131.41,2132.3,2134.58,2137.57,2140.41,2143.57,2146.73,2149.8,2152.86,2155.11,2156.87,2158.04,2158.67,2158.91,2158.9,2157.99,2156.3,2153.98,2151.73,2149.28,2146.19,2143.03,2139.11,2135.07,2131.95,2130.24,2128.31,2126.44,2124.4,2122.19,2120.44,2118.34,2116.24,2113.72,2111.3,2109.04,2107.23,2105.62,2104.44,2103.32,2102.94,2103.37,2104.2,2106.03,2108.48,2111.01,2114.49,2118.23,2122.1,2125.6,2129.47,2133.21,2136.64,2139.78,2143.37,2146.88,2149.88,2152.98,2155.77
2113.93,2109.31,2107.45,2107.99,2110.34,2110.99,2103.02,2094.71,2090.91,2089.47,2090.05,2092.67,2094.23,2095.31,2095.71,2101.48,2102.99,2103.9,2103.16,2101.26,2100.18,2098.55,2094.47,2090.37,2086.92,2084.59,2083.59,2083.09,2082.73,2080.34,2077.32,2075.24,2074,2072.77,2071.24,2069.76,2067.88,2065.37,2064.32,2064.51,2064.45,2065.26,2066.65,2068.64,2070.32,2072.24,2074,2075.93,2078.83,2081.98,2087.37,2089.49,2091.89,2093.8,2095.82,2097.34,2098.18,2098.26,2097.45,2094.24,2093.68,2093.32,2093.48,2092.72,2092.82,2092.77,2092.13,2091.29,2090.85,2089.52,2088.01,2086.44,2085.16,2083.32,2082.05,2083.58,2084.6,2082.08,2077.73,2078.85,2077.58,2071.99,2073.59,2070.59,2067.53,2062.17,2060.12,2057.99,2057.34,2056.94,2057.31,2057.5,2057.12,2058.19,2060,2062.08,2064.28,2066.46,2068.34,2070.19,2071.11,2072.33,2073.97,2079.98,2092.16,2104.37,2108.84,2119.32,2126.19,2131.54,2135.18,2137.99,2139.24,2139.41,2135.44,2139.11,2136.36,2132.3,2129.02,2127.53,2127.24,2128.37,2129.8,2131.1,2133.27,2134.65,2129.99,2130.14,2133.32,2132.17,2130.26,2128.1,2125.74,2122.35,2119.26,2118.79,2119.19,2121.77,2124.53,2127.23,2129.96,2132.03,2134.3,2136.86,2138.66,2140,2140.79,2141.01,2140.86,2126.96,2121.31,2138.04,2120.44,2137.59,2130.05,2118.49,2106.47,2112.04,2123.05,2121.87,2120.63,2115.04,2113.52,2110.2,2119.59,2120.57,2122.12,2123.22,2124.22,2125.01,2125.2,2126.14,2127.1,2126.62,2125.32,2124.19,2121.73,2115.31,2117.95,2116.95,2116.6,2116.24,2117.7,2120.33,2122.28,2125.39,2128.01,2130.6,2132.86,2133.84,2130.02,2134.75,2135.27,2135.98,2131.16,2120.72,2113.11,2109.12,2101.07,2105.93,2098.71,2092.11,2090.24,2098.28,2099.25,2101.48,2096.02,2108.06,2120.29,2127.15,2128.67,2121.74,2123.75,2116.34,2135.6,2133.14,2117.1,2113.96,2115.26,2120.34,2121.32,2115.55,2118.53,2117.62,2111.99,2111.73,2111.51,2111.98,2112.79,2113.99,2116.66,2119.61,2121.27,2124.53,2125.21,2128.11,2130.06,2131.77,2129.82,2128.44,2129.67,2128.23,2125.88,2123.04,2121.3,2118.38,2111.73,2109.97,2114.3,2112.43,2113.93,2114.61,2120.77,2122.48,2128.47,2128.5,2133.65,2135.23,2135.66,2135.87,2136.21,2136.23,2138.29,2137.37,2137.03,2134.55,2133.33,2133.5,2129.96,2127.95,2124.87,2118.92,2111.88,2116.05,2113.17,2117.71,2111.78,2117.43,2118.72,2129.47,2130.42,2130.62,2130.97,2131.48,2132.15,2132.87,2132.36,2131.43,2128.87,2126.62,2124.24,2121.51,2120.35,2119.48,2116.52,2115.33,2120.52,2125.3,2132.13,2136.75,2139.52,2149.03,2151.59,2150.94,2149.49,2148.21,2146.92,2145.19,2142.35,2140.18,2136.73,2133.65,2129.65,2125.57,2122.6,2120.63,2119.7,2119.83,2120.39,2122.17,2124.89,2128.62,2132.95,2136.36,2139.49,2141.59,2143.11,2144.68,2145.86,2145.08,2142.49,2138.61,2134.66,2130.57,2127.16,2124.47,2120.95,2118.2,2117.29,2117.81,2120.47,2123.6,2127.47,2131.82,2135.65,2138.77,2141.39,2143.12,2144.67,2145.04,2143.89,2141.36,2137.51,2133.4,2129.45,2126.77,2123.98,2121.4,2118.38,2116.51,2115.87,2116.02,2117.5,2119.85,2122.83,2125.82,2129.18,2132.47,2135.77,2138.52,2140.59,2142.44,2143.27,2143.36,2143.17,2142.12,2139.9,2137.19,2134.22,2131.06,2127.12,2123.25,2118.58,2114.19,2110.82,2108.9,2107.19,2105.55,2104.27,2102.88,2102.36,2101.85,2100.7,2099.31,2097.83,2096.48,2095.59,2094.39,2093.33,2092.23,2091.57,2091.64,2092.05,2093.66,2095.61,2097.41,2100.19,2103.07,2106.11,2109.12,2112.4,2115.63,2118.54,2121.48,2124.88,2128.46,2131.36,2134.33,2136.83
2091.62,2090.22,2088.93,2093.83,2094.75,2093.37,2080.23,2075.06,2070.56,2068.7,2077.66,2071.79,2071.07,2074.23,2079.42,2082.44,2085.34,2087.57,2087.42,2087.07,2087.1,2086.28,2082.95,2079.12,2075.41,2072.84,2071.64,2070.61,2069.49,2066.18,2062.4,2059.49,2057.71,2056.33,2054.36,2052.64,2050.3,2047.69,2046.59,2046.81,2047.38,2048.72,2050.58,2052.99,2052.73,2057.2,2059.44,2061.9,2062.72,2069.38,2073.53,2075.98,2077.95,2079.03,2080.45,2081.59,2082.05,2082.09,2080.94,2078.51,2076.28,2075.73,2075.89,2075.23,2075.22,2075.51,2075,2074.37,2074.1,2073.65,2072.85,2072.24,2071.44,2070.21,2071.8,2072.36,2073.26,2070.76,2070.85,2067.16,2063.51,2060.02,2059.1,2057.77,2051.41,2047.5,2044.72,2041.76,2040.13,2038.88,2037.97,2037.46,2036.27,2036.47,2037.79,2039.47,2041.2,2043.55,2046,2048.14,2049.65,2051.76,2054.04,2056.62,2060.92,2074.19,2087.88,2103.35,2110.49,2115.29,2118.44,2121.7,2123.46,2124.26,2121.14,2125.55,2122.66,2119.37,2118.47,2117.66,2117.44,2117.55,2117.93,2118.71,2120.4,2121.43,2116.47,2116.21,2110.04,2117.06,2114.41,2111.64,2108.32,2104.21,2099.82,2098.46,2098.11,2100.15,2102.72,2105.18,2107.85,2109.88,2112.04,2114.52,2116.18,2117.6,2118.59,2119.27,2119.69,2106.75,2102.22,2120.03,2103.3,2121.38,2114.8,2103.92,2114.66,2089.33,2104.55,2107.53,2106.74,2105.38,2094.99,2104.63,2096.17,2105.94,2107.36,2108.5,2109.29,2109.83,2109.65,2110.46,2111.49,2110.88,2109.2,2107.22,2104.42,2102.05,2095.69,2099.23,2098.46,2097.71,2099.02,2101.73,2104.21,2107.34,2110.05,2112.14,2114.16,2115.11,2111.29,2111.57,2112.12,2108.52,2099,2097.41,2090.31,2086.69,2087.67,2084.36,2073.05,2070.58,2077.8,2077.75,2074.69,2077.03,2084.8,2092.49,2100.12,2098.25,2100.05,2101.48,2098.5,2112.9,2114.45,2098.28,2095,2096.2,2097.02,2101.88,2098.55,2101.12,2099.35,2094.19,2093.32,2092.84,2092.97,2093.26,2094.04,2095.41,2098.32,2101.22,2102.88,2105.85,2108.77,2109.19,2113.63,2112.97,2111.29,2112.2,2111.08,2107.31,2107.47,2104.32,2102.48,2095.89,2094.26,2097.3,2097.53,2096.13,2097.97,2101.46,2105.92,2108.23,2114,2112.39,2120.1,2121.63,2122.39,2122.69,2121.05,2121.18,2125.7,2122.69,2122.35,2121.56,2120.34,2117.93,2114.37,2114.3,2111.11,2104.8,2102.23,2104.52,2104.03,2106.37,2105.2,2108.5,2107.55,2116.4,2117.3,2117.37,2117.53,2117.96,2118.31,2118.64,2117.79,2116.29,2113.8,2111.33,2108.72,2105.87,2104.39,2101.01,2098.65,2102.06,2103.33,2110.01,2114.49,2119.42,2124.14,2133.88,2136.3,2135.46,2133.43,2132.17,2131.2,2129.65,2126.96,2125.08,2122.01,2118.91,2115.65,2111.58,2108.64,2106.44,2104.86,2104.63,2104.53,2105.83,2107.79,2110.6,2114.02,2116.64,2119.33,2121.31,2122.87,2124.36,2125.75,2125.32,2123.39,2120.53,2117.34,2113.98,2111.05,2108.76,2105.58,2102.72,2101.32,2101.37,2103.19,2106.08,2109.45,2113.3,2116.63,2119.94,2122.98,2125.38,2127.2,2128.36,2127.95,2126.14,2123.4,2119.77,2116.26,2113.52,2110.52,2107.44,2104.39,2102.15,2100.88,2100.33,2100.97,2102.79,2105.69,2108.76,2111.86,2115.25,2118.64,2121.2,2123.75,2125.58,2126.9,2126.82,2126.36,2124.86,2122.73,2119.46,2116.62,2112.89,2108.72,2103.84,2098.9,2094.01,2090.44,2087.99,2086.37,2084.75,2083.92,2083.51,2084.06,2084.56,2084.55,2084.38,2083.84,2083.49,2083.41,2083.03,2082.34,2081.29,2080.6,2080.29,2080.2,2081.11,2082.12,2082.99,2084.87,2087.21,2089.66,2092.04,2094.75,2097.7,2100.29,2102.94,2106.13,2109.31,2112.16,2115.09,2117.61
2070.12,2068.57,2070.23,2075.74,2079.31,2078.01,2073.2,2067.8,2052.77,2056.72,2060.96,2056.87,2056.54,2059.19,2060.41,2063.88,2067.65,2070.81,2072.36,2073.69,2075.01,2074.52,2071.98,2068.39,2064.45,2061.33,2059.62,2058.26,2056.11,2051.48,2046.33,2042.68,2040.36,2038.72,2036.31,2034.4,2032.3,2029.26,2028.42,2028.95,2029.81,2031.75,2034.2,2037.07,2039.55,2042.29,2045.17,2048.04,2052.54,2057.39,2061.27,2063.65,2065.34,2065.6,2066.61,2067.24,2067.27,2066.89,2065.41,2062.33,2059.84,2059.25,2059.59,2059.14,2059.46,2059.93,2059.55,2059.35,2059.42,2059.08,2058.94,2058.74,2058.05,2056.79,2058.41,2060.07,2060.99,2058.32,2056.12,2057.08,2051.2,2047.93,2046.93,2045.41,2038.37,2033.92,2030.87,2027.78,2025.92,2024.16,2022.73,2021.91,2020.15,2019.62,2019.96,2020.87,2021.85,2023.49,2025.41,2027.31,2029.52,2032.64,2035.79,2039.32,2043.79,2048.69,2067.15,2082.86,2094.04,2098.07,2101.13,2104.62,2107.06,2108.7,2106.71,2111.68,2110.08,2108.25,2107.69,2107.19,2106.53,2106.22,2105.94,2105.62,2106.71,2107.74,2102.4,2101.22,2103.4,2100.68,2097.44,2093.93,2090.36,2085.2,2080.32,2078.49,2077.8,2079.37,2081.35,2083.2,2085.51,2087.26,2089.04,2090.92,2092.14,2093.79,2095.29,2096.35,2097.72,2085.5,2082.15,2101.3,2085.62,2104.89,2099.22,2088.69,2086.23,2083.81,2090.41,2093.36,2092.63,2091.51,2089.77,2085.94,2090.83,2082.88,2093.05,2094.21,2094.88,2094.89,2094.34,2094.61,2095.16,2094.4,2092.24,2089.4,2086.73,2084.41,2082.65,2077.35,2081.07,2080.64,2081.67,2084.44,2087.21,2089.85,2092.42,2094.62,2096.4,2097.44,2089.2,2085,2085.79,2081.98,2077.12,2075.82,2073.83,2071.15,2068.29,2061.15,2058.81,2060.96,2059.93,2055.9,2057.64,2063.96,2067.45,2070.36,2078.01,2071.72,2073.85,2079.45,2089.22,2090.05,2078.03,2079.01,2079.67,2080.02,2085,2080.75,2081.4,2079.15,2077.08,2076.16,2075.27,2074.7,2074.76,2074.79,2075.64,2076.67,2079.74,2082.41,2083.7,2086.31,2086.79,2091.76,2093.97,2093.42,2091.92,2093.08,2089.68,2090.7,2088.62,2083.83,2080.08,2078.48,2082.26,2080.96,2081.27,2080.18,2082.65,2086.52,2091.08,2093.96,2100.02,2098.62,2106.72,2108.67,2110.11,2108.42,2109.13,2109.39,2109.45,2111.34,2108.8,2108.36,2106.96,2104.41,2102.67,2102.14,2098.67,2091.68,2088.42,2090.01,2089.19,2093.61,2092.65,2093.72,2097.6,2101.76,2102.88,2102.91,2102.96,2103.39,2103.62,2103.61,2102.35,2099.83,2097.29,2094.88,2090.09,2086.83,2085.14,2084.07,2083.8,2087.91,2092.3,2094.8,2101.08,2103.35,2107.74,2115.01,2119.58,2118.75,2116.75,2115.19,2114.02,2112.57,2110.3,2107.88,2105.15,2102.27,2099.29,2095.69,2093.01,2090.26,2088.16,2087.36,2087.65,2088.32,2089.53,2091.45,2093.87,2095.72,2097.92,2099.59,2100.88,2102.3,2103.66,2103.85,2102.63,2100.81,2098.58,2095.94,2093.65,2091.97,2089.24,2086.59,2085.05,2084.67,2085.98,2088.43,2091.55,2095.05,2097.92,2101.07,2104.2,2106.95,2109.42,2110.93,2111.04,2110.11,2108.15,2105.67,2102.84,2099.88,2096.57,2093.28,2089.71,2086.72,2085.14,2084.46,2084.46,2085.76,2088.45,2091.59,2094.83,2097.9,2101.03,2103.69,2105.59,2107.53,2108.71,2108.5,2107.66,2106.14,2103.97,2100.81,2097.7,2093.79,2089.22,2084.07,2078.76,2074.08,2070.81,2068.54,2067.04,2065.63,2065.33,2065.68,2066.91,2068.5,2069.44,2070.03,2070.78,2071.16,2071.81,2071.98,2071.73,2070.89,2070.36,2069.93,2069.77,2070.01,2070.55,2070.87,2071.64,2072.96,2074.5,2076.09,2077.97,2080.03,2082.25,2084.64,2087.66,2090.8,2093.66,2096.55,2098.97
2040.3,2042.66,2047.87,2054.67,2059.32,2061.3,2057.14,2052.31,2047.77,2044.76,2042.13,2040.21,2035.36,2039.38,2040.46,2044.61,2049,2053.46,2056.94,2059.59,2061.63,2061.93,2060.12,2056.59,2052.45,2049.08,2046.42,2043.75,2040.69,2035.2,2029.22,2025.27,2022.66,2020.5,2017.81,2015.67,2013.32,2010.32,2009.49,2010.56,2011.9,2014.49,2017.34,2020.76,2024.02,2027.21,2030.89,2034.3,2038.74,2044,2047.89,2050.79,2051.74,2051.22,2051.65,2051.78,2051.51,2051.01,2048.9,2045.45,2042.25,2041.72,2042.27,2042.18,2042.69,2043.41,2043.43,2043.3,2043.91,2044.25,2044.61,2044.92,2044.28,2043.15,2045.54,2046.77,2047.71,2042.77,2040.53,2039.11,2035.65,2034.67,2033.82,2031.9,2024.29,2019.67,2016.61,2013.51,2011.6,2009.68,2008.4,2007.05,2006.21,2005.55,2005.72,2005.96,2006.14,2007.05,2008.24,2009.46,2012.53,2016.48,2020.38,2024.41,2029.04,2034.02,2040.1,2065.34,2075.82,2083.74,2085.87,2088.23,2090.7,2092.52,2094.89,2095.38,2093.66,2092.62,2092.51,2092.35,2092.04,2091.9,2091.35,2090.78,2091.83,2092.72,2087.22,2085.68,2087.67,2085.14,2082.34,2079.54,2076.76,2071.87,2066.98,2064.61,2063.6,2064.18,2065.03,2065.96,2067.33,2068.32,2069.23,2070.38,2071.2,2072.61,2074.04,2076.22,2077.52,2065.82,2063.38,2083.09,2067.55,2086.74,2081.45,2071.67,2069.9,2064.12,2080.18,2078.86,2078.48,2077.71,2077.29,2078.19,2074.23,2079.66,2071.61,2081.47,2081.89,2081.43,2080.52,2080.27,2079.68,2078.98,2076.26,2073.18,2070.26,2067.48,2065.55,2064.86,2060.3,2065.1,2065.96,2068.79,2071.54,2074.2,2076.95,2079.34,2081.06,2081.97,2065.18,2065.73,2062.14,2058.75,2062.84,2062.12,2056.55,2055.45,2053.15,2050.8,2048.59,2046.5,2045.71,2046.78,2048.3,2050.12,2052.19,2054.89,2058.08,2060.63,2067.32,2077.16,2077.67,2064.83,2065.39,2065.81,2065.75,2065.66,2065.48,2065.17,2065.39,2062.37,2060.28,2059.13,2058.48,2057.95,2057.92,2057.41,2057.69,2058.16,2061.17,2063.17,2063.86,2063.49,2068.1,2068.47,2073.15,2072.57,2071.37,2070.51,2069.68,2070.86,2064.46,2060.57,2060.1,2066.59,2066.46,2065.96,2066.61,2065.52,2068.6,2072.66,2077.45,2080.41,2086.47,2087.59,2093.69,2096.27,2098.19,2096.66,2097.58,2098.08,2098.29,2098.04,2098.02,2097.68,2096.09,2093.57,2091.68,2088.65,2084.67,2079.14,2077.54,2080.89,2079.76,2079.11,2080.31,2081.13,2082.86,2084.99,2088.72,2088.79,2088.66,2088.98,2089.07,2089.07,2088.02,2085.92,2083.57,2081.58,2079.46,2072.5,2070.61,2071.66,2070.58,2073.44,2077.33,2081.46,2085.08,2088.63,2090.51,2097.72,2102.13,2101.56,2100.13,2098.67,2097.44,2096.39,2094.31,2092.36,2089.97,2087.45,2084.95,2081.9,2079,2076.17,2073.84,2072.41,2071.68,2071.56,2071.82,2072.75,2073.99,2075.06,2076.44,2077.81,2079.01,2080.25,2081.95,2082.65,2082.15,2081.05,2079.85,2078.46,2077.2,2076.08,2074.28,2072.21,2070.81,2070.35,2071.27,2073.08,2075.42,2078.13,2080.81,2083.56,2086.63,2089.56,2092.27,2094.08,2094.95,2094.91,2093.79,2092.18,2089.99,2087,2083.57,2080.04,2076.57,2073.38,2071.32,2069.8,2069.11,2069.7,2071.99,2074.82,2077.8,2080.58,2083.32,2085.47,2087.42,2089.12,2090.1,2089.46,2088.62,2086.53,2084.1,2081.11,2078.18,2074.21,2069.75,2064.83,2060.13,2056.1,2053.31,2051.17,2049.7,2048.57,2048.28,2049.28,2050.87,2053.3,2054.93,2056.16,2057.39,2058.16,2059.27,2060,2060.16,2059.93,2059.6,2059.6,2059.38,2059.58,2059.79,2059.62,2059.88,2060.63,2061.38,2062.15,2063.23,2064.62,2066.16,2067.98,2070.49,2073.39,2075.88,2078.61,2080.91
2017.32,2021.27,2025.06,2033.1,2031.19,2038.55,2039.44,2035.59,2031.57,2028.57,2025.46,2023.34,2022.12,2021.27,2022.31,2026.11,2030.59,2035.96,2040.46,2044.1,2046.96,2047.85,2046.21,2042.94,2038.93,2035.73,2032.72,2029.17,2025.43,2019.32,2013.55,2009.07,2005.95,2003.1,1999.75,1996.82,1994.31,1991.3,1991.02,1992.37,1994.11,1997.14,2000.42,2004.11,2008.43,2012.53,2016.62,2020.14,2024.63,2029.76,2033.6,2036.1,2036.71,2035.39,2034.99,2034.25,2033.5,2032.69,2030.23,2026.56,2023.5,2022.92,2023.45,2023.76,2024.59,2025.76,2026.01,2026.33,2027.34,2028.38,2029.42,2030.06,2029.68,2026.71,2028.79,2030.47,2031.2,2027.99,2025.65,2026.61,2021.25,2020.56,2019.54,2017.05,2009.47,2004.73,2002.01,1999.23,1997.55,1995.73,1994.58,1993.46,1992.61,1992.24,1992.45,1992.53,1992.56,1992.83,1993.59,1994.87,1998.09,2002.49,2006.79,2010.7,2015.67,2020.79,2031.6,2052.48,2058.42,2065.62,2071.55,2073.22,2075.08,2076.71,2078.7,2074.75,2073.17,2076.77,2076.94,2077.36,2077.2,2076.78,2076.2,2075.17,2076.33,2077.17,2072.22,2070.87,2073.58,2071.6,2069.47,2066.91,2064.59,2059.88,2054.86,2052.29,2050.51,2049.89,2049.53,2049.62,2050.38,2050.36,2050.82,2052.03,2052.66,2053.9,2054.92,2056.32,2057.74,2050.99,2049.07,2064.48,2057.88,2068.14,2063.98,2060.31,2064.99,2055.8,2063.52,2066.88,2067.16,2067,2067.14,2067.85,2068.18,2068.78,2069.38,2065.62,2070.29,2069.55,2068.03,2066.75,2064.6,2063.34,2060.9,2058.12,2054.99,2052.14,2050.12,2049.45,2049.76,2046.67,2052.06,2054.2,2056.59,2058.76,2061.61,2064.22,2066.08,2067.14,2050.38,2050.93,2047.33,2048.33,2044.12,2043.92,2044.07,2043.67,2041.98,2039.83,2037.13,2034.47,2034.22,2035.53,2037.41,2039.54,2041.11,2043.71,2047.18,2050.53,2053.71,2054.64,2054.89,2054.93,2055.08,2055.04,2054.68,2054.07,2053.17,2052.17,2051.43,2048.22,2045.8,2044.52,2043.72,2043.13,2042.7,2041.64,2041.42,2041.53,2043.94,2045.13,2045.15,2044.54,2048.76,2048.81,2051.54,2053.67,2050.74,2052.38,2052.21,2046.68,2045.59,2044.49,2047.48,2050.33,2052.84,2050.76,2053.84,2052.92,2051.77,2053.78,2058.01,2065.59,2073.83,2075.32,2081.56,2084.78,2087.38,2086.21,2087.17,2087.73,2088.17,2088.11,2088.33,2087.87,2086.55,2083.95,2082.05,2076.27,2071.72,2072.34,2068.13,2068.68,2066.81,2065.8,2068.68,2068.87,2068.15,2072.74,2074.35,2072.04,2073.95,2074.16,2074.07,2073.69,2072.82,2071.48,2067.57,2066.1,2064.79,2062.75,2061.22,2062.58,2059.19,2061.06,2063.65,2068.8,2071.4,2072.4,2075.41,2082.03,2083.98,2083.9,2083.26,2082.56,2081.7,2081.14,2079.61,2078.35,2076.72,2074.67,2072.58,2069.91,2067.05,2063.95,2061.16,2059.14,2057.32,2056.09,2055.4,2055.01,2055.16,2055.36,2056.39,2057.56,2058.64,2060.18,2062.22,2063.48,2063.99,2064.15,2063.95,2063.72,2063.31,2063.03,2062.05,2060.23,2058.78,2058.23,2058.74,2059.81,2061.09,2062.81,2064.7,2066.63,2069.47,2072.75,2075.29,2077.27,2078.65,2079.46,2079.38,2078.54,2077.24,2074.97,2072.01,2069.05,2066.1,2062.95,2060.61,2058.2,2056.52,2056.27,2057.71,2059.6,2062.04,2064.32,2066.4,2068.12,2069.89,2071.44,2071.93,2071.05,2070.3,2068.19,2065.81,2062.69,2059.88,2056.38,2052.26,2047.67,2043.23,2039.5,2036.89,2034.76,2033.76,2032.85,2032.48,2033.19,2035.1,2037.48,2039.13,2040.66,2042.02,2043.54,2045.18,2046.62,2047.45,2047.95,2048.32,2048.81,2049.29,2049.74,2049.84,2049.54,2049.39,2049.68,2049.93,2049.85,2050.02,2050.66,2051.59,2052.78,2054.79,2057.22,2059.57,2061.9,2064.02
1998.24,1999.97,2001.83,2010.8,2012.31,2018.37,2022.44,2021.2,2017.25,2014.11,2010.68,2008.18,2006.01,2004.5,2004.94,2006.21,2012.49,2015.93,2022.88,2026.91,2029.94,2030.59,2028.83,2025.68,2022.26,2019.45,2016.66,2013.51,2009.88,2003.82,1998.71,1994.9,1991.15,1987.45,1983.26,1979.79,1976.99,1974.04,1974.01,1975.51,1977.32,1980.6,1984.29,1988.43,1993.39,1997.93,2002.43,2005.96,2010.55,2015.54,2019.02,2020.81,2021.01,2018.67,2017.44,2015.63,2013.73,2011.95,2009.17,2005.82,2002.82,2002.47,2003.19,2003.81,2005,2006.78,2007.6,2008.49,2010.14,2011.53,2012.72,2013.81,2013.74,2013.32,2016.13,2017.43,2018.19,2015,2014.65,2013.23,2005.72,2004.85,2003.68,1998.94,1993.65,1989.36,1987.16,1984.76,1983.42,1981.7,1980.84,1980.27,1979.95,1979.77,1979.9,1979.73,1979.04,1978.93,1979.48,1980.28,1983.89,1988.62,1993.54,1997.63,2002.35,2007.78,2013.6,2024.43,2034.07,2045.27,2054.86,2055.72,2057.47,2059.04,2060.73,2061.41,2060.72,2060.32,2060.93,2061.5,2061.68,2060.8,2059.91,2058.85,2060.04,2060.94,2056.01,2055.04,2058.11,2056.78,2055.5,2053.47,2051.58,2047.3,2042.56,2039.46,2037.01,2035.53,2034.54,2034.02,2034.21,2034.07,2034.3,2035.24,2035.96,2037.12,2037.74,2038.31,2039.49,2032.97,2031.14,2046.42,2034.83,2049.88,2050.92,2043.86,2050.1,2041.87,2050.3,2054.27,2055.05,2055.5,2056.24,2056.79,2056.75,2057.2,2057.59,2058.08,2048.85,2056.8,2054.82,2052.71,2049.51,2047.71,2045.47,2042.7,2039.83,2036.84,2035.46,2035.4,2036.22,2038.21,2039.26,2036.35,2038.3,2044.88,2047.9,2049.93,2051.77,2053.04,2032.1,2033.12,2029.76,2030.71,2030.87,2030.69,2032.57,2031.85,2030.9,2028.44,2024.95,2022,2021.59,2022.46,2023.8,2025.19,2026.92,2028.41,2031.94,2036.2,2039.61,2040.99,2041.37,2041.42,2041.33,2041.35,2040.59,2039.75,2038.82,2037.65,2036.69,2033.63,2031.57,2030.18,2028.87,2027.72,2026.61,2025.23,2024.59,2024.32,2026,2026.38,2026.09,2028.25,2025.79,2028.52,2031.3,2033.98,2036.12,2036.14,2031.82,2031.43,2030.9,2032.9,2036.38,2039.67,2040.12,2040.31,2041.04,2042.5,2041.33,2041.02,2049.85,2057.32,2060.95,2064.9,2069.36,2073.24,2076.49,2075.77,2076.78,2077.28,2077.58,2077.53,2077.71,2077.06,2075.79,2073.4,2071.16,2067.62,2067.29,2060.84,2058.48,2059,2056.69,2055.04,2054.97,2054.68,2055.93,2057.95,2059.45,2059.26,2058.63,2058.65,2058.42,2057.92,2057.5,2054.5,2053.27,2052.41,2051.58,2050.28,2049.4,2051.11,2051.86,2048.57,2050.06,2053.81,2055.69,2055.79,2060.23,2064.13,2066.02,2066.48,2066.63,2066.96,2067.27,2067.28,2066.42,2065.56,2064.54,2063.33,2061.62,2059.04,2056.17,2052.8,2049.09,2046.07,2043.36,2040.85,2038.79,2037.16,2036.2,2035.8,2036.29,2037.35,2038.65,2040.46,2042.74,2044.73,2046.56,2048.04,2049.23,2050.06,2050.73,2051.09,2050.71,2049.49,2048.06,2047.4,2047.23,2047.76,2048.38,2049.52,2050.71,2052.31,2055.01,2057.97,2060.51,2062.52,2064.33,2065.66,2066.63,2066.69,2066.06,2064.18,2062.07,2060,2057.62,2055.03,2052.65,2049.44,2046.52,2045.23,2045.41,2045.92,2046.92,2048.07,2049.32,2050.45,2052.23,2053.79,2053.75,2052.68,2051.84,2050.23,2048.23,2045.47,2042.89,2039.53,2035.92,2032.2,2028.75,2025.57,2023.05,2020.92,2019.93,2019.18,2018.72,2019.11,2020.25,2022.07,2023.5,2024.71,2026.47,2028.21,2029.98,2031.93,2033.29,2034.45,2035.53,2036.72,2037.7,2038.65,2039.21,2039.34,2039.22,2039.34,2039.24,2038.58,2038.08,2037.97,2038.04,2038.38,2039.6,2041.45,2043.31,2045.32,2047.28
1982.33,1985.7,1989.46,1994.87,1998.95,2003.19,2009.79,2009.2,2005.5,2002.74,1998.9,1995.99,1990.85,1990.58,1990.23,1993.23,1997.17,2002.27,2007.05,2011.76,2015.3,2016.3,2015.18,2012.89,2010.52,2008.44,2006.01,2002.73,1998.85,1992.74,1987.36,1982.81,1978.15,1973.5,1969.33,1966.11,1963.36,1960.3,1960.18,1961.69,1963.65,1966.98,1970.77,1974.72,1979.48,1983.97,1988.37,1992.36,1996.91,2001.5,2004.31,2005.12,2004.56,2001.69,1999.36,1996.18,1992.99,1990.51,1987.92,1985.17,1982.79,1982.5,1983.61,1984.46,1986.25,1988.73,1990.13,1991.35,1993.31,1994.84,1996.6,1998,1998.25,1998.16,2000.61,2001.58,2002.01,2000.71,1997.74,1998.61,1989.28,1988.2,1986.8,1982.31,1977.84,1973.82,1972.14,1970.52,1969.44,1968.19,1967.79,1967.84,1968.02,1967.86,1968.12,1967.55,1966.48,1965.81,1966.22,1967.1,1970.86,1975.96,1980.68,1984.61,1989,1994.24,1999.77,2005.24,2014.28,2019.84,2028.73,2038.12,2035.32,2041.59,2043.26,2044.32,2044.18,2044.21,2045.32,2046.53,2046.44,2045.1,2044.06,2042.87,2043.83,2044.54,2039.85,2039.08,2042.59,2037.31,2041.11,2039.49,2038.05,2034.24,2020.37,2026.31,2023.75,2021.63,2020.09,2019.13,2019,2018.71,2018.64,2019.5,2019.83,2020.69,2020.82,2020.58,2021.21,2014.9,2008.61,2028.51,2016.81,2032.48,2029.67,2023.52,2035.22,2027.85,2027.89,2041.19,2042.3,2043.16,2034.82,2039.68,2039.38,2044.13,2044.41,2035.73,2039.76,2033.57,2035.81,2037.56,2033.68,2031.67,2029.8,2027.47,2024.44,2017.46,2016.63,2021.65,2023.33,2026,2027.17,2019.26,2025.13,2027.53,2030.21,2036.58,2033.8,2026.37,2018.88,2020.26,2017.27,2018.16,2018.23,2018.09,2020.52,2019.7,2018.51,2015.73,2011.23,2007.62,2006.75,2007.14,2008.26,2009.19,2010.27,2011.83,2015.31,2019.68,2023.64,2025.11,2025.64,2025.88,2025.96,2026.1,2025.46,2024.74,2023.7,2022.2,2021.46,2018.97,2017.39,2016.44,2014.43,2013.16,2011.8,2009.88,2009.07,2008.28,2008.94,2008.35,2007.52,2007.28,2007.7,2008.44,2012.17,2015.36,2015.86,2014.31,2015.24,2015.58,2017.9,2020.75,2022.26,2018.61,2021,2025.81,2028.56,2024.96,2025.57,2027.13,2031.06,2042.89,2046.82,2048.86,2055.66,2059.59,2062.74,2062.06,2062.97,2063.34,2063.41,2063.26,2063.15,2062.53,2061.5,2059.77,2057.75,2056.01,2053.78,2049.69,2046.94,2045.53,2042.67,2040.21,2039.45,2038.75,2033.58,2042.12,2043.49,2043.14,2041.86,2041.9,2041.92,2039.55,2039.66,2036.88,2038.59,2038.33,2038.31,2039.9,2039.37,2038.87,2039.43,2039.55,2037.92,2038.62,2039.74,2041.79,2043.59,2047.64,2049.8,2050.81,2052.1,2053.4,2054.62,2055.35,2055.08,2054.87,2054.57,2053.83,2052.62,2050.25,2047.22,2043.27,2038.96,2034.67,2030.42,2026.57,2023.19,2020.31,2018.2,2017.13,2016.82,2017.82,2019.14,2021.19,2024.11,2026.7,2029.33,2031.84,2034.11,2036.16,2037.7,2038.77,2039.18,2038.54,2037.64,2036.87,2036.36,2036.26,2036.15,2036.45,2037.06,2038.26,2040.79,2043.27,2045.68,2048.05,2050.5,2052.53,2054.19,2055.24,2055.38,2054.06,2052.46,2050.77,2048.62,2046.69,2044.15,2040.84,2037.35,2034.97,2033.77,2032.73,2032.36,2032.03,2031.89,2031.67,2032.89,2034.13,2033.98,2032.74,2032.04,2030.84,2029.84,2028.19,2026.58,2024.05,2020.95,2018.28,2015.6,2013.15,2010.84,2008.66,2007.22,2006.02,2005.28,2005.41,2006.15,2007.45,2008.48,2009.36,2010.88,2012.55,2014.41,2016.73,2018.6,2020.22,2021.72,2023.63,2025.57,2027.15,2028.36,2028.69,2028.67,2028.75,2028.55,2027.48,2026.34,2025.47,2024.63,2024.09,2023.99,2025.02,2025.9,2026.97,2028.55
