0,0,0,0,0,0,0,0,0,0,0,0,0,0,0,0,0,0,0,0,0,0,0,0,0,0,0,0,0,0,0,0,0,0,0,4000,4000,4000,4000,4000,4000,4000,4000,4000,4000,4000,4000,4000,4000,4000,4000,4000,4000,4000,4000,4000,0,0,0,0,0,0,0,0,0,0,0,0,0,0,0,0,0,0,0,0,0,0,0,0,0,77.906,445.428,1372.16,2906.92,3206.47,3233.15,3251.96,3255.67,3257.6,3257.84,3257.84,3257.82,3257.82,3257.81,3257.77,3257.67,3257.41,3257.21,3257.09,3257,3256.78,3256.67,3256.62,3256.53,3256.53,3256.57,3256.45,3256.27,3256.2,3256.12,3255.89,3255.62,3255.39,3255.36,3249.12,3238.36,3226.85,3219.03,3206.41,3190.99,3172.82,3140.08,3118.4,3100.58,3081.46,3067.91,3061.32,3052.88,3049.5,3053.48,3057.45,3056.78,3050.71,3061.21,3049.62,3027.97,3019.82,3020.85,3029.25,3034.27,3046.79,3068.14,3075.02,3115.82,3179.46,3215.59,3245.42,3264.56,3277.66,3285.68,3293.11,3294.12,3301.11,3318.09,3324.99,3321.97,3316.82,3317.45,3317.8,3316.18,3310.63,3307.5,3302.5,3298.35,3298.18,3295.34,3285.86,3275.71,3265.4,3258.74,3251.85,3246.15,3240.58,3236.26,3234,3234.07,3234.21,3234.94,3234.24,3233.65,3234.13,3234.01,3231.67,3229.71,3226.48,3222.39,3218.91,3214.64,3210.97,3207.08,3201.72,3197.79,3193.01,3190.67,3187.88,3187.31,3188.02,3187.58,3187.79,3189.86,3192.3,3195.57,3199.1,3201.11,3200.36,3200.73,3202.18,3203.37,3202.69,3202.51,3201.41,3200.32,3201.94,3210.26,3214.66,3215.97,3217.32,3218.85,3219.3,3218.03,3215.02,3210.19,3201.23,3196.27,3191.84,3189.49,3189.58,3191.28,3195.17,3199.48,3204.54,3211.2,3216.48,3224.74,3231.22,3236.39,3239.85,3238.79,3235.15,3230.93,3226.3,3222.23,3215.82,3207.76,3197.92,3189.35,3181.56,3175.36,3168.91,3160.61,3152.68,3146.17,3140.82,3138.43,3136.77,3136.77,3137.33,3138.47,3139.64,3140.62,3141.14,3141.22,3143.02,3147.62,3151.81,3155.54,3160.37,3166.88,3173.79,3182.09,3189.45,3195.35,3200.61,3205,3209.05,3212.46,3215,3217.3,3217.35,3217.43,3217.37,3214.32,3210.05,3207.56,3204.94,3201.67,3198.43,3196.5,3195.51,3193.18,3192.84,3190.3,3188.8,3185.63,3181.8,3177.12,3172.55,3166.73,3163.07,3159.86,3157.67,3151.84,3147.82,3146.36,3147.66,3148.33,3147.49,3144.77,3139.96,3136.54,3138.49,3139.87,3136.84,3133.14,3130.28,3129.72,3130.09,3131.11,3132.46,3130.58,3129.11,3130.2,3131.31,3132.79,3135.11,3136.06,3136.96,3139.54,3143.5,3149.61,3157.45,3165.33,3173.61,3181.72,3192.67,3203.47,3212.73,3221.57,3227.02,3229.47,3230.07,3227.93,3221.77,3215.55,3211.01,3204.56,3198.5,3191.9,3186.21,3180.11,3175.82,3174.36,3171.52,3167.67,3165.84,3166.14,3166.79,3168.48,3171.26,3174.35,3180.06,3186.81,3194.05,3201.42,3207.16,3211,3214.36,3219.14,3223.31,3224.38,3225.01,3226.75,3227.54,3226.56,3225.76,3222.75,3216.71,3209.38,3201.05,3191.58,3179.87,3167.05,3154.5,3142.3,3132.78,3123.68,3114.7,3108.61,3103.42,3099.58,3098.08,3099.64,3103.17,3107.68,3114.25,3122.21,3131.12,3141.34,3152.5,3162.62,3170.85,3179.63,3185.83,3191.62,3196.73
0,0,0,0,0,0,0,0,0,0,0,0,0,0,0,0,0,0,0,0,0,0,0,0,0,0,0,0,0,0,0,0,0,0,0,4000,4000,4000,4000,4000,4000,4000,4000,4000,4000,4000,4000,4000,4000,4000,4000,4000,4000,4000,4000,4000,4000,0,0,0,0,0,0,0,0,0,0,0,0,0,0,0,0,0,0,0,0,0,0,0,16.138,995.423,1548.5,2825.69,3109.99,3126.46,3132.54,3133.64,3134.15,3134.22,3134.22,3134.22,3134.21,3134.21,3134.21,3134.14,3134.08,3133.94,3133.86,3133.72,3133.56,3133.39,3133.23,3133.2,3133.07,3133.13,3133.04,3133.1,3132.89,3132.82,3132.62,3132.45,3132.28,3132.14,3131.96,3122.06,3107.42,3092.69,3078.04,3116.14,3155.36,3133.82,3106.81,3084.44,3066.07,3057.07,3041.91,3012.6,3034.33,3031.15,3040.15,3040.63,3039.23,3030.28,3037.2,3025.29,3005.39,2999.76,3007.87,3013.14,3021.93,3036.92,3062.11,3094.54,3134.34,3183.79,3225.35,3260.04,3280.93,3292.84,3301.09,3308.14,3307.97,3314.32,3330.4,3336.45,3332.41,3327.2,3327.15,3327,3325.47,3317.98,3313.58,3307.61,3302.15,3299.76,3294.58,3281.73,3269.03,3256.23,3248.13,3239.96,3233.41,3227.1,3222.09,3219.22,3219.74,3220.18,3221.07,3220.34,3219.53,3219.4,3219.16,3217.13,3215.36,3211.55,3207.72,3204.01,3200.37,3197.64,3194.73,3190.02,3187.13,3184.27,3183.06,3181.87,3182.52,3184.35,3185.36,3186.51,3189.58,3192.71,3196.25,3200.15,3202.33,3201.68,3202.86,3204.52,3205.98,3206.2,3206.27,3205.99,3204.85,3205.8,3213.69,3218.25,3219.36,3221.34,3222.11,3221.92,3219.47,3216.51,3211.38,3202.24,3196.62,3191.39,3186.98,3185.74,3188.61,3192.41,3196,3200.83,3206.21,3210.34,3217.68,3223.97,3228.73,3231.16,3229.35,3225.76,3221.77,3217.48,3213.57,3207.42,3199.63,3191.7,3184.23,3178.6,3174.59,3170.25,3163.75,3157.7,3152.72,3148.67,3146.83,3144.65,3144.27,3144.05,3144.58,3145.3,3145.41,3145.36,3145.11,3147.1,3152.11,3156.3,3160.39,3166.06,3173.09,3181.04,3189.98,3197.17,3202.77,3207.33,3211.22,3213.97,3216.59,3217.84,3218.93,3217.59,3216.25,3215.09,3211,3208.27,3204.21,3200.89,3197.3,3191.58,3190.76,3186.6,3183.73,3183.04,3180.56,3178.16,3175.27,3172.27,3168.33,3164.96,3160.98,3158.78,3157.31,3157.17,3154.48,3152,3151.65,3154,3154.27,3153.15,3150.46,3145.65,3141.53,3142.26,3141.57,3139.56,3133.31,3130.37,3128.83,3129.19,3129.56,3129.7,3127.64,3127.13,3128.19,3129.11,3130.51,3132.54,3133.64,3134.76,3136.72,3140.21,3146.38,3154.34,3162.25,3170.29,3179.29,3190.29,3201.4,3211.41,3221.16,3227.85,3230.76,3231.7,3230.02,3224.09,3217.88,3213.55,3206.65,3200.81,3194.71,3188.44,3183.02,3179.39,3178.59,3177.02,3174.07,3173.21,3173.7,3175.37,3177.75,3181.54,3184.94,3190.7,3197.02,3204.05,3210.83,3215.93,3219.07,3221.96,3224.78,3228.16,3227.68,3226.97,3226.68,3226.4,3224.83,3223.4,3219.27,3213.09,3205.33,3196.95,3187.46,3175.87,3163.72,3150.58,3138.51,3128.91,3119.58,3110.99,3105.04,3100.03,3096.47,3095.59,3097.65,3101.64,3106.13,3112.76,3121.21,3130.11,3141.03,3152.57,3162.99,3173.86,3182.34,3189.62,3195.58,3203.22
0,0,0,0,0,0,0,0,0,0,0,0,0,0,0,0,0,0,0,0,0,0,0,0,0,0,0,0,0,0,0,0,0,0,0,4000,4000,4000,4000,4000,4000,4000,4000,4000,4000,4000,4000,4000,4000,4000,4000,4000,4000,4000,4000,4000,4000,4000,0,0,0,0,0,0,0,0,0,0,0,0,0,0,0,0,0,0,0,0,0,0,1202.54,2420.48,2455.03,2536.37,2538.04,2541.74,2543.77,2544.38,2544.38,2544.38,2544.4,2544.42,2544.42,2544.43,2544.47,2544.45,2544.44,2544.25,2544.02,2543.86,2543.8,2543.74,2543.72,2543.81,2543.84,2543.79,2543.78,2520.99,2527.34,2533.5,2533.16,2535.87,2542.04,2541.93,2541.21,2529.27,2515.86,2502.81,2490.09,2736.21,3126.37,3103.86,3071.08,3054.07,3010.39,3027.86,2990.38,3021.83,3017.41,3011.74,3018.98,3020.27,3018.92,3014.27,3016.09,3003.85,2986.86,2984.15,2996.41,3006.4,3022.19,3041.94,3072.3,3110.26,3166.22,3199.27,3249.3,3283.43,3300.39,3310.22,3316.93,3322.14,3319.6,3324.4,3339.98,3344.48,3339.21,3333.48,3333.35,3332.59,3329.86,3321.48,3316.09,3309.07,3302.63,3297.8,3289.03,3274.12,3259.66,3245.39,3236.14,3227.56,3220.19,3213.39,3208.37,3206.03,3206.92,3207.85,3208.88,3207.83,3206.66,3205.96,3205.46,3202.79,3201.03,3197.84,3193.83,3190.34,3187.5,3185.88,3183.77,3180.25,3178.91,3177.37,3178.04,3178.71,3180.74,3183.88,3186.03,3188.46,3192.23,3195.8,3199.97,3203.31,3205.98,3205.72,3206.49,3208.24,3210.15,3210.92,3211.37,3211.08,3210.17,3211.8,3219.69,3223.67,3224.96,3226.79,3226.82,3225.57,3222.28,3218.31,3211.44,3201.58,3195.46,3189.12,3183.5,3181.13,3182.34,3185.62,3188.93,3194.71,3199.38,3202.35,3209.22,3215.28,3219.82,3221.62,3221.08,3217.5,3214.57,3210.89,3207.57,3201.82,3195.43,3189.05,3184.08,3180.14,3177.61,3174.26,3169.74,3164.98,3161.34,3157.98,3155.89,3153.35,3152.24,3150.92,3150.26,3150.4,3149.64,3148.77,3148.22,3150.02,3155.2,3159.9,3164.71,3170.93,3178.35,3187.24,3196.02,3204.32,3209.37,3213.88,3216.25,3218.29,3219.33,3219.28,3218.79,3216.29,3213.34,3211.43,3208.03,3202.45,3198.94,3194.85,3189.96,3185.28,3181.91,3180.25,3175.08,3173.58,3171.51,3169.59,3167.67,3165.83,3163.24,3161.83,3159.58,3158.68,3159.18,3160.22,3159.3,3158.07,3158.81,3161.12,3161.7,3160.43,3157.81,3152.94,3148.76,3148.8,3146.73,3143.78,3138.78,3135.34,3134.03,3133.56,3133.31,3134.1,3131.99,3132.51,3134.09,3134.79,3135.98,3138.28,3139.65,3140.83,3142.78,3145.63,3150.69,3158.07,3166.18,3173.49,3182.18,3192.4,3202.56,3212.54,3222.77,3229.75,3233,3234.04,3232.54,3226.25,3220.61,3216.22,3209.63,3203.6,3197.23,3191.02,3186.61,3182.91,3182.88,3182.3,3179.84,3180.29,3181.9,3184.38,3187.56,3190.68,3194.47,3200.47,3206.4,3212.71,3218.15,3222.41,3224.24,3224.76,3227.14,3229.24,3227.84,3226.27,3225.18,3223.57,3221.07,3219.53,3215.12,3209.56,3202.25,3194.25,3185.15,3174.77,3163.08,3148.46,3137.07,3127.24,3117.71,3109.4,3102.98,3098.22,3094.76,3094.14,3096.39,3100.67,3105.44,3112.03,3122.05,3132.83,3144.37,3156.06,3164.86,3174.23,3183.12,3190.59,3197.45,3203.57
0,0,0,0,0,0,0,0,0,0,0,0,0,0,0,0,0,0,0,0,0,0,0,0,0,0,0,0,0,0,0,0,0,0,0,4000,4000,4000,4000,4000,4000,4000,4000,4000,4000,4000,4000,4000,4000,4000,4000,4000,4000,4000,4000,4000,4000,4000,4000,3524,0,0,0,0,0,0,0,0,0,0,0,2.851,2.851,2.864,2.878,0,0,0,0,495.771,506.335,507.211,507.787,508.218,509.009,509.686,509.94,509.94,509.94,509.94,509.974,509.974,509.991,509.991,509.991,509.974,509.974,509.94,509.923,509.991,510.025,510.025,506.92,507.107,507.159,510.367,500.78,500.846,500.71,503.783,519.322,525.472,512.72,509.523,518.962,508.158,506.445,504.787,502.702,1381.74,3066.88,3075.89,2762,2918.41,3014.79,3004.35,2948.16,2959.75,2992.9,2998.61,3003.42,3003.69,3000.71,2996.94,2995.97,2987.27,2973.2,2973.36,2989.89,3005.08,3025.17,3050.37,3084.61,3132.48,3190.55,3244.44,3269.17,3299.06,3315.43,3323.41,3328.42,3331.31,3327.31,3329.1,3342.99,3347.62,3344.67,3339.35,3339.49,3338.38,3334.66,3325.87,3319.48,3310.21,3300.94,3292.53,3281.94,3265.93,3250.73,3235.57,3225.28,3216.69,3209.56,3202.91,3198.44,3196.2,3196.63,3197.41,3198.54,3197.47,3195.82,3195.18,3194.79,3191.97,3190.16,3186.62,3183.14,3179.96,3177.62,3176.57,3175.91,3173.64,3173.06,3172.9,3174.56,3177.04,3180.01,3183.85,3187.51,3190.36,3194.99,3199.34,3202.79,3206.58,3208.69,3208.78,3209.76,3211.41,3213.52,3215.35,3216.49,3216.52,3215.67,3217.76,3225.45,3230.32,3230.84,3231.9,3230.93,3228.53,3224.34,3218.86,3210.02,3199.21,3192.72,3185.64,3179.43,3176.28,3176.89,3179.22,3182.61,3188.24,3192.75,3194.94,3200.76,3206.69,3211.02,3212.59,3211.84,3209.85,3207.48,3204.71,3202.11,3196.26,3190.9,3186.1,3182.49,3179.3,3177.61,3175.61,3172.24,3168.36,3166.32,3164.01,3162,3158.63,3157.13,3155.17,3153.99,3152.56,3150.82,3149.74,3149.13,3151.14,3156.25,3161.99,3167.71,3174.97,3183.29,3193.22,3202.58,3210.7,3215.7,3219.21,3220.72,3221.19,3220.89,3219.33,3217.19,3214.07,3210.36,3209.13,3203.62,3197.7,3193.63,3189.5,3184.2,3179.74,3176.46,3174.45,3168.77,3167.23,3165.91,3164.97,3163.46,3161.98,3160.09,3159.87,3158.5,3158.63,3159.75,3161.82,3161.7,3161.91,3163.82,3167.96,3169.63,3168.35,3166.78,3162.92,3159.34,3158.94,3157.87,3153.41,3148.75,3145.11,3142.55,3141.88,3141.57,3142.06,3140.46,3141.97,3143.81,3143.67,3144.35,3146.28,3147.69,3148.64,3149.89,3152.47,3156.59,3162.76,3170.21,3176.97,3184.43,3193.65,3202.46,3211.55,3221.61,3227.99,3231.08,3232.66,3231.49,3225.17,3219.69,3215.67,3209.65,3203.26,3196.98,3190.96,3186.28,3182.63,3183.24,3182.61,3180.92,3181.58,3183.33,3185.97,3189.18,3192.16,3195.24,3200.62,3205.13,3210.38,3214.58,3217.27,3217.92,3217.81,3218.78,3219.91,3218.57,3217.11,3215.87,3213.79,3211.11,3209.91,3206.59,3200.76,3195.34,3187.93,3179.69,3169.95,3159.05,3147,3135.34,3126,3116.92,3107.94,3101.78,3097.02,3093.73,3093.67,3095.19,3099.97,3104.82,3111.55,3119.42,3128.68,3140.07,3155.89,3166.64,3176.41,3185.7,3194.35,3201.54,3208.84
0,0,0,0,0,0,0,0,0,0,0,0,0,0,0,0,0,0,0,0,0,0,0,0,0,0,0,0,0,0,0,0,0,0,0,4000,4000,4000,4000,4000,4000,4000,4000,4000,4000,4000,4000,4000,4000,4000,4000,4000,4000,4000,4000,4000,4000,4000,4000,3220,0,0,0,0,0,0,0,0,0,0,2.878,63.964,0,0,0,0,0,0,89.257,114.903,114.987,115.053,115.053,115.169,115.314,115.444,115.444,115.444,115.444,115.444,115.444,115.444,115.444,115.411,115.395,115.379,115.379,115.379,112.172,112.172,112.156,112.172,112.221,112.255,112.255,96.17,96.202,99.409,89.723,108.579,114.896,118.328,115.331,124.788,115.265,114.97,114.821,114.572,114.265,2258.17,3063.79,2804.36,2804.37,2956.2,2947.75,2867.98,2512.53,2811.26,2918.69,2974.29,2984.41,2985.55,2982.08,2974.35,2980.88,2972.68,2963.99,2966.73,2987.42,3007.33,3032.76,3061.98,3097.94,3151.96,3214.68,3254.68,3291.71,3313.64,3327.94,3334,3336.76,3337.29,3332.83,3332.23,3342.91,3348.11,3345.85,3342.18,3342.44,3340.28,3335.83,3325.94,3318.15,3308.6,3297.24,3286.46,3274.33,3258.2,3243.01,3227.16,3216.72,3208.18,3200.42,3193.53,3188.56,3185.66,3185.71,3186.52,3187.82,3187.25,3185.94,3184.8,3184.23,3181.71,3179.88,3176.96,3173.54,3170.78,3169.54,3168.89,3169.23,3168.07,3168.76,3170.14,3172.84,3175.92,3180.03,3184.59,3188.77,3192.29,3196.83,3201.47,3205.75,3209.08,3211.52,3211.9,3213.46,3215.64,3218.38,3220.68,3222.39,3222.58,3221.99,3224.52,3232.57,3236.99,3236.97,3237.28,3235.35,3231.75,3226.02,3219.91,3209.29,3197.31,3189.44,3181.57,3174.42,3170.17,3169.69,3171.6,3173.88,3179.96,3184.03,3185.8,3190.73,3196.04,3199.96,3202.1,3201.92,3200.88,3199.68,3197.16,3195.8,3191.06,3186.68,3183.17,3181.08,3179.76,3178.73,3178.12,3175.81,3172.89,3171.41,3169.63,3167.35,3163.58,3161.45,3158.68,3155.31,3153.12,3150.76,3148.83,3148.23,3150.32,3156.35,3162.47,3169.1,3177.62,3187.43,3197.9,3207.77,3215.38,3220.42,3223.68,3224.19,3223.22,3222.15,3219.58,3216.59,3212.4,3208.81,3205.44,3199.48,3193.19,3189.26,3185.52,3182.9,3178.73,3175.46,3173.34,3169.7,3167.84,3165.45,3164.39,3162.97,3161.12,3159.46,3159.75,3159.16,3159.51,3161.19,3163.75,3164.44,3165.58,3168.61,3173.84,3175.64,3175.32,3174.31,3170.86,3168.03,3167.15,3164.92,3161.24,3157.29,3154.6,3153.93,3153.69,3154.36,3154.94,3154.2,3155.54,3156.35,3155.9,3156.23,3157.71,3159.22,3159.99,3160.67,3162.54,3165.51,3170.9,3176.79,3182.31,3189.12,3196.94,3203.68,3211.56,3219.89,3225.63,3227.98,3229.42,3228.15,3221.55,3217.33,3213.68,3208.09,3202.37,3196.9,3191.85,3187.29,3184.27,3185.61,3185.31,3184.02,3184.6,3186.7,3188.98,3191.62,3194.15,3196.5,3200.23,3203.3,3206.7,3210.05,3211.34,3210.8,3209.13,3209.28,3209.15,3207.34,3206.14,3204.37,3202.68,3200.83,3200,3197.3,3193.54,3189.36,3183.33,3176.15,3167.61,3157.9,3147.05,3135.99,3127.03,3117.79,3109.03,3102.37,3097.45,3094.26,3094.08,3096.25,3100.33,3105.1,3111.41,3119.01,3128.58,3139.24,3151.42,3162.58,3172.57,3182,3191.36,3199.29,3207.01
0,0,0,0,0,0,0,0,0,0,0,0,0,0,0,0,0,0,0,0,0,0,0,0,0,0,0,0,0,0,0,0,0,0,0,4000,4000,4000,4000,4000,4000,4000,4000,4000,4000,4000,4000,4000,4000,4000,4000,4000,4000,4000,4000,4000,4000,4000,4000,3940,16,0,0,0,0,0,0,0,2.905,108.746,684.794,1064.42,392.634,0,0,0,0,12.83,89.575,89.51,89.409,89.392,89.309,89.309,89.326,89.359,89.359,89.359,89.359,89.359,89.326,89.31,89.293,89.26,89.26,82.961,73.355,73.338,70.147,66.973,66.973,66.956,66.973,79.77,60.658,57.484,57.451,57.37,82.518,91.993,85.963,82.993,98.689,89.242,89.047,88.754,88.479,88.19,112.386,2547.46,1975.98,2287.64,2629.23,2673.4,2593.76,2465.04,1829.61,2222.6,2759.21,2932.9,2958.42,2959.86,2881.84,2930.37,2947.47,2952.6,2952.73,2957.8,2983.42,3008.41,3036.84,3069.74,3110.27,3164.96,3221.44,3270.63,3302.75,3324.35,3337.04,3340.74,3341.76,3341.4,3337.15,3334.43,3342.17,3346.21,3344.36,3340.78,3340.51,3336.59,3330.19,3320.26,3311.33,3300.49,3288.55,3276.07,3263.03,3246.69,3232.37,3216.8,3206.12,3197.02,3189.24,3182.28,3177.32,3174.91,3174.8,3175.68,3177.44,3177.1,3175.8,3174.97,3174.63,3172.18,3170.93,3168.65,3166.05,3164.31,3163.32,3163.98,3165.92,3165.86,3167.87,3170.15,3174.52,3179.32,3183.69,3188.74,3194.12,3197.3,3202.12,3206.35,3210.63,3213.6,3215.58,3216.45,3218.07,3220.21,3223.31,3226.28,3228.3,3228.99,3228.21,3230.9,3238.58,3242.51,3242.54,3241.56,3237.93,3233.32,3226.14,3218.97,3207.28,3193.53,3185.08,3176.33,3168.46,3163.44,3161.99,3162.65,3164.89,3171.39,3176.09,3177.57,3181.77,3185.97,3190.07,3191.85,3192.35,3192.45,3191.73,3189.37,3188.77,3185.22,3181.55,3179.16,3178.52,3178.91,3179.09,3178.65,3177.29,3175.28,3174.46,3173.42,3171.5,3166.84,3163.88,3160.63,3156.74,3153.98,3150.76,3149.49,3148.98,3151.37,3157.68,3163.96,3171.59,3180.45,3190.22,3200.48,3210.53,3217.9,3222.63,3225.47,3225.47,3223.97,3222.06,3218.99,3215.77,3210.91,3207.07,3203.87,3198.27,3191.89,3190.46,3187.22,3182.94,3178.82,3175.41,3172.63,3168.51,3166.64,3163.83,3162.02,3160.43,3158.66,3156.81,3157.44,3157.25,3158.35,3160.34,3163.48,3165.04,3166.88,3170.64,3177.25,3179.96,3180.51,3180.12,3178.18,3176.32,3176.45,3175,3174.32,3171.01,3169.03,3169.14,3169.13,3170,3170.47,3170.54,3172.17,3172.48,3171.5,3171.25,3172.34,3174.06,3174.97,3175.18,3176.2,3177.53,3181.19,3185.55,3190.21,3195.4,3201.32,3206.26,3212.05,3218.21,3221.95,3224.49,3224.88,3223.23,3216.48,3212.72,3209.56,3205.38,3201.06,3196.51,3192.4,3188.84,3186.42,3187.3,3188.67,3188.09,3188.36,3190.15,3192.42,3194.53,3196.98,3198.19,3200.54,3201.62,3203.34,3204.79,3204.6,3202.97,3200.69,3199.27,3199.21,3197.7,3196.15,3194.26,3192.81,3190.68,3190.8,3188.9,3187.1,3184.42,3179.64,3175.03,3167.65,3159.18,3149.57,3139.26,3130.83,3121.13,3112.4,3103.64,3098.37,3094.44,3093.97,3096.05,3099.92,3104.04,3109.41,3116.87,3125.83,3136.38,3148.51,3159.34,3169.42,3178.92,3188.1,3196.85,3205
0,0,0,0,0,0,0,0,0,0,0,0,0,0,0,0,0,0,0,0,0,0,0,0,0,0,0,0,0,0,0,0,0,0,0,4000,4000,4000,4000,4000,4000,4000,4000,4000,4000,4000,4000,4000,4000,4000,4000,4000,4000,4000,4000,4000,4000,4000,4000,4000,16,16,0,0,0,0,0,0,178.676,1354.86,2291.02,1349.02,0,0,0,0,79.854,1069.62,1069.55,1072.27,1071.96,1071.24,1070.97,1070.55,1070.21,1070.21,1070.18,1070.14,1070.03,1069.99,1069.9,1066.53,1066.34,1056.51,1034.19,1002.4,996.117,980.196,939.029,913.717,917.038,936.099,1022.15,745.393,732.647,719.9,678.473,744.908,786.281,894.996,952.496,1044.21,1052.94,1066.39,1063.02,1057.83,976.663,967.608,1232.04,1552.21,1410.5,1424.56,1626.31,1556.59,1603.16,1685.42,1294.75,689.475,2302.65,2857.97,2913.3,2692.06,2622.87,2716.53,2778.27,2908.86,2929.99,2954.4,2984.81,3013.72,3045.36,3082.44,3123.68,3176.18,3234.03,3281.01,3313.12,3331.25,3341.64,3342.56,3342.86,3342.36,3338.3,3334.04,3338.47,3341.17,3338.69,3334.03,3332.42,3326.56,3318.08,3307.44,3297.85,3285.99,3272.9,3259.86,3247.26,3231.15,3217.68,3203.85,3193.24,3184.24,3177.18,3170.62,3166.04,3163.63,3164.06,3164.82,3166.54,3166.88,3165.72,3164.87,3164.93,3163.17,3161.85,3160.2,3158.57,3157.32,3156.94,3158.14,3161.45,3162.85,3165.94,3169.85,3175.04,3180.33,3185.7,3191.69,3197.38,3201.02,3205.35,3209.62,3213.95,3216.77,3218.56,3219.65,3222.34,3224.75,3228.1,3231.68,3233.78,3235.08,3234.87,3237.43,3243.54,3246.53,3244.86,3242.49,3237.52,3231.58,3223.39,3215.15,3202.12,3187.67,3178.34,3169.44,3161.51,3155.91,3153.72,3154.2,3155.8,3162.3,3167.2,3168.52,3172.67,3177.06,3180.9,3182.86,3183.65,3184.02,3184.35,3183.19,3183.55,3180.79,3178.57,3176.95,3176.96,3178.35,3179.27,3179.35,3178.75,3176.94,3176.91,3175.95,3174.55,3169.7,3166.42,3162.74,3158.88,3155.66,3152.3,3150.62,3150.21,3153.3,3159.35,3165.59,3172.59,3180.9,3190.1,3200.35,3209.28,3215.85,3219.76,3222.9,3222.66,3220.47,3218.95,3216.24,3213.22,3209.04,3205.51,3204.53,3199.08,3193.77,3191.23,3188.15,3182.97,3178.97,3178.97,3176.18,3171.98,3167.57,3165.83,3163.22,3158.81,3156.31,3154.64,3154.88,3155.28,3156.27,3158.58,3161.27,3163.51,3166.14,3170.58,3177.6,3181.5,3182.38,3183,3182.02,3182.06,3183.12,3182.72,3181.36,3181.38,3180.34,3181.18,3181.75,3182.94,3184.23,3183.54,3185.47,3186.01,3185.03,3184.66,3185.5,3187.28,3188.39,3188.04,3188.02,3188.2,3190.18,3192.93,3195.72,3199.4,3202.13,3204.42,3207.32,3210,3212.08,3212.83,3212.36,3210.03,3204.21,3201.51,3199.52,3196.5,3193.8,3190.51,3187.38,3184.42,3182.89,3184.49,3186.56,3186.69,3187.17,3188.56,3190.72,3192.73,3194.09,3193.77,3195.01,3193.75,3194.17,3193.86,3192.2,3189.84,3186.58,3184.32,3183.45,3182.04,3181.31,3179.66,3178.44,3177.51,3178.8,3177.95,3177.94,3177.17,3174.81,3171.26,3166.19,3159.12,3151.03,3141.1,3132.91,3123.52,3114.67,3107.06,3101.6,3097.39,3096.26,3097.72,3101.04,3104.36,3109.27,3115.77,3127.72,3137.41,3149.24,3159.63,3167.29,3176.8,3186.68,3197.72,3205.94
0,0,0,0,0,0,0,0,0,0,0,0,0,0,0,0,0,0,0,0,0,0,0,0,0,0,0,0,0,0,0,0,0,0,0,4000,4000,4000,4000,4000,4000,4000,4000,4000,4000,4000,4000,4000,4000,4000,4000,4000,4000,4000,4000,4000,4000,4000,4000,4000,16,16,16,0,0,0,0,0,331.835,1373.87,2503.41,2710.56,0,0,0,2595.91,3057.45,3054.63,3053.49,3056.3,3058.45,3057.78,3057.42,3057.03,3057.02,3056.98,3056.92,3056.8,3056.52,3056.2,3055.76,3055.43,3035.79,3025.99,3006.7,2974.73,2978.04,2962.1,2955.84,2946.77,2928.06,2966.27,2603.57,2489.33,2473.19,2391.02,2388.35,2411.3,2579.75,2665.55,2744.13,2909.87,3033.4,3033.78,3029.68,2655.35,2659.94,2685.33,2594.34,2207.95,1783.03,1722.92,2215.41,2628.81,2008.3,318.103,155.816,872.415,2269.59,2823.92,2711.85,1944.47,2352.87,2643.57,2664.99,2914.03,2943.99,2955.11,2989.68,3021.4,3055.04,3095.52,3137.29,3186.84,3240.02,3285.85,3318.16,3334.49,3343.52,3340.87,3340.09,3338.76,3334.62,3329.21,3330,3329.41,3326.08,3320.71,3318.83,3312.45,3302.96,3292.16,3280.79,3269.28,3256.04,3244.18,3232.08,3217.08,3204.17,3190.6,3180.19,3171.8,3165.24,3159.12,3155.44,3153.31,3153.57,3155,3157.12,3158.27,3158.08,3157.48,3157.79,3157.03,3155.77,3154.72,3153.93,3153.33,3153.8,3156.35,3159.9,3162.19,3166.84,3171.31,3177.21,3183.41,3189.18,3194.72,3200.06,3203.73,3208.02,3212.36,3216.05,3217.96,3219.05,3221.44,3224.53,3226.88,3230.21,3234.31,3236.55,3237.5,3237.56,3239.75,3243.82,3244.38,3241.32,3237.78,3232.06,3224.6,3216.4,3206.68,3193.51,3180.47,3172.35,3163.42,3155.61,3149.29,3147.4,3147.84,3149.57,3155.89,3160.78,3161.89,3166.66,3170.7,3174.27,3176.83,3177.67,3178.8,3180.38,3180.27,3181.39,3179.54,3178.04,3177.08,3178.22,3180,3181.43,3181.86,3181.74,3179.85,3179.02,3178.4,3176.76,3170.93,3167.58,3163.47,3158.76,3155.39,3151.65,3150.46,3150.55,3153.91,3159.8,3165.45,3172.18,3180.34,3189.35,3198.16,3206.83,3212.24,3215.37,3218.17,3218.13,3216.37,3215.12,3212.8,3210.17,3206.38,3203.04,3202.49,3197.39,3193.01,3191.31,3190.63,3187.22,3184.13,3180.57,3177.38,3172.76,3170.06,3166.03,3162.45,3158.55,3154.31,3152.91,3153.55,3153.97,3154.82,3156.58,3159.28,3162.51,3166.4,3170.27,3177.69,3181.6,3182.99,3184.2,3184.2,3185.41,3187.09,3187.39,3188.36,3188.19,3188.73,3192.62,3194.31,3197.18,3198.76,3200.59,3203.09,3203.96,3202.65,3202.01,3202.41,3203.86,3204.45,3203.3,3202.54,3201.59,3201.72,3202.51,3203.09,3204.15,3204.65,3203.57,3204.44,3204.57,3204.16,3203.8,3202.16,3199.82,3195.2,3193.63,3193.61,3192.32,3191.54,3189.85,3188.14,3186.77,3186.51,3188.45,3191.57,3191.96,3192.05,3193.77,3195.03,3196.11,3196.67,3195.03,3194.08,3190.47,3188.31,3186.08,3183.03,3179.19,3175.12,3172.11,3170.75,3169.13,3168.46,3167.43,3167.13,3166.42,3168.25,3168.75,3170.41,3170.97,3170.11,3168.48,3164.9,3159.79,3152.87,3144.02,3136.6,3127.73,3119.08,3111.76,3105.79,3102.2,3100.96,3101.77,3103.73,3106.34,3112.45,3118.13,3125.79,3134.56,3144.92,3154.98,3163.91,3173.48,3182.94,3191.94,3200.24
0,0,0,0,0,0,0,0,0,0,0,0,0,0,0,0,0,0,0,0,0,0,0,0,0,0,0,0,0,0,0,0,0,0,0,4000,4000,4000,4000,4000,4000,4000,4000,4000,4000,4000,4000,4000,4000,4000,4000,4000,4000,4000,4000,4000,4000,4000,4000,3904,16,16,52,16,0,0,0,0,350.176,1406.63,2549.83,2825.96,49.767,0,3117.67,3139.31,3138.73,3133,3125.67,3132.04,3137.58,3143.92,3147.07,3147.04,3147.01,3153.23,3153.11,3152.96,3152.73,3152.37,3151.99,3151.66,3151.08,3147.6,3144.24,3141.03,3134.81,3119.13,3119.09,3109.73,3106.73,3037.37,3037.26,3046.65,3052.88,3077.99,3112.75,3141.07,3147.21,3143.2,3146.92,3142.53,3136.59,3130.16,3122.52,3109.29,3077.05,3009.18,2876.16,2949.17,2848.61,3013.22,3008.55,2997.5,2935.16,2486,1042.97,2230.48,2702.48,2636.85,2384.09,2450.16,2668.16,2742.85,2759.23,2917.3,2942.59,2962.72,2994.53,3028.71,3063.22,3107.34,3149.51,3196.29,3243.93,3288.18,3319.22,3335.47,3339.7,3336.61,3333.92,3331.12,3325.94,3319.16,3316.76,3314.01,3309.94,3304.66,3301.6,3294.22,3284.28,3273.98,3263.25,3251.31,3239.07,3227.81,3215.81,3201.74,3189.66,3177.46,3167.38,3159.56,3153.87,3148.82,3145.11,3143.93,3144.38,3146.02,3148.07,3150.26,3150.73,3150.8,3151.86,3151.72,3151.47,3151.74,3152.15,3152.44,3153.47,3157.1,3161.58,3164.63,3169.53,3174.38,3180.51,3187.35,3192.95,3197.66,3203.18,3206.85,3210.82,3214.41,3218.04,3219.69,3220.74,3223.07,3226.69,3229.15,3232.66,3236.72,3238.83,3239.81,3239.63,3240.64,3241,3239.59,3235.17,3230.58,3224.11,3216.17,3207.15,3197.33,3184.99,3173.99,3165.7,3157.26,3149.92,3144.08,3142.76,3143.09,3145.1,3151.25,3157.21,3159.59,3164.4,3167.68,3171.35,3174.51,3176.2,3177.62,3180,3180.12,3181.25,3179.35,3178.85,3178.4,3179.51,3181.45,3183.17,3183.33,3183.15,3181.53,3180.44,3179.5,3178.22,3172.57,3168.39,3163.76,3158.89,3155.08,3151.47,3150.25,3150.61,3153.09,3157.96,3163.32,3169.95,3177.53,3185.93,3193.89,3201.6,3206.39,3209.31,3211.94,3212.05,3210.79,3209.49,3207.46,3205.81,3202.4,3199.73,3199.62,3195.24,3191.96,3191.43,3190.97,3187.65,3184.81,3181.51,3178.37,3173.31,3170.81,3168.25,3161.81,3157.99,3153.53,3152.06,3152.16,3152.22,3152.66,3153.96,3156.37,3159.15,3163.19,3166.53,3171.89,3175.1,3177.13,3179.28,3180.54,3182.99,3185.54,3187.26,3190.43,3193.05,3196.06,3200.07,3205.16,3208.52,3211.38,3214.59,3217.92,3218.99,3218.28,3217.38,3217.9,3219.29,3219.83,3217.19,3214.85,3212.26,3210.38,3209.34,3207.99,3206.16,3203.82,3200.49,3198.88,3196.21,3193.91,3192.11,3190.21,3188.11,3184.83,3184.85,3186.42,3187.2,3189.04,3189.27,3189.36,3189.16,3189.97,3192.17,3196.01,3196.97,3196.65,3197.81,3198.67,3198.18,3197.52,3193.96,3190.5,3184.46,3179.94,3176.39,3171.8,3167.31,3162.93,3158.64,3156.96,3155.71,3155.01,3154.05,3153.61,3153.51,3155.83,3157.73,3161.12,3162.99,3163.18,3163.01,3160.55,3156.58,3151.56,3144.14,3137.04,3128.59,3121.2,3114.27,3108.68,3105.1,3103.13,3103.22,3104.71,3106.33,3109.62,3115.11,3124.01,3131.48,3141.3,3150.34,3159.85,3169.18,3178.7,3187.1,3193.88
0,0,0,0,0,0,0,0,0,0,0,0,0,0,0,0,0,0,0,0,0,0,0,0,0,0,0,0,0,0,0,0,0,0,0,4000,4000,4000,4000,4000,4000,4000,4000,4000,4000,4000,4000,4000,4000,4000,4000,4000,4000,4000,4000,4000,4000,4000,4000,3260,16,16,16,16,16,0,0,12.617,83.749,1187.56,2574.14,2849.91,2771.49,3110.19,3127.27,3136.64,3119.77,3082.4,3015.1,3072.03,3122.02,3144.29,3147.45,3147.42,3147.38,3147.35,3147.24,3147.11,3143.72,3143.34,3139.78,3133.22,3129.52,3126.06,3122.72,3122.68,3097.56,3081.73,3078.67,3072.33,3015.57,3022.02,3018.62,3015.3,3030.96,3065.8,3084.68,3109.7,3118.7,3132.81,3134.94,3129.33,3126.43,3126.5,3119.02,3106.05,3088.71,3065.86,3057.66,3049.73,3034.3,3016.39,2998.64,2983.37,2963.73,1301.37,558.196,1135.65,1923.63,1555.55,2268.5,2472.41,2661.46,2758.19,2801.21,2841.38,2937.2,2962.08,2995.48,3032.45,3067.63,3115.07,3157,3202.59,3247.53,3288.94,3317.54,3327.54,3330.78,3325.73,3323.02,3319.51,3313.43,3304.56,3300.08,3297.27,3292.84,3286.88,3281.85,3273.41,3264.07,3254.84,3244.53,3233.7,3221.65,3210.1,3199.51,3186.26,3175.03,3164.31,3154.76,3147.93,3142.84,3138.4,3135.16,3134.26,3134.83,3136.44,3139.34,3141.77,3143.33,3144.14,3146.32,3147.29,3148.19,3149.85,3151.47,3153.12,3155.23,3158.68,3163.54,3167.17,3172.13,3177,3183.05,3189.07,3194.53,3198.53,3203.55,3206.69,3210.22,3213.92,3217.01,3218.71,3219.82,3222.27,3227.13,3229.6,3232.93,3236.63,3238.23,3239.07,3238.82,3238.11,3236.22,3233.49,3229.19,3223.34,3216.47,3208.38,3199.23,3189.17,3178.28,3167.69,3158.2,3150.31,3143.38,3138.71,3137.48,3138.26,3140.74,3145.32,3149.81,3153.79,3158.75,3163.26,3167.77,3171.01,3172.58,3174.73,3178.31,3180.11,3180.72,3179.04,3178.67,3178.14,3179.51,3181.65,3183.12,3183.44,3183.66,3182.29,3181.66,3180.44,3179.52,3174,3169.07,3163.88,3159.08,3155.32,3151.77,3150.34,3150.63,3151.6,3155.83,3160.9,3166.88,3173.31,3180.72,3187.62,3194.52,3198.81,3202.09,3205.27,3205.42,3204.55,3203.94,3203.22,3202.46,3199.67,3198.24,3196.59,3194.12,3192.07,3192.07,3190.14,3187.02,3184.58,3181.2,3177.65,3175.17,3172.78,3167.97,3163.06,3158.92,3154.35,3151.94,3152.3,3152.31,3152.4,3153.02,3154.74,3156.81,3160.05,3162.94,3166.39,3169.26,3171.59,3173.93,3176.24,3179.76,3182.98,3186.31,3191.18,3196.56,3202.39,3207.63,3212.75,3217.71,3222,3226.54,3230.54,3231.48,3230.82,3228.99,3228.42,3229.05,3228.23,3224.5,3221.34,3216.76,3213.22,3210.35,3207.79,3204.33,3199.78,3195,3191.14,3185.98,3182.1,3179.95,3177.41,3175.38,3173.64,3175.16,3178.36,3180.74,3184.28,3186.26,3188.28,3188.99,3190.78,3193.27,3197.15,3198.67,3197.71,3198.58,3198.54,3197.24,3195.23,3190.54,3185.21,3176.79,3171.18,3166.36,3160.76,3155.48,3151.17,3146.22,3144.03,3142.89,3142.64,3141.97,3142.11,3141.75,3144.6,3147.31,3151.2,3154.09,3155.3,3156.54,3155.08,3152.68,3149.41,3142.92,3136.14,3129.18,3121.78,3115.39,3110.14,3106.15,3104.06,3103.51,3106.12,3106.99,3109.69,3114.4,3119.91,3126.85,3137.36,3146.06,3154.85,3163.66,3172.55,3177.2,3185.88
0,0,0,0,0,0,0,0,0,0,0,0,0,0,0,0,0,0,0,0,0,0,0,0,0,0,0,0,0,0,0,0,0,0,0,4000,4000,4000,4000,4000,4000,4000,4000,4000,4000,4000,4000,4000,4000,4000,4000,4000,4000,4000,4000,4000,3748,3676,3800,160,20,20,16,16,16,16,0,12.796,50.578,798.077,2538.72,2831.13,3118.93,3128.36,3137.47,3137.48,3114.66,3079.12,3008.6,3065.56,3121.94,3144.24,3147.38,3147.35,3147.33,3147.3,3147.19,3147.06,3143.63,3143.25,3139.76,3133.13,3129.44,3126.01,3122.64,3122.58,3103.66,3078.39,3078.45,3059.65,3053.51,3047.28,3040.63,3040.36,3049.78,3068.73,3084.24,3105.54,3123.21,3132.8,3133.94,3131.39,3128.65,3125.46,3115.41,3102.82,3087.77,3071.31,3042.54,3049.63,3029.83,3009.41,2986.87,2967.58,2952.05,1299.29,758.198,1222.64,623.534,1803.91,2461.87,2590.88,2775.14,2851.13,2831.97,2752.28,2927.09,2956.73,2992.3,3032.26,3070.87,3121.87,3163.16,3207.28,3246.65,3284.28,3308.47,3316.26,3317.84,3312.78,3308.53,3302.41,3295.46,3285.56,3279.46,3276.01,3271.1,3264.75,3260.08,3252.83,3244.17,3235.26,3225.6,3215.67,3204.04,3193.59,3184.18,3172.8,3162.43,3153.4,3145.02,3138.69,3134.49,3130.72,3128.37,3126.91,3127.71,3129.2,3132.29,3135.38,3137.94,3139.74,3142.79,3145.17,3147.46,3149.95,3152.96,3155.74,3158.54,3162.72,3167.56,3171.46,3176.03,3180.8,3186.26,3191.99,3197.1,3200.37,3204.95,3207.97,3211.38,3214.26,3217.06,3218.96,3220.28,3222.47,3227.99,3230.15,3233.15,3236.43,3237.71,3238.33,3237.66,3235.69,3232.56,3228.66,3223.02,3216.34,3209.12,3201.01,3191.55,3181,3170.75,3160.75,3151.78,3144.96,3139.7,3135.26,3134.89,3136.61,3139.94,3144.85,3150.53,3154.95,3159.74,3163.92,3168.38,3171.14,3172.84,3175.15,3178.99,3180.18,3181.1,3179.65,3178.42,3177.91,3179.35,3181.5,3182.82,3183.46,3184.24,3182.46,3181.27,3181.43,3180.84,3175.8,3171.94,3166.41,3161.5,3157.44,3154.16,3153.2,3152.89,3152.66,3155.01,3158.36,3164.09,3169.15,3175.54,3180.93,3187.55,3191.66,3195.15,3198.2,3198.37,3197.41,3197.24,3197.31,3197.4,3195.17,3194.29,3193.66,3189.6,3188.6,3190.59,3189.12,3184.7,3182.67,3179.22,3176.44,3172.57,3172.48,3169.06,3164.43,3160.34,3155.72,3154.17,3154.15,3154.36,3153.85,3154.08,3154.92,3156.3,3158.06,3159.88,3162.5,3164.46,3166.9,3168.95,3171.77,3175.98,3179.73,3184.07,3190.69,3197.67,3204.81,3211.44,3217.66,3224.11,3229.51,3234.87,3238.71,3239.75,3239.29,3237,3235.1,3235.18,3233.16,3228.98,3224.94,3219.26,3214.27,3209.96,3206.12,3201.28,3194.18,3188.31,3183.34,3176.13,3171.82,3169.07,3166.1,3164.57,3164.62,3167.92,3172.37,3176.5,3181.67,3185.29,3188.27,3190.41,3192.52,3195.29,3199.5,3201.21,3200.55,3201.31,3201.46,3199.37,3196.72,3190.94,3184,3174.62,3167.81,3161.41,3154.7,3149.43,3144.63,3139.57,3136.84,3135.68,3135.18,3135.06,3134.78,3134.67,3137.23,3140.46,3145.07,3148.68,3150.39,3151.98,3151.25,3149.74,3147.67,3141.91,3136.14,3129.51,3123.21,3117.02,3111.96,3108.08,3105.6,3104.48,3105.22,3107.97,3110.08,3113.88,3118.91,3126.2,3134.29,3142.23,3150.51,3159.07,3163.68,3171.24,3181.44
0,0,0,0,0,0,0,0,0,0,0,0,0,0,0,0,0,0,0,0,0,0,0,0,0,0,0,0,0,0,0,0,0,0,0,4000,4000,4000,4000,4000,4000,4000,4000,4000,4000,4000,4000,4000,4000,4000,4000,4000,4000,4000,4000,3776,3728,3720,760,20,20,20,16,16,16,16,16,16.02,28.816,92.502,1802.17,2657.82,3136.04,3145.01,3142.25,3135.52,3098.89,3063.1,3005.46,3062.13,3122.38,3144.55,3144.55,3144.54,3144.52,3144.44,3144.24,3144.11,3140.64,3140.28,3136.7,3130.08,3126.38,3126.05,3119.51,3119.35,3103.52,3081.55,3072.4,3066.17,3053.6,3050.43,3037.62,3037.3,3049.89,3068.74,3083.53,3103.96,3110.36,3125.1,3129.04,3126.4,3123.2,3117.17,3109.8,3061.87,3074.09,3044.68,3058.19,3036.6,3018.12,2994.3,2969.25,2950.83,2931.49,2164.14,1877.56,547.465,1613.33,2460.98,2785.07,2826.9,2869.78,2873.13,2856.45,2859.7,2917.54,2949.44,2984.6,3025.97,3066.09,3119.41,3160.92,3203.04,3237.91,3271.74,3292.62,3299.22,3299.84,3294.29,3289.94,3283.28,3276.3,3267.24,3260.45,3255.87,3250.76,3244.77,3240.66,3233.69,3225.86,3217.44,3208.29,3198.91,3188.68,3178.9,3170.42,3160.1,3151.9,3143.52,3136.6,3131.07,3128.77,3125.79,3123.42,3122.73,3123.28,3124.91,3127.56,3131.25,3134.75,3137.77,3141.8,3145.13,3148.64,3152.75,3157.07,3160.95,3164.45,3169.08,3174.29,3177.72,3181.71,3185.73,3190.97,3195.61,3199.77,3202.3,3206.26,3209.24,3212.21,3214.84,3217.33,3219.02,3220.72,3222.91,3228.02,3230.15,3232.67,3235.45,3236.37,3235.98,3234.73,3230.56,3226.32,3221.12,3214.12,3207.11,3199.65,3190.89,3181.02,3171.36,3161.94,3152.51,3144.72,3138.83,3134.84,3131.28,3132.52,3135.54,3139.68,3145.49,3151.76,3156.62,3162.14,3166.36,3170.81,3173.76,3175.43,3177.21,3180.48,3180.63,3181.59,3179.61,3177.67,3176.23,3177.4,3178.61,3180.25,3181.02,3181.63,3180.36,3180.25,3180.6,3181.01,3178.79,3176.03,3171.14,3166.89,3163.26,3161,3160.09,3159.06,3157.97,3157.75,3158.82,3163.07,3167.36,3172.18,3176.11,3181.61,3184.89,3188.17,3191.31,3191.93,3190.94,3191.31,3191.9,3193.19,3191.98,3191.86,3191.37,3187.98,3188.68,3188.96,3188.1,3185.95,3184.43,3181.42,3178.51,3177.7,3176.43,3173.21,3168.05,3162.71,3160.31,3158.64,3158.75,3159.06,3157.98,3157.92,3158.19,3158.72,3159.72,3160.33,3161.22,3162.4,3164.42,3165.86,3168.88,3172.88,3176.53,3181.64,3189.03,3197.4,3204.8,3212.17,3219.31,3226.57,3232.07,3237.22,3239.77,3240.01,3238.98,3236.2,3233.82,3232.29,3228.02,3223.11,3218.81,3212.86,3207.7,3202.43,3197.71,3191.78,3184.86,3177.96,3172.71,3164.8,3159.67,3156.86,3154.87,3154.31,3156.33,3160.42,3165.71,3171.4,3178.78,3183.63,3187.92,3191.34,3193.68,3196.84,3200.06,3201.99,3201.35,3202.51,3202.32,3200.22,3196.69,3191,3183.28,3172.98,3164.84,3158.07,3150.46,3144.49,3140.27,3134.76,3132.42,3131.46,3130.63,3130.49,3130.37,3130.53,3133,3135.88,3140.52,3143.42,3145.66,3147.75,3147.73,3147.05,3147.36,3142.54,3137.16,3131.22,3125.87,3119.8,3114.82,3110.85,3107.98,3106.92,3107.55,3107.78,3109.44,3112.53,3116.73,3121.67,3128.6,3135.81,3143.16,3149.38,3157.1,3167.9,3176.23
0,0,0,0,0,0,0,0,0,0,0,0,0,0,0,0,0,0,0,0,0,0,0,0,0,0,0,0,0,0,0,0,0,0,0,4000,4000,4000,4000,4000,4000,4000,4000,4000,4000,4000,4000,4000,4000,4000,4000,4000,4000,4000,1880,676,668,648,20,20,20,20,16,16,16,16,16,16,6.448,25.659,63.984,2420.17,2513.77,2513.42,2513.54,2513.27,2513.02,2513.66,2415.92,2513.81,2513.81,2513.81,2513.79,2513.75,2513.75,2513.74,2513.63,2513.43,2513.05,2512.86,2509.37,2502.81,2499.42,2499.25,2492.82,2492.64,2483.08,2464.29,2464.26,2461.01,2451.27,2447.82,2440.99,2440.63,2446.42,2455.25,2463.05,2473.46,2477.3,2493.7,2493.38,2495.87,2494.58,2498.83,2591.2,2901.71,2922.34,2559.12,2495.05,2897.94,2992.27,2966.54,2942.7,2913.39,2797.86,1442.46,1208.63,900.021,2015.49,2754.64,2818.42,2847.68,2850.37,2835.82,2817.26,2878.33,2901.99,2937.19,2973.12,3015.12,3057.12,3110.89,3155.09,3197.31,3227.69,3257.71,3276.76,3281.87,3282.78,3277.13,3272.11,3265.17,3257.93,3249.58,3242.18,3236.91,3232,3225.58,3221.89,3215.08,3207.52,3200.67,3192.64,3183.72,3174.24,3165.47,3158.67,3150.31,3142.45,3135.84,3129.91,3125.9,3124.24,3121.45,3119.81,3119.65,3120.35,3122.15,3125.42,3129.07,3133.2,3136.9,3142.38,3147.32,3152.36,3157.38,3163.27,3168.31,3172.57,3177.76,3182.42,3184.99,3188.75,3192.14,3196.7,3199.91,3203.36,3204.7,3208.42,3210.58,3213.33,3215.19,3217.25,3219,3220.94,3223.25,3228,3230.06,3232.26,3234.18,3234.67,3233.97,3230.73,3225.33,3219.45,3212.35,3205.17,3197.42,3188.62,3179.44,3170.42,3161.49,3153.19,3144.23,3137.59,3132.57,3129.99,3128.43,3131,3135.31,3140.03,3146.75,3154.59,3160.72,3166.58,3170.95,3176.17,3178.91,3180.74,3183.27,3185.66,3185.72,3186.36,3183.72,3181.02,3179.09,3179.29,3180.15,3181.64,3182.31,3183.07,3181.36,3181.47,3183.69,3185.37,3184.41,3182.13,3176.95,3172.78,3170.24,3167.98,3167.12,3164.75,3162.78,3160.41,3160.19,3163.23,3166.07,3169.35,3171.71,3176.1,3178.9,3181.54,3184.15,3184.69,3184.9,3185.54,3186.82,3188.53,3187.78,3188.36,3188.3,3186.4,3187.61,3188.95,3188.74,3187.42,3187.12,3184.42,3181.99,3180.03,3179.65,3176.22,3171.79,3168.99,3166.7,3165.17,3165.44,3165.55,3164.65,3163.52,3163.25,3162.74,3163.17,3162.5,3161.89,3161.94,3162.51,3163.42,3165.17,3168.67,3172.12,3176.62,3183.3,3191.2,3198.87,3205.19,3212.58,3218.73,3223.69,3227.9,3229.95,3230.19,3229.17,3226.41,3223.79,3221.91,3217.41,3212.1,3207.37,3201.46,3195.15,3188.96,3183.69,3178.28,3171.28,3165.58,3160.52,3152.4,3147.93,3145.82,3143.68,3144.16,3148,3153.61,3159.63,3166.84,3175.36,3181.43,3187.03,3191.29,3194.46,3197.1,3200.41,3202.5,3202.52,3203.83,3203.71,3200.62,3197.54,3191.87,3183.67,3173.81,3165.01,3157.55,3150.06,3143.6,3139.52,3134.82,3132.32,3130.59,3129.4,3129.12,3128.62,3128.34,3130.5,3132.85,3136.5,3139.21,3141.54,3144.02,3144.44,3144.32,3143.69,3139.55,3134.81,3130.03,3125.28,3119.85,3114.9,3111.05,3107.85,3106.7,3106.86,3106.85,3107.74,3109.7,3112.43,3116.83,3122.69,3129.27,3135.22,3142.42,3153.4,3160.35,3168.23
0,0,0,0,0,0,0,0,0,0,0,0,0,0,0,0,0,0,0,0,0,0,0,0,0,0,0,0,0,0,0,0,0,0,0,4000,4000,4000,4000,4000,4000,4000,4000,4000,4000,4000,4000,4000,4000,4000,4000,4000,4000,1480,28,20,20,16,16,16,16,16,16,16,16,16,16,16,16,0,6.431,9.638,9.605,9.589,9.589,9.573,9.539,9.539,9.539,9.539,9.539,9.539,9.539,9.539,9.539,9.539,9.539,9.539,9.539,9.539,9.539,9.539,9.539,9.539,9.539,9.539,9.539,9.539,9.539,9.539,21.737,24.818,12.528,9.539,18.567,15.176,15.173,15.16,15.144,15.144,30.057,123.593,189.688,488.736,814.32,852.871,167.229,27.042,18.115,1614.32,2959.96,2935.48,2903.98,2648.3,2706.19,2633.96,2724.41,2713.68,2736.26,2795.52,2817.75,2832.75,2834.68,2832.71,2842.77,2864.06,2884.99,2922.31,2960.96,2999.48,3043.1,3097.94,3144.03,3186.82,3215.01,3241.18,3258.57,3262.82,3263.78,3258.47,3253.29,3246.16,3239.07,3232.52,3225.66,3220.79,3215.75,3208.46,3204.57,3198.72,3191.8,3185.68,3178.1,3170.63,3162.26,3155.11,3149.81,3142.13,3135.46,3130.42,3126.38,3123.24,3122.63,3121.12,3119.88,3120.03,3120.69,3123.12,3126.56,3130.34,3135.01,3139.66,3146.71,3152.22,3158.81,3165.21,3172.59,3178.56,3184.11,3189.27,3194.09,3195.98,3199.23,3202.09,3205.26,3207.52,3209.47,3210.12,3213.02,3214.95,3216.64,3217.46,3218.08,3219.46,3220.47,3222.2,3226.97,3228.38,3230.42,3231.5,3231.16,3228.68,3224.58,3218.51,3211.12,3202.78,3194.79,3185.57,3176.88,3168.73,3160.57,3152.12,3145.26,3137.78,3131.3,3128.38,3127.14,3126.92,3131.08,3136.02,3142.51,3149.72,3159,3166.1,3172.12,3177.36,3182.73,3186.1,3188.4,3190.7,3193.15,3192.63,3192.75,3189.27,3186.1,3183.22,3183.08,3183.28,3183.63,3183.94,3184.17,3182.66,3182.01,3183.92,3185.38,3184.64,3182.54,3177.21,3175.17,3172.83,3171.56,3170.86,3168.45,3166.18,3163.43,3162.29,3165.23,3166.29,3167.96,3169.99,3173.13,3175.3,3177.25,3179.46,3180.41,3180.52,3181.5,3183.29,3184.77,3184.45,3185.35,3186.03,3185.12,3188.61,3190.77,3193.3,3193.1,3193.11,3191.27,3189.44,3188.52,3188.86,3184.26,3178.51,3175.69,3173.9,3173.18,3173.57,3174.08,3172.72,3170.94,3170.28,3169.83,3169.91,3168.21,3166.66,3166.57,3166.29,3166.17,3167.29,3169.4,3171.12,3174.37,3179.77,3186.29,3192.43,3198.14,3204.39,3209.72,3213.63,3217.86,3219.49,3219.54,3219.07,3216.63,3212.91,3210.21,3204.99,3199.02,3193.78,3187.7,3181.22,3174.13,3168.52,3163.13,3156.64,3152.08,3146.81,3140.13,3136.72,3135.35,3134.5,3135.72,3141.22,3147.84,3154.96,3163.35,3173.09,3179.95,3186.46,3191.58,3194.51,3196.95,3200.39,3202.08,3202.52,3203.94,3203.58,3200.41,3196.79,3191.58,3183.66,3173.96,3165.29,3157.82,3150.26,3144.42,3140.19,3136.07,3133.18,3131.01,3129.6,3128.77,3128.2,3127.21,3128.36,3130.32,3132.9,3135.25,3137.38,3139.65,3140.29,3140.59,3140.51,3137.11,3133.34,3129.15,3125.15,3120.68,3116.69,3112.16,3109.2,3107.67,3107.28,3106.56,3106.54,3107.46,3109.49,3112.84,3118.02,3123.43,3128.83,3135.18,3141.71,3148.33,3156.52
0,0,0,0,0,0,0,0,0,0,0,0,0,0,0,0,0,0,0,0,0,0,0,0,0,0,0,0,0,0,0,0,0,0,0,4000,4000,4000,4000,4000,4000,4000,4000,4000,4000,4000,4000,4000,4000,4000,4000,4000,1484,32,32,32,20,20,20,20,20,20,16,16,16,16,16,16,22.551,35.482,38.658,48.028,51.037,50.823,50.595,50.433,50.272,50.16,50.048,50,49.953,49.953,49.921,52.895,52.865,52.851,52.836,52.774,52.759,52.731,49.812,49.812,49.827,49.827,49.842,49.858,49.858,49.858,52.833,65.019,65.004,52.896,49.921,58.888,55.47,55.436,55.232,55.046,54.91,69.586,162.203,227.68,512.69,799.603,842.355,190.352,65.659,53.636,59.805,1884.51,2928.27,2903.54,2860.81,2698.73,2700.36,2815.18,2802.25,2718.32,2737.16,2803.2,2813.88,2821.94,2822.68,2826.85,2832.1,2851.3,2874.05,2912.71,2951.56,2988.64,3033.01,3087.51,3132.47,3176.16,3203.75,3226.81,3240.03,3243.72,3245.11,3240.5,3235.61,3229.22,3222.89,3216.86,3210.76,3205.88,3200.82,3193.7,3189.63,3184.19,3178.49,3173.15,3166.92,3160.26,3153.6,3147.28,3143.36,3137.1,3132.21,3128.07,3125.09,3122.8,3122.98,3122.19,3121.61,3121.78,3122.82,3125.34,3129.18,3133.65,3139.18,3144.62,3152.83,3159.7,3167.31,3175.06,3183.21,3190.12,3195.73,3201.56,3205.82,3207.64,3210.04,3212,3214.62,3215.83,3217.13,3216.46,3217.8,3218.66,3219.65,3219.62,3218.59,3219.02,3219.19,3219.8,3223.67,3224.56,3226.36,3226.96,3225.97,3222.93,3218.47,3212.1,3204.2,3194.84,3186.14,3176.04,3167.34,3159.61,3152.81,3145.04,3139.68,3133.46,3128.85,3127.14,3127.44,3128.62,3133.65,3139.6,3146.96,3154.58,3164.05,3171.5,3177.83,3183.07,3188.72,3192.53,3195.17,3197.83,3199.87,3198.4,3198.02,3194.21,3189.9,3186.83,3185.96,3185.19,3184.38,3183.57,3183.86,3181.89,3181.09,3182.87,3183.63,3182.68,3181.37,3176.67,3175.48,3174.2,3173.96,3173.98,3172.1,3170.06,3166.73,3165.78,3167.96,3168.02,3168.56,3169.68,3172.25,3173.33,3174.36,3175.85,3176.72,3177.24,3177.64,3179.6,3180.8,3180.57,3182.45,3184.22,3184.35,3187.08,3191.87,3194.32,3194.93,3196.32,3197.08,3194.36,3194.47,3195.31,3191.43,3187.51,3184.82,3184.3,3183.32,3183.9,3184.26,3182.54,3180.27,3179.47,3178.57,3178.22,3176.09,3173.27,3172.01,3170.94,3169.65,3169.8,3170.25,3170.6,3172.47,3176.77,3181.44,3186.52,3191.56,3197.31,3201.56,3205.14,3209.06,3209.91,3209.8,3209.4,3206.47,3202.12,3198.19,3193.29,3186.51,3180.85,3174.19,3166.63,3159.88,3154.6,3148.57,3142.75,3138.92,3134.95,3129.76,3127.6,3126.86,3126.93,3129.7,3136.12,3143.51,3151.52,3159.97,3169.92,3177.45,3184.55,3189.58,3192.41,3194.91,3197.51,3198.84,3199.49,3200.83,3199.93,3196.81,3193.57,3188.68,3181.24,3172.09,3164.33,3157.06,3150.36,3144.81,3141.28,3137.25,3134.42,3132.07,3130.27,3129.17,3128.49,3127.2,3127.76,3129.48,3131.57,3133.32,3135.41,3137.97,3138.31,3138.81,3139.11,3136.47,3133.18,3130.05,3126.88,3123.05,3119.45,3114.8,3111.5,3109.79,3109.04,3107.61,3106.72,3106.67,3107.61,3110.29,3114.66,3119.53,3124.28,3129.81,3135.27,3141.67,3151.23
0,0,0,0,0,0,0,0,0,0,0,0,0,0,0,0,0,0,0,0,0,0,0,0,0,0,0,0,0,0,0,0,0,0,0,4000,4000,4000,4000,4000,4000,4000,4000,4000,4000,4000,4000,4000,4000,4000,4000,1480,28,16,16,16,16,16,16,16,16,16,16,16,16,16,16,19.347,32.538,52.12,74.688,100.078,153.782,165.668,164.933,164.293,163.71,163.21,162.764,162.476,162.162,162.037,164.792,164.702,164.642,164.551,167.394,164.46,164.476,164.461,164.432,161.527,161.572,161.603,161.681,161.696,161.742,164.749,176.8,182.841,167.789,164.668,176.49,169.987,169.674,169.071,168.469,167.755,181.931,273.315,337.776,590.035,821.305,845.704,276.13,170.346,161.158,157.852,177.843,2913.28,2895.28,2855.04,2593.51,2713.65,2806.31,2803.39,2794.57,2677.18,2731.29,2800.08,2811.29,2816.92,2814.43,2821.79,2823.91,2842.03,2865.29,2904.07,2940.02,2976.07,3019.36,3072.65,3115.59,3159.13,3184.24,3205.63,3217.83,3220.85,3223.06,3219.26,3216.23,3211.75,3207.3,3202.36,3197.23,3193.11,3188.22,3180.85,3177.34,3173.1,3168.9,3164.96,3159.65,3154.6,3149.21,3144.47,3141.82,3137.14,3133.17,3129.89,3127.65,3125.82,3126.29,3125.94,3125.87,3126.24,3127.25,3130.19,3134.44,3139.71,3146.25,3152.2,3160.89,3168.68,3177.2,3185.95,3194.93,3202.13,3208.6,3213.62,3217.7,3219.3,3221.19,3222.94,3225,3224.48,3224.29,3222.63,3222.94,3222.83,3223.58,3221.91,3220.44,3220.37,3219.57,3218.94,3221.21,3221.98,3223.81,3223.73,3222.18,3218.33,3213.05,3206.34,3198.99,3189.52,3179.52,3168.66,3159.75,3152.46,3146.15,3140.48,3136.16,3131.54,3128.23,3128.05,3129.8,3132.33,3138.03,3144.11,3151.74,3159.71,3169.82,3177.48,3184.09,3189.1,3194.77,3199.02,3201.79,3203.82,3205.65,3204.12,3203.67,3200,3194.67,3191.1,3189.33,3187.09,3185.12,3183.2,3182.82,3180.46,3179.15,3180.31,3180.02,3179.63,3178.3,3174.72,3174.2,3173.75,3174.35,3175.07,3173.81,3172.5,3169.44,3168.59,3170.8,3170.72,3170.63,3171.17,3172.42,3172.66,3172.92,3173.39,3174.08,3174.4,3174.71,3176.36,3177.47,3177.73,3179.89,3182.69,3184.01,3187.48,3191.46,3195.06,3196.6,3198.63,3198.66,3200.42,3199.16,3200.88,3199.58,3196.81,3195.04,3194.37,3194.04,3194.53,3194.82,3193.05,3191.54,3191.13,3190.2,3188.97,3186.12,3183.03,3181.72,3180.09,3177.72,3176.12,3174.87,3173.36,3173.88,3176.07,3179.11,3182.61,3186.02,3190.23,3193.69,3196.56,3199.81,3200.31,3200.14,3199.89,3196.33,3191.44,3187.5,3180.92,3173.57,3166.3,3159.63,3152.28,3145.7,3139.99,3134.9,3129.88,3127.02,3123.66,3120.28,3119.1,3119.59,3121.15,3125.12,3132.37,3140.21,3148.99,3157.74,3167.67,3175.33,3181.8,3187.16,3189.98,3191.72,3193.32,3194.33,3195.18,3195.85,3195.24,3192.21,3189.11,3184.48,3177.88,3170.18,3163.41,3156.53,3150.3,3145.64,3142.78,3139.29,3136.39,3133.95,3131.87,3130.77,3129.94,3128.5,3128.49,3129.23,3130.55,3131.66,3133.77,3135.55,3136.7,3137.14,3137.65,3135.38,3132.87,3130.67,3128.38,3125.67,3121.95,3117.37,3113.91,3111.72,3110.59,3108.58,3106.9,3106.29,3105.91,3107.87,3111.2,3115.64,3119.5,3124.23,3128.61,3136.93,3142.1
0,0,0,0,0,0,0,0,0,0,0,0,0,0,0,0,0,0,0,0,0,0,0,0,0,0,0,0,0,0,0,0,0,0,0,4000,4000,4000,4000,4000,4000,4000,4000,4000,4000,4000,4000,4000,4000,4000,1484,32,20,20,20,20,20,20,20,20,20,20,20,20,20,20,20,20,19.365,22.694,22.658,29.191,23,26.102,25.962,25.792,25.641,25.51,25.394,25.28,28.22,28.141,28.081,28.034,30.923,30.881,30.867,30.851,30.808,27.93,27.946,25.041,27.947,25.072,25.104,25.104,28.011,42.849,45.74,30.962,27.926,42.383,33.483,33.419,33.355,33.257,33.207,47.622,138.149,202.224,478.764,789.69,827.049,174,50.3,29.802,29.739,29.647,41.416,2879.64,2848.55,2676.05,2745.16,2806.83,2804.42,2797.49,2767.24,2244.39,2683.64,2798.74,2810.79,2816.45,2812.92,2819.57,2819.14,2836.85,2859.59,2899.66,2932.86,2967.53,3009.28,3060,3099.71,3142.96,3167.76,3187.34,3196.41,3199.92,3202.03,3199.54,3198.16,3195.66,3192.63,3189.18,3185.5,3182.4,3178.38,3172.33,3169.77,3166.48,3164.23,3160.9,3157.17,3152.95,3148.03,3144.42,3143.26,3139.24,3136.27,3132.97,3131.25,3129.5,3129.89,3130.33,3130.82,3131.18,3132.25,3135.02,3139.56,3145.04,3151.94,3158.38,3167.63,3175.87,3185.22,3195.09,3204.72,3212.61,3219.52,3225,3229.3,3230.89,3232.54,3233.3,3234.43,3233.16,3231.79,3229.18,3228.98,3228.56,3228.37,3226.39,3224.15,3223.32,3221.61,3220.11,3221.89,3222.24,3223.33,3222.03,3219.92,3215.4,3209.15,3201.79,3194.15,3184,3173.14,3162.09,3152.65,3146.87,3142.02,3137.69,3134.46,3131.14,3129.48,3131.1,3133.88,3137.38,3142.93,3149.47,3157.14,3165.77,3175.37,3183.69,3189.87,3195.61,3200.94,3205.13,3208.7,3210.78,3212.88,3211.04,3209.62,3205.11,3199.46,3194.04,3190.85,3186.71,3183.52,3180.29,3178.5,3175.28,3173.82,3174.48,3174.5,3174.08,3173.6,3171.33,3172.1,3172.57,3174.33,3175.89,3175.57,3175.1,3172.5,3171.31,3172.88,3172.86,3172.8,3172.63,3173,3172.45,3171.73,3171.6,3171.73,3171.68,3171.21,3172.62,3173.65,3174.14,3176.71,3180.35,3182.84,3187.38,3192.15,3196.36,3199.35,3202.24,3203.55,3204.48,3206.04,3208.08,3207.28,3204.92,3204.08,3203.92,3203.65,3203.62,3204.12,3202.4,3201.02,3200.07,3199.05,3197.79,3194.77,3190.96,3189.24,3187.44,3183.9,3181.42,3178.68,3175.9,3174.77,3175.79,3176.87,3178.54,3180.61,3183.77,3185.5,3187.86,3190.45,3190.51,3189.48,3189.33,3185.64,3180.77,3175.77,3168.76,3161.24,3154.08,3146.9,3138.67,3131.31,3125.63,3120.6,3116.12,3114.23,3111.73,3109.58,3109.62,3111.66,3114.03,3118.72,3126.75,3135.04,3143.66,3153.17,3162.62,3169.9,3176.18,3181.39,3183.76,3185.23,3186.08,3186.97,3187.59,3188.12,3187.36,3184.84,3181.95,3178.42,3172.83,3166.92,3161.41,3155.39,3149.73,3146.04,3143.88,3141.35,3139.32,3136.08,3134.21,3133.22,3132.19,3131,3130.76,3130.93,3131.86,3132.82,3134.37,3136.03,3136.84,3137.49,3137.69,3135.72,3133.6,3131.96,3130.15,3128.2,3124.88,3119.89,3116.64,3114.01,3112.56,3110.1,3107.98,3106.33,3104.92,3106.06,3108.71,3112.52,3117.43,3120.99,3125.21,3130.58,3137.14
0,0,0,0,0,0,0,0,0,0,0,0,0,0,0,0,0,0,0,0,0,0,0,0,0,0,0,0,0,0,0,0,0,0,0,4000,4000,4000,4000,4000,4000,4000,4000,4000,4000,4000,4000,4000,4000,1480,28,16,16,16,16,16,16,16,16,16,16,16,16,16,16,16,16,16,16,22.712,29.37,39.285,55.697,52.729,55.739,55.41,55.047,54.724,54.441,54.244,54.093,53.913,53.865,59.695,59.607,59.545,59.531,59.518,59.518,56.64,56.626,59.49,59.496,56.621,53.799,59.826,71.672,74.529,59.661,56.638,71.15,62.12,62.039,61.831,61.671,61.461,75.712,166.051,230.155,491.065,808.812,841.229,195.13,75.329,60.228,60.119,57.093,56.911,98.286,2759.67,2585.58,2754,2820.85,2817.33,2807.33,2792.91,2423.62,2226.56,2527.39,2800.72,2819.58,2825.97,2824.11,2827.8,2827.09,2841.62,2862.73,2902.92,2932.22,2964.86,3003.69,3048.8,3085.21,3126.81,3150.72,3168.92,3176.42,3180.04,3182.7,3181.92,3181.96,3181.81,3181.12,3179.09,3177.09,3175.1,3172.16,3167.85,3166.69,3164.73,3162.84,3160.37,3157.85,3154.18,3149.44,3146.29,3145.97,3142.53,3139.76,3136.6,3135.07,3133.82,3134.27,3134.61,3135.3,3135.61,3136.31,3139.02,3142.9,3148.18,3154.27,3161.14,3170.84,3179.14,3189.22,3199.42,3209.36,3218.01,3225.48,3231.11,3235.82,3236.82,3238.35,3239.29,3240,3238.19,3236.54,3233.96,3232.84,3231.72,3231.26,3229.15,3226.13,3224.91,3222.53,3220.9,3222.42,3222.38,3223.59,3221.56,3218.15,3213.18,3206.04,3198.93,3190.24,3179.37,3168.07,3156.82,3148.37,3143.35,3139.17,3136.45,3134.46,3132.6,3132.77,3136,3139.55,3144.15,3149.86,3157.59,3164.83,3173.75,3183.55,3191.15,3197.49,3203.04,3208.37,3212.93,3216.46,3218.97,3220.43,3218.2,3216.36,3211.53,3205,3197.95,3192.68,3187.32,3182.37,3177.14,3174.16,3170.01,3168.02,3168.45,3168.49,3169.18,3169.24,3168.15,3170.07,3171.66,3174.07,3176.13,3176.85,3177.28,3175.31,3174.12,3175.73,3175.28,3175.12,3174.46,3173.88,3172.56,3170.74,3170.22,3170.44,3170.02,3169.98,3171.21,3171.86,3172.96,3176.36,3180.4,3184.31,3188.92,3193.99,3199.18,3203.6,3207.12,3208.7,3210.48,3212.33,3214.14,3213.29,3211.64,3210.81,3211.1,3211.13,3211.72,3212.34,3211.3,3209.76,3208.93,3207.91,3206.45,3203.26,3199.78,3197.53,3194.85,3190.51,3187.06,3182.57,3177.91,3175.21,3174.69,3173.98,3174.47,3174.9,3176.85,3177.92,3179.18,3181.33,3180.47,3179.77,3179.24,3175.58,3170.87,3165.49,3158.52,3150.7,3143.16,3135.14,3126.97,3119.45,3113.65,3108.57,3104.75,3103.24,3101.2,3099.92,3101.15,3103.93,3106.93,3112.28,3120.52,3128.43,3137.54,3146.66,3155.74,3162.46,3168.24,3173.06,3174.7,3175.6,3175.59,3176.23,3177.19,3177.87,3176.6,3174.74,3172.83,3170.11,3165.67,3162.03,3157.34,3152.81,3148.17,3145.78,3144.25,3142.25,3140.33,3138.65,3136.6,3135.9,3134.97,3134.03,3133.49,3133.67,3133.96,3135.18,3136.77,3138.41,3139.17,3140.14,3140.21,3138.54,3137.04,3135.95,3134.78,3132.98,3129.95,3125.82,3121.55,3119.33,3117.97,3114.78,3111.36,3108.05,3105.56,3105.13,3108.33,3110.84,3112.55,3116.81,3119.53,3123.85,3129.98
0,0,0,0,0,0,0,0,0,0,0,0,0,0,0,0,0,0,0,0,0,0,0,0,0,0,0,0,0,0,0,0,0,0,0,4000,4000,4000,4000,4000,4000,4000,4000,4000,4000,4000,4000,4000,1492,40,28,28,16,16,16,16,16,16,16,16,16,16,16,16,16,16,16,16,16,26.077,36.082,49.326,72.521,82.257,82.78,95.742,95.232,94.6,94.116,93.705,93.351,93.153,98.736,101.536,101.443,101.351,101.321,98.355,98.389,98.406,98.413,95.271,92.397,92.766,101.756,111.02,114.025,98.74,95.606,110.361,101.042,100.846,100.609,100.262,99.924,114.306,206.543,271.818,529.681,826.323,862.291,225.952,110.165,97.869,97.747,97.272,94.086,96.392,323.548,2363.61,2778.7,2848.86,2838.8,2837.44,2806.05,2546.72,2455.6,1226.3,2653.74,2827.35,2846.13,2848.11,2847.55,2849.84,2842.9,2857.66,2878.27,2914.86,2939.72,2967.99,3003.47,3040.75,3073.32,3112.1,3134.27,3150.54,3158.49,3163.62,3166.73,3166.15,3166.88,3168.04,3169.27,3168.98,3168.15,3167.67,3166.29,3163.17,3163.78,3162.97,3162.02,3161.04,3158.82,3156.04,3151.78,3149,3148.63,3146.11,3143.68,3141.4,3139.99,3139.03,3139.45,3139.76,3140.53,3140.85,3141.39,3143.65,3147.19,3152.02,3157.57,3163.94,3173.64,3181.5,3191.71,3201.64,3211.79,3220.83,3228.28,3234.42,3239.08,3240.45,3241.65,3242.68,3243.12,3241.5,3239.54,3237.26,3235.7,3234.54,3233.71,3230.93,3228.03,3226.48,3224.3,3222.55,3223.47,3223.53,3223.98,3221.11,3217.19,3211.72,3204.05,3196.54,3187.96,3176.31,3165.2,3153.98,3146.34,3142.08,3139.44,3138.24,3137.6,3137.36,3139.29,3144.08,3149.18,3154.35,3160.85,3167.47,3175.63,3184.46,3193.85,3201.49,3207.5,3212.68,3218.29,3222.81,3226.86,3228.41,3230.42,3228.13,3225.21,3219.87,3211.41,3202.82,3195.19,3187.9,3180.91,3173.56,3168.11,3163.06,3160.28,3160.5,3160.93,3162.12,3163.14,3162.77,3164.96,3167.47,3170.92,3173.95,3175.69,3177.05,3175.74,3175.1,3176.63,3176.45,3176.11,3175.42,3174,3171.52,3168.87,3168,3167.82,3167.45,3166.9,3167.64,3168.06,3170.01,3173.72,3178.92,3183.8,3190.92,3196.32,3200.25,3205.06,3209.2,3211.8,3213.87,3216.21,3217.71,3217.23,3215.86,3215.33,3215.72,3216.11,3216.31,3217.09,3216.55,3215.56,3215.56,3214.51,3213.08,3209.5,3205.16,3202.92,3199.31,3194.86,3190.15,3184.45,3178.99,3175.11,3173.04,3171.27,3170.21,3169.2,3170.02,3170.12,3171.28,3172.7,3171.95,3171.13,3170.47,3167.14,3162.24,3156.57,3150.23,3142.2,3134.58,3126.66,3118.56,3110.72,3104.77,3099.4,3095.7,3094.19,3092.05,3091.32,3093.75,3096.79,3100.77,3106.53,3113.87,3122.25,3131.17,3139.67,3148.31,3154.56,3159.97,3164.21,3165.28,3165.9,3165.23,3165.06,3165.56,3166.49,3165.82,3164.65,3163.22,3161.59,3159.26,3156.88,3153.84,3150.63,3147.23,3146.19,3145.15,3144,3142.22,3140.28,3138.29,3137.24,3136.01,3135.07,3134.39,3133.95,3134.05,3134.86,3137.28,3138.64,3140.08,3141.68,3142.65,3142.19,3141.51,3141.46,3140.74,3139.63,3136.96,3134.04,3128.9,3126,3123.56,3119.69,3114.9,3113.07,3108.94,3106.86,3105.61,3106.35,3108.9,3110.12,3111.39,3115.46,3122.2
0,0,0,0,0,0,0,0,0,0,0,0,0,0,0,0,0,0,0,0,0,0,0,0,0,0,0,0,0,0,0,0,0,0,0,4000,4000,4000,4000,4000,4000,4000,4000,4000,4000,4000,4000,1556,104,92,92,28,16,16,16,16,16,16,16,16,16,16,16,16,16,16,16,16,16,22.768,39.593,56.308,79.63,92.803,166.187,284.708,306.835,305.205,303.503,301.995,300.692,305.382,307.645,306.96,306.426,306.293,303.251,303.222,303.255,306.212,303.341,300.531,297.709,306.841,316.358,319.452,303.893,300.599,315.463,305.865,305.123,304.319,303.346,302.345,316.317,409.596,472.09,708.301,903.809,904.808,398.149,308.697,296.124,295.64,294.803,290.173,290.889,280.087,1507.47,2696.79,2886.35,2876.46,2861.89,2830.92,2471.5,2686.89,2169.14,1938.94,2697.73,2858.36,2872.89,2875.45,2876.67,2876.49,2868.5,2880.22,2904.04,2930.43,2952.23,2975.66,3003.93,3032.57,3061.63,3097.4,3117.29,3131.86,3140.95,3147.21,3149.97,3150.85,3153.26,3156.17,3159.15,3160.86,3161.76,3162.7,3162.8,3161.05,3163.39,3164.02,3164.4,3163.12,3161.38,3158.85,3154.42,3151.91,3151.85,3149.93,3148.14,3145.37,3144.51,3144.23,3144.77,3145.69,3146.23,3146.18,3146.2,3148.15,3151.44,3155.99,3161.02,3166.91,3175.87,3183.62,3193.23,3202.31,3212.17,3220.35,3227.61,3233.79,3238.27,3239.72,3240.75,3241.57,3242.38,3240.89,3238.61,3236.36,3234.87,3233.75,3232.87,3230.68,3227.32,3225.92,3223.9,3222.43,3222.96,3223.16,3223.23,3220.44,3216.33,3210.27,3202.15,3194.91,3186.63,3175.31,3164.05,3153.01,3146.38,3142.75,3141.1,3141.55,3142.06,3143.63,3147.4,3152.66,3159.18,3165.28,3172.29,3179.62,3188.25,3196.43,3205.83,3213.49,3219.27,3224.86,3229.87,3234.99,3238.68,3240.68,3241.41,3239.02,3235.25,3228.2,3218.33,3207.35,3197.07,3186.85,3177.74,3167.64,3159.82,3154.1,3150.41,3149.93,3153.55,3154.75,3156.25,3156.69,3159.51,3159.99,3166.83,3171.71,3171.75,3174.97,3175.06,3175.79,3177.98,3178.18,3178.06,3177.29,3174.54,3171.41,3167.75,3165.85,3164.88,3167.99,3166.91,3167.2,3167.48,3169.44,3173.31,3179.45,3185.33,3190.79,3196.97,3203.56,3206.23,3211.75,3214.35,3216.87,3218.96,3220.08,3219.78,3218.5,3218.2,3218.35,3219,3219.74,3220.63,3219.81,3219.29,3219.79,3218.55,3217.36,3214.57,3210.24,3207.81,3204.17,3199.98,3194.51,3187.79,3181.63,3176.99,3173.93,3171.04,3169.19,3167.17,3166.54,3165.86,3167,3168.1,3167.12,3165.86,3165.13,3165.4,3160.93,3155.39,3149,3141.69,3130.79,3122.81,3114.72,3106.86,3100.76,3095.43,3091.75,3089.65,3087.66,3087.03,3089.08,3092.23,3095.91,3102.06,3109.16,3117.34,3125.4,3134.11,3141.55,3147.46,3152.14,3155.97,3156.47,3156.79,3155.4,3154.38,3154.65,3155.3,3154.67,3154.39,3153.59,3153.18,3152.35,3151.72,3150.92,3148.92,3146.18,3146.45,3146.64,3146.33,3145.25,3145.36,3145.44,3143.8,3141.56,3140.18,3138.6,3137.2,3136.53,3137.08,3139.79,3141.15,3142.56,3146.85,3145.05,3146.3,3147.14,3148.34,3149.44,3148.39,3147.1,3144.32,3137.98,3132.98,3128.82,3123.83,3118.08,3117.07,3110.94,3107.02,3101.46,3101.34,3104.23,3107.04,3104.69,3110.91,3117.05
0,0,0,0,0,0,0,0,0,0,0,0,0,0,0,0,0,0,0,0,0,0,0,0,0,0,0,0,0,0,0,0,0,0,0,4000,4000,4000,4000,4000,4000,4000,4000,4000,4000,4000,2268,1044,1032,1032,156,20,20,20,20,20,20,20,20,20,20,20,20,20,20,20,20,20,20,20,43.742,74.849,101.284,182.208,260.167,360.698,1375.04,1601.92,1593.91,1585.38,1577.34,1576.59,1571.04,1569.67,1566.97,1561.84,1561.3,1559.86,1562.72,1556.59,1557.04,1554.25,1563.37,1569.82,1576.15,1560.39,1559.73,1568.09,1560.45,1558.29,1555.23,1551.38,1547.15,1555.29,1627.46,1670.97,1811.8,1591.15,1526.72,1532,1518.18,1515.74,1512.32,1508.2,1501.15,1482.59,1455.6,1512.66,2257.21,2675.58,2694.02,2692.74,2778.36,2799.33,2843.67,1964.89,2060.53,2439.77,2865.68,2896.08,2902.54,2905.62,2908.35,2905.46,2892.64,2904.35,2928.41,2947.79,2965.28,2984.23,3007.15,3028.64,3053.67,3084.35,3102.53,3116.85,3126.78,3133.04,3135.83,3137.61,3141.63,3146.61,3151.67,3154.66,3157.15,3158.84,3160.12,3159.55,3162.63,3164.44,3165.68,3164.8,3163.41,3160.69,3156.7,3154.36,3154.87,3153.61,3151.9,3149.55,3148.94,3149.38,3149.94,3150.94,3151.31,3150.68,3149.99,3152.07,3154.92,3159.7,3164.1,3169.48,3177.5,3184.64,3193.48,3202.12,3210.62,3218.5,3224.5,3230.15,3233.81,3234.91,3236.23,3236.93,3237.54,3236.07,3234.31,3232.12,3231.16,3230.33,3230.34,3228.28,3225.74,3224.58,3223.14,3221.74,3222.35,3223.07,3223.55,3220.31,3215.5,3209.47,3201.06,3193.87,3185.3,3174.53,3163.31,3152.65,3146.04,3143.63,3143.35,3144.62,3146.2,3149.46,3154.91,3161.95,3168.61,3175.84,3183.43,3191.31,3199.92,3209.04,3217.91,3225.17,3230.6,3236.82,3241.81,3246.91,3251.11,3252.44,3252.95,3250.12,3245.49,3237.56,3225.7,3212.69,3201.77,3190.33,3178.81,3166.27,3156.38,3149.37,3144.01,3145.3,3148.6,3147.59,3147.25,3148.39,3151.74,3149.41,3157.49,3167.27,3172,3175.96,3179.22,3176.15,3179.16,3180.46,3183.76,3182.91,3179.63,3175.23,3174.51,3165.56,3167.78,3170.44,3168.85,3168.41,3167.76,3169.61,3173.8,3179.94,3185.43,3190.51,3196.81,3197.87,3204.49,3210,3213.03,3216.22,3218.41,3219.55,3219.33,3218.32,3217.79,3218.27,3218.96,3219.75,3220.76,3220.39,3220.23,3220.11,3218.7,3217.38,3213.98,3209.88,3207.14,3203.18,3198.93,3193.36,3186.5,3179.71,3174.62,3171.66,3168.03,3168.49,3166.79,3165.83,3165.09,3166.23,3168.59,3168.54,3168.35,3172.19,3169.57,3165.83,3160.75,3154.67,3147.79,3136.77,3128.37,3119.65,3112.11,3105.68,3099.6,3095.67,3093.44,3091.14,3090.49,3092.7,3095.66,3099.04,3107.38,3113.99,3121.15,3129.1,3136.38,3143.43,3148.11,3151.66,3154.67,3149.13,3147.43,3145.48,3144.1,3143.86,3145.49,3145.78,3146.26,3146.56,3147.47,3148.21,3149.92,3151.25,3150.96,3149.67,3151.39,3151.77,3152.47,3154.94,3159.77,3158.65,3156.24,3153.49,3151.63,3149.23,3144.06,3145.99,3146.68,3149.1,3150.98,3150.61,3154.9,3153.4,3155.08,3156.75,3159.07,3160.64,3156.84,3156.95,3154.66,3149.3,3144.24,3139.39,3133.78,3130.48,3122.56,3114.57,3108.57,3104.04,3101.55,3099.78,3101.09,3099.65,3103.83,3105.93
0,0,0,0,0,0,0,0,0,0,0,0,0,0,0,0,0,0,0,0,0,0,0,0,0,0,0,0,0,0,0,0,0,0,0,4000,4000,4000,4000,4000,4000,4000,4000,4000,4000,3724,3700,3688,3688,2164,20,20,20,20,20,20,20,20,20,20,20,20,20,20,20,20,20,20,20,20,20,75.012,95.262,190.733,359.326,1102.88,1543.43,2812.79,3132.9,3222.65,3250.56,3248.92,3247.78,3237.77,3226.06,3220.86,3216.32,3216.96,3211.5,3208.02,3204.99,3207.65,3210.71,3213.52,3207.45,3209.56,3208.28,3208.8,3202.22,3197.92,3195.97,3190.06,3186.47,3189.21,3190.68,3167.34,3100.81,3008.02,3146.48,3140.98,3134.57,3124.41,3115.93,3108.47,3081.87,3036.8,2999.15,1988.77,1997.89,2209.89,2213.26,2416.63,2919.45,2917.81,2863.23,2854.35,2767.62,2690.56,2917.5,2926.14,2931.52,2934.01,2936.4,2927.83,2917.78,2910.62,2945.25,2959.96,2972.8,2987.91,3007.95,3024.71,3046.42,3073.32,3090,3102.95,3112.61,3118.76,3121.82,3125.16,3130.86,3137.65,3143.9,3147.97,3151.9,3154.93,3156.94,3157.85,3161.4,3163.64,3165.52,3165.17,3164.18,3161.62,3157.85,3156.16,3156.74,3156.41,3155.48,3153.01,3152.77,3153.81,3154.69,3156.03,3156.53,3155.52,3154.74,3156.64,3159.88,3163.85,3167.62,3172.75,3179.63,3185.79,3193.74,3201.39,3208.4,3214.4,3219.33,3223.92,3227.58,3228.39,3228.65,3229.93,3230.41,3229.33,3227.75,3226.41,3226.06,3226.4,3226.53,3225.44,3224.2,3223.17,3221.48,3220.81,3221.46,3222.14,3222.24,3218.88,3213.42,3206.89,3199.57,3192.42,3183.63,3172.91,3161.87,3152.14,3146.63,3145.15,3145.23,3147.73,3150.25,3154.68,3161.45,3169.1,3176.59,3184.82,3192.34,3200.62,3209.26,3218.91,3227,3234.62,3240.5,3246.67,3251.66,3257,3260.72,3261.59,3261.73,3259.25,3254.98,3246.76,3235.57,3222.72,3211.43,3199.5,3185.9,3171.32,3159.32,3151.25,3147.33,3145.87,3142.82,3139.72,3138.25,3139.56,3143.03,3141.03,3145.69,3159.27,3166.43,3169.75,3174.46,3175.51,3179.53,3182.21,3183.68,3186.32,3183.46,3179.61,3176.74,3175.41,3175.37,3178.74,3177.61,3176.82,3176.39,3176.77,3178.84,3182.6,3186.52,3189.32,3193.56,3195.31,3200.64,3204.62,3204.2,3206.51,3208.53,3209.63,3209.98,3209.62,3209.71,3210.24,3211.47,3213.2,3215.58,3215.91,3216.38,3216.74,3215.5,3214.14,3210.33,3205.8,3202.96,3199.07,3195.57,3189.49,3183,3176.07,3171.02,3168.27,3165.82,3163.49,3163,3162.43,3165.93,3168.5,3172.57,3173.38,3174.92,3176.28,3177.72,3174.13,3167.76,3161.09,3153.61,3145.33,3133.16,3124.1,3116.01,3109.18,3102.88,3098.62,3096.02,3090.74,3092.95,3094.87,3097.27,3100.31,3108.8,3113.88,3120.33,3127.15,3134.1,3139.77,3142.88,3145.28,3147.3,3142.56,3136.83,3134.55,3132.52,3132.6,3134.13,3135.68,3137.63,3138.87,3141.34,3143.67,3147.21,3150.52,3151.85,3151.32,3154.02,3154.7,3158.27,3161.66,3163.92,3163.22,3160.72,3157.75,3156.18,3153.52,3151.56,3150.21,3150.53,3152.2,3153.91,3156.99,3161.45,3160.55,3162.52,3164.73,3167.93,3170.65,3170.23,3171.14,3170.31,3160.13,3158.76,3157.42,3151.97,3144.85,3136.41,3127.62,3119.48,3112.33,3106.77,3103.15,3102.84,3099.54,3099.39,3103.08
0,0,0,0,0,0,0,0,0,0,0,0,0,0,0,0,0,0,0,0,0,0,0,0,0,0,0,0,0,0,0,0,0,0,0,4000,4000,4000,4000,4000,4000,4000,4000,4000,4000,4000,4000,4000,2764,88,24,24,24,24,24,24,24,24,24,24,24,24,24,24,24,24,24,24,24,24,24,24,78.1,118.753,325.613,1410.09,2613.4,2928.07,3183.12,3241.96,3269.51,3262.95,3266.73,3256.25,3248.71,3242.67,3239.42,3231.72,3227.95,3220.23,3219.13,3219,3218.94,3218.82,3227.35,3226.05,3226.24,3222.9,3218.31,3213.71,3208.08,3205.11,3198.46,3187.87,3100.87,3112.37,3022.03,3171.26,3170.04,3162.13,3152.99,3142.58,3129.38,3114.4,3086.91,3052.25,1633.81,662.222,263.275,2290.64,2535.32,2863.77,2950.7,2952.19,2923.21,2950.47,2701.38,2819.28,2934.87,2948.14,2955.37,2953.19,2952.06,2949.52,2938.43,2941.31,2957.72,2966.92,2976.11,2988.78,3007.7,3020.14,3039.48,3063.89,3078.41,3089.68,3098.23,3104.98,3108.48,3113.11,3120.03,3127.8,3135.25,3140.41,3145.52,3150.14,3152.97,3155.13,3159.46,3162.15,3164.54,3164.99,3163.81,3161.88,3157.72,3156.46,3157.72,3157.62,3156.78,3155.29,3155.33,3156.61,3157.77,3159.49,3160.49,3159.64,3158.66,3160.74,3163.43,3167.27,3170.22,3174.97,3180.9,3186.1,3192.85,3199.27,3204.31,3209.01,3212.3,3216.12,3218.69,3219.34,3219.14,3219.37,3219.65,3218.73,3217.34,3216.96,3217.49,3218.35,3219.53,3220.16,3220.24,3219.63,3218.97,3218.43,3219.08,3219.61,3218.81,3215.69,3211.2,3204.8,3197.79,3190.82,3182.88,3173.45,3162.95,3154.17,3149.32,3147.96,3148.53,3151.23,3154.07,3160.36,3167.45,3175.66,3183.57,3192.46,3200.51,3209.07,3218.09,3227.71,3235.64,3242.38,3249.03,3254.64,3260.21,3265.19,3268.02,3268.76,3269.46,3268.26,3263.62,3256.34,3246.03,3234.44,3222.81,3210.72,3195.39,3179.25,3166.63,3160.5,3154.92,3147.85,3143.13,3138.55,3136.27,3136.74,3139.21,3136.2,3140.97,3157.7,3165.14,3172.37,3177.65,3182.41,3180.55,3183.7,3189.13,3191.61,3188.71,3185.64,3184.06,3180.26,3180.55,3184.83,3184.59,3185.86,3186.34,3185.82,3186.94,3188.43,3190.06,3190.21,3191.28,3191.65,3193.72,3195.43,3198.11,3200.27,3198.32,3196.47,3196.59,3196.79,3197.47,3198.61,3204.07,3206.82,3206.18,3207.43,3208.69,3209.14,3208.52,3207.52,3204.39,3199.58,3196.45,3192.69,3190.47,3185.23,3179.08,3172.7,3167.88,3165.74,3163.61,3160.82,3160.09,3158.29,3158.14,3164.04,3167.87,3169.66,3172.2,3174.03,3173.58,3174.35,3169.71,3163.64,3156.9,3150,3142,3133.07,3125.19,3118.66,3112.78,3108.51,3106.13,3103.45,3102.16,3103.13,3104.26,3106.45,3114.05,3117.6,3122.59,3128.06,3133.88,3137.48,3139.51,3140.61,3138.62,3133.01,3130.27,3127.92,3122.5,3122.44,3124.86,3127.5,3130.96,3133.47,3137.06,3141.54,3146.55,3151.08,3153.42,3154.05,3160.51,3164.6,3165.38,3166.1,3168.67,3168.26,3165.72,3162.72,3161.15,3157.93,3155.55,3153.94,3154.24,3155.63,3157.56,3160.93,3165.64,3164.71,3167.07,3169.69,3173.21,3176.28,3176.58,3178.67,3178.73,3175.83,3172.33,3168.06,3162.99,3155.55,3146.27,3136.8,3126.87,3117.76,3109.78,3103.76,3102.05,3097.86,3096.15,3097.91
0,0,0,0,0,0,0,0,0,0,0,0,0,0,0,0,0,0,0,0,0,0,0,0,0,0,0,0,0,0,0,0,0,0,0,4000,4000,4000,4000,4000,4000,4000,4000,4000,4000,4000,4000,3108,84,24,24,24,24,24,24,24,24,24,24,24,24,24,24,24,24,24,24,24,24,24,24,24,20,125.662,855.228,1479.17,2823.67,3181.92,3302.77,3305.06,3298.9,3282.87,3273.27,3263.82,3257.66,3249.88,3237.98,3232.02,3227.47,3224.36,3216.03,3215.63,3215.5,3221.18,3225.68,3223.15,3219.41,3215.08,3210.17,3205.15,3199.13,3193.22,3183.44,3084,3107.7,3018.27,3166.96,3163.62,3155.09,3147.51,3135.88,3119.65,3106.67,3085.02,3061.28,1770.73,471.485,69.281,2105.12,2615.81,2944.86,2965.76,2961.68,2963.85,2964.43,2901.77,2898.01,2955.9,2953.58,2966.41,2974.18,2969.9,2972.86,2964.88,2953.9,2955.17,2967.68,2973.26,2980.04,2990.25,3007.33,3016.37,3035.15,3057.32,3069.56,3079.5,3087.9,3094.64,3098.51,3104.14,3111.69,3119.98,3127.59,3133.78,3139.89,3145.06,3148.69,3151.98,3157.06,3160.37,3163.3,3163.93,3163.19,3161.62,3157.83,3157.06,3158.01,3158.2,3158.22,3157.24,3158.01,3160.6,3162.51,3164.67,3165.47,3165.04,3163.93,3166.62,3168.46,3171.65,3174.3,3178.51,3183.24,3187.46,3192.83,3197.69,3200.5,3203.38,3205.19,3207.41,3208.49,3208.16,3206.5,3206.7,3206.97,3206.24,3205.26,3205.62,3206.85,3209,3210.79,3213,3214.14,3215.64,3215.77,3217.05,3218.36,3219.58,3218.49,3215.33,3210.84,3205.26,3198.46,3191.66,3183.22,3174.52,3165.01,3157.64,3153.38,3151.63,3152.03,3155.1,3158.53,3165.12,3172.29,3180.87,3188.99,3197.41,3205.14,3214.32,3223.24,3233.22,3240.84,3247.93,3254.15,3261.11,3266.42,3271.21,3274.26,3275.94,3277.45,3276.54,3272.93,3266.34,3257.35,3245.21,3234.1,3222.3,3206.11,3188.77,3174.17,3168.8,3158.89,3149.37,3143.06,3137.59,3133.76,3133.13,3134.98,3137.82,3142.78,3155.09,3163.28,3170.31,3176.39,3181.14,3185.53,3188.91,3192.12,3192.47,3189.97,3187.34,3186.12,3186.76,3188.58,3190.55,3191.61,3193.39,3193.58,3191.77,3191.56,3190.65,3189.82,3187.46,3185.94,3183.43,3182.97,3183.16,3184.88,3186.64,3188.26,3189.49,3189.99,3190.61,3191.93,3193.54,3197.47,3201.52,3205.19,3207.45,3209.7,3211.11,3210.78,3210.11,3207.38,3202.76,3199.43,3195.83,3193.77,3188.78,3182.42,3175.76,3171.61,3169,3167.02,3163.7,3162.49,3160.09,3159.6,3162.18,3166.32,3168.57,3171.48,3173.68,3174.76,3173.79,3169.99,3165.27,3159.53,3153.58,3146.51,3139.19,3132.27,3126.57,3121.44,3117.46,3115.53,3112.96,3110.65,3110.85,3111.4,3112.61,3119.08,3121.42,3125.2,3129.29,3133.65,3136.15,3136.89,3137.32,3137.21,3130.83,3127.33,3124.44,3122.61,3119.81,3119.98,3123.46,3128.07,3131.86,3137.25,3142.82,3148.76,3154.47,3157.46,3158.34,3165.04,3166.24,3170.47,3171.21,3173.81,3173.48,3170.67,3167.63,3165.69,3161.92,3158.99,3157.07,3156.66,3157.92,3159.82,3162.99,3167.75,3167.05,3170.07,3172.95,3176.9,3180.4,3181.2,3183.65,3185.12,3184,3181.01,3177.48,3172.18,3165.01,3155.7,3145.7,3133.93,3123.02,3113.04,3105.35,3101.97,3096.71,3094.1,3094.52
0,0,0,0,0,0,0,0,0,0,0,0,0,0,0,0,0,0,0,0,0,0,0,0,0,0,0,0,0,0,0,0,0,0,0,4000,4000,4000,4000,4000,4000,4000,4000,4000,4000,4000,3236,64,24,24,24,24,24,24,24,24,24,24,24,24,24,24,24,24,24,24,24,24,24,24,24,24,24,24,956.888,2238.38,2940.27,3307.53,3342.77,3337.1,3315.15,3309.13,3296.75,3277.57,3263,3253.53,3246.9,3236.25,3224.63,3220.31,3217.46,3215.75,3218.02,3219.41,3220.26,3216.97,3212.61,3207.53,3202.9,3197.17,3191.45,3181.9,3082.78,3103.73,3011.26,3166.75,3155.6,3151.38,3146.58,3136.33,3126.57,3115.3,3090.91,3073.5,1778.03,468.49,42.749,137.054,586.962,2901.34,2989,2979.96,2969.02,2969.27,2967.9,2967.43,2968.49,2969.61,2959.8,2983.93,2988.85,2987.19,2990.79,2979.82,2966.95,2966.1,2976.51,2979.76,2984.45,2992.78,3007.76,3014.28,3035.48,3056.28,3067.46,3076.13,3084.5,3092.04,3096.41,3102.61,3110.42,3117.79,3125.19,3130.92,3136.79,3142.83,3147.24,3151.36,3156.12,3159.79,3162.79,3163.94,3162.97,3161.75,3158.43,3157.29,3158.32,3159.15,3159.4,3159.43,3160.94,3164.31,3166.98,3169.11,3170.71,3170.18,3169.7,3172.21,3173.93,3177.32,3179.18,3182.95,3187,3190.14,3194.17,3197.39,3197.87,3199.34,3200.59,3201.73,3201.33,3199.74,3197.35,3196.97,3196.2,3195.29,3194.82,3195.69,3197.15,3200.13,3202.46,3205.61,3208.1,3210.14,3211.65,3214.59,3216.44,3217.69,3216.45,3214.02,3209.89,3204.99,3198.41,3192.37,3183.76,3175.28,3166.46,3160.6,3156.32,3154.92,3155.44,3158.77,3162.07,3168.81,3175.86,3184.27,3192.16,3200.22,3207.52,3215.64,3224.02,3233.68,3241.5,3248.44,3254.82,3261.8,3267.21,3271.93,3275.69,3277.09,3278.22,3278.37,3275.06,3269.58,3262.01,3249.73,3239.57,3227.3,3212.85,3194.85,3179.28,3174.06,3163.18,3151.28,3144.37,3137.84,3132.74,3131.6,3132.63,3134.67,3139.06,3150.54,3158.31,3165.66,3171.96,3176.67,3180.43,3183.7,3187.08,3187.92,3185.58,3183.49,3182.73,3184.48,3187.12,3189.59,3191.6,3193.22,3193.25,3190.87,3189.69,3187.26,3185.26,3181.21,3178.52,3174.36,3172.41,3171.64,3171.95,3172.66,3174.71,3176.47,3177.09,3177.83,3180,3182.52,3186.96,3191.53,3196.48,3199.03,3201.59,3203.7,3204.06,3203.84,3201.74,3197.65,3194.91,3191.39,3190.29,3185.4,3179.53,3173.18,3169.17,3166.9,3164.85,3161.9,3160.33,3157.31,3156.46,3158.79,3162.61,3165.14,3168.45,3170.74,3173,3172.63,3170.03,3166.23,3161.64,3156.84,3151.15,3144.7,3139.15,3134.45,3129.79,3126.88,3125.14,3123.03,3120.88,3120.21,3120.07,3120.12,3125.25,3127.26,3129.38,3131.78,3134.78,3136,3135.67,3135.12,3133.81,3127.05,3122.9,3120.16,3118.25,3112.33,3116.27,3120.72,3126.06,3131.28,3138.16,3144.78,3151.88,3158.89,3162.09,3163.64,3167.44,3168.83,3176.17,3177.2,3179.71,3179.37,3176.49,3172.64,3170.69,3166.18,3163.11,3160.43,3159.35,3160.07,3161.65,3164.35,3168.96,3168.77,3171.87,3174.79,3179.37,3182.74,3180.13,3186.75,3189.29,3189.19,3187.02,3184.01,3179.26,3172.06,3162.24,3152.05,3139.53,3126.56,3114.89,3106.29,3101.46,3095.89,3092.57,3092.24
0,0,0,0,0,0,0,0,0,0,0,0,0,0,0,0,0,0,0,0,0,0,0,0,0,0,0,0,0,0,0,0,0,0,0,4000,4000,4000,4000,4000,4000,4000,4000,4000,4000,3700,24,24,24,24,24,24,24,24,24,24,24,24,24,24,24,24,24,24,24,24,24,24,24,24,24,24,24,24,20,2419.82,3065.33,3341.75,3366.89,3359.8,3350.51,3330.6,3319.17,3297.65,3285.16,3274.61,3262.9,3253.74,3237.45,3232.54,3229.11,3226.3,3224.76,3222.28,3219.15,3215.12,3210.22,3205.21,3199.39,3193.87,3184.62,3110.28,3109.37,3019.25,3168.82,3166.42,3163.56,3158.94,3151.39,3140.64,3127.92,3112.25,3089.11,1758.91,543.991,162.233,211.054,364.156,2699.18,3007.71,2996.57,2981.38,2980.19,2979.24,2978.55,2981.21,2977.23,2886.74,2984.57,2995.54,3003.51,3002.02,3006.28,2992.63,2977.62,2975.29,2984.79,2986.49,2990.05,2996.29,3007.44,3013.42,3036.56,3057.95,3068.86,3076.83,3084.79,3092.76,3098.9,3104.94,3111.72,3118.79,3125.16,3130.07,3136.26,3141.53,3146.96,3151.04,3155.43,3158.33,3161.51,3162.65,3161.82,3160.51,3157.79,3155.9,3156.75,3157.71,3158.59,3159.29,3161.72,3165.66,3169.63,3172.64,3174.88,3175.17,3175.35,3179.04,3181.1,3183.87,3186.01,3189.03,3192.18,3194.7,3197.34,3198.87,3197.5,3196.92,3196.53,3196.65,3194.82,3192.54,3188.63,3186.69,3185.55,3185.12,3184.1,3185.06,3187.03,3190.43,3192.78,3197.01,3200.93,3203.48,3206.13,3210.01,3213.03,3214.99,3214.1,3212.64,3209.86,3205.27,3199.87,3194.44,3186.43,3178.58,3170.03,3164.28,3160.4,3158.7,3158.68,3161.43,3164.52,3170.94,3177.59,3185.19,3192.46,3199.55,3205.71,3212.97,3220.61,3229.6,3236.67,3243.12,3249.59,3256.29,3262.13,3266.6,3270.49,3271.66,3272.53,3273.41,3271,3266.45,3260.2,3249.33,3240.33,3230.06,3216.4,3200.5,3185.06,3179.48,3168.82,3156.78,3148.77,3141.61,3135.68,3133.66,3133.34,3134.26,3137.64,3147.66,3154.49,3161.07,3166.73,3171.45,3174.8,3177.77,3181.22,3181.9,3180.16,3178.37,3178.18,3179.57,3182.06,3184.64,3186.88,3188.53,3188.59,3186.2,3184.33,3182.28,3178.89,3174.47,3171.42,3165.82,3163.01,3161.18,3161.2,3161.47,3162.71,3163.94,3165.26,3165.9,3168.42,3171.4,3176.87,3182.42,3188.08,3190.94,3194.58,3197.15,3198.44,3199.05,3197.27,3193.65,3191.11,3188.08,3187.27,3183,3177.05,3171.78,3167.94,3165.69,3163.62,3160.43,3159.14,3156,3155.07,3156.8,3160.98,3163.68,3166.95,3169.53,3172.5,3172.81,3170.76,3167.85,3164.56,3160.67,3156.59,3151.38,3147.34,3144.11,3140.75,3138.62,3137.33,3135.29,3133.1,3131.87,3130.56,3129.6,3133.42,3133.95,3134.56,3135.54,3137.42,3137.13,3135.48,3133.86,3131.57,3123.85,3119.41,3116.43,3114.4,3111.62,3113.79,3119.03,3125.33,3131.72,3139.78,3147.61,3155.73,3163.56,3167.42,3169.94,3174.32,3175.92,3180.64,3184.67,3186.29,3185.86,3182.51,3178.42,3175.27,3170.67,3166.28,3163.39,3161.29,3161.42,3162.1,3164.96,3168.71,3168.61,3171.58,3174.95,3179.01,3182.76,3183.83,3187.64,3190.92,3191.93,3189.9,3187.25,3182.57,3175.34,3166.12,3155.89,3142.4,3128.34,3115.56,3106.41,3101.04,3094.99,3091.18,3090.26
0,0,0,0,0,0,0,0,0,0,0,0,0,0,0,0,0,0,0,0,0,0,0,0,0,0,0,0,0,0,0,0,0,0,0,4000,4000,4000,4000,4000,2652,2000,2000,2000,808,24,24,24,24,24,24,24,24,24,24,24,24,24,24,24,24,24,24,24,24,24,24,24,24,24,24,24,24,24,20,20,1808.03,2236.99,2702.19,2907.1,3036.49,3117,3194.91,3217.92,3203.03,3187.8,3178.19,3164.7,3156.02,3146.68,3142.31,3138.82,3134.8,3131.18,3127.71,3122.49,3118.11,3112.74,3119.44,3119.75,3145.79,3080.17,3044.16,3082.18,3078.82,3075.38,3071.82,3067.93,3060.16,3048.68,3012.3,2692.46,1889.25,2624.72,2828.78,2757.01,2800.42,2946.5,2873.27,2998.74,2995.87,2995.06,2983.53,2987.25,2985.99,2986.76,2987.91,2590.11,2928.74,3007.19,3015.14,3016.27,3017.46,3001.63,2966.18,2983.08,2991.58,2991.1,2994.8,2999.73,3008.57,3016.14,3040.98,3062.46,3074.13,3081.56,3089.47,3097.44,3103.88,3109.96,3117.04,3123.93,3129.19,3134.22,3139.36,3144.46,3149.45,3153.45,3157.02,3159.73,3162.56,3163.51,3162.39,3160.89,3157.54,3154.9,3154.88,3155.96,3157.22,3158.59,3161.81,3167.05,3171.9,3176.25,3179.14,3180.91,3182.26,3187.01,3189.74,3192.93,3195.45,3198.86,3201.52,3203.19,3204.35,3204.47,3201.31,3198.4,3196.67,3194.65,3191.71,3188.71,3183.71,3180.49,3178.22,3177.06,3176.34,3177.22,3178.71,3182.25,3185.26,3190.2,3194.87,3198.03,3201.19,3205.54,3208.86,3211.37,3210.75,3210.56,3208.57,3205.07,3200.75,3195.86,3189.04,3182.24,3174.13,3168.67,3164.75,3162.77,3162.37,3164.74,3167.22,3172.73,3178.33,3184.89,3190.71,3196.36,3201.46,3206.94,3213.4,3221.52,3227.06,3232.72,3238.72,3245.81,3251.04,3255.42,3259.11,3260.89,3262.62,3264.43,3263.07,3260.4,3255.75,3247.5,3240.46,3232.58,3220.36,3206,3191.67,3182.93,3172.44,3160.49,3153.9,3146.15,3139.23,3136.13,3134.87,3134.46,3137.03,3145.74,3152.05,3157.78,3162.77,3166.91,3170.49,3173.03,3176.49,3177.55,3175.84,3174.68,3174.55,3175.95,3178.35,3180.73,3183.38,3184.91,3184.85,3181.86,3179.03,3176.98,3172.5,3168.09,3164.05,3157.24,3153.67,3151.45,3151.36,3151.55,3151.85,3153.03,3154.11,3155.37,3158.52,3162.38,3168.29,3174.55,3180.8,3184.53,3188.4,3191.96,3193.59,3194.56,3194.05,3190.99,3188.39,3185.98,3186.06,3181.9,3176.85,3171.46,3167.61,3165.66,3163.94,3160.84,3159.34,3156.02,3154.74,3156.66,3159.93,3163.05,3166.5,3169.24,3172.77,3173.35,3172.28,3170.37,3167.98,3165.5,3162.15,3157.82,3155.53,3153.24,3151.26,3150.38,3149.91,3148.44,3146.38,3144.5,3142.34,3140.16,3143.08,3142.23,3141.53,3140.83,3141.09,3139.31,3136.47,3133.85,3129.99,3121.43,3116.86,3113.75,3111.77,3109.86,3115.31,3118.55,3125.67,3133.55,3143.32,3151.73,3161.05,3169.67,3174.63,3177.98,3182.7,3184.8,3189.42,3193.38,3194.7,3193.6,3189.43,3184.91,3180.62,3175.24,3169.83,3166.08,3162.8,3161.78,3161.74,3163.2,3166.37,3165.4,3168.23,3170.77,3174.5,3178.2,3178.83,3183.11,3186.53,3187.65,3186.36,3184.02,3180.04,3173.78,3165.14,3155.79,3143.1,3129.67,3117.2,3107.73,3102.98,3096.94,3092.8,3091.68
0,0,0,0,0,0,0,0,0,0,0,0,0,0,0,0,0,0,0,0,0,0,0,0,0,0,0,0,0,0,0,0,0,0,0,4000,4000,4000,4000,2928,2652,2652,2652,2420,16,16,20,20,24,24,24,24,24,24,24,24,24,24,24,24,24,24,24,24,24,24,24,24,24,24,24,24,24,24,20,20,16,2311.34,2523.52,2650.52,2707.62,2765.59,2824.8,2883.97,2898.25,2888.89,2872.54,2874.13,2859.29,2848.16,2842.88,2838.93,2834.41,2830.32,2825.87,2821.9,2826.61,2896.62,2935.27,3002.87,2810.74,2727.48,2787.96,2784.26,2779.42,2774.85,2771.46,2766.46,2758.36,2723.51,2483.07,1513.39,2293.47,2524.05,2450.53,2536.28,2862.85,2819.44,2981.99,3009.69,3006.65,2995.75,2991.94,2990.04,2987,2993.09,2789.84,2215.84,2785.91,3010.98,3022.86,3028.9,3024.47,3004.42,2960.57,2987.1,2995.03,2994.42,2998.8,3003.19,3010.29,3021.83,3048,3069.55,3080.76,3088.31,3096.11,3103.4,3109.45,3116.21,3123.48,3130.07,3135.08,3139.64,3144.3,3149.68,3154.57,3158.13,3161.16,3162.97,3165.45,3165.72,3164.08,3161.82,3157.93,3154.73,3153.21,3153.64,3155.71,3157.63,3161.22,3167.67,3173.16,3178.29,3182.6,3185.56,3188.74,3194.08,3197.44,3201.43,3204.28,3207.87,3210.52,3211.62,3212.04,3210.8,3206,3201.64,3198.59,3195.41,3190.64,3186.33,3180.27,3176.29,3173.03,3171,3169.89,3169.93,3171.1,3174.31,3177.46,3182.9,3188.42,3192.34,3195.84,3200.63,3204.31,3207.6,3208.29,3208.74,3208.33,3205.35,3202.23,3199.12,3193.53,3187.31,3180.32,3174.65,3170.44,3168.28,3167.81,3169.42,3170.94,3174.63,3178.99,3183.72,3187.76,3191.8,3194.81,3198.8,3203.11,3209.24,3213.39,3217.98,3223.25,3229.65,3235.08,3239.51,3243.79,3246.4,3248.52,3251.66,3252.33,3251.47,3249.66,3244.56,3240.58,3234.7,3224.85,3212.12,3198.64,3190.83,3180.42,3170.52,3160.13,3150.88,3143.44,3139.89,3137.52,3136.7,3138.46,3145.5,3150.95,3155.97,3160.39,3164.34,3167.88,3170.07,3173.77,3174.64,3173.56,3172.81,3173.23,3174.7,3176.64,3178.61,3181.23,3182.52,3181.66,3178,3174.56,3170.81,3166.26,3160.53,3156.15,3148.19,3143.25,3140.58,3140.49,3140.35,3141.25,3142.44,3144.16,3145.87,3149.91,3154.18,3160.79,3167.65,3174.85,3179.03,3183.65,3187.5,3189.95,3191.58,3191.31,3189.05,3186.74,3184.52,3185.36,3181.52,3176.78,3171.97,3168.12,3166.21,3164.55,3161.98,3160.78,3157.09,3156.15,3157.54,3161.46,3164.72,3168.07,3170.48,3174.38,3175.98,3175.17,3173.56,3172.13,3169.5,3166.95,3163.58,3162.53,3161.18,3159.9,3159.55,3159.7,3158.68,3156.81,3155.54,3152.66,3149.99,3151.72,3149.76,3148.05,3146.24,3145.2,3142.01,3137.79,3134.34,3129.57,3120.78,3115.19,3112.24,3110.44,3105.7,3112.07,3119.02,3127.23,3135.83,3146.34,3156.16,3166.38,3175.5,3180.94,3184.61,3189.83,3192,3196.1,3200.56,3201.71,3200.05,3195.69,3191.38,3186.75,3180.12,3174.24,3169.72,3165.72,3163.04,3161.55,3162.6,3164.1,3161.68,3163.37,3162.23,3164.84,3170.82,3171.25,3175.1,3178.28,3180.36,3179.59,3177.75,3174.75,3169.98,3162.59,3154.36,3142.71,3130.68,3118.63,3109.5,3105.53,3099.75,3096.04,3095.32
0,0,0,0,0,0,0,0,0,0,0,0,0,0,0,0,0,0,0,0,0,0,0,0,0,0,0,0,0,0,0,0,0,0,0,3196,3952,4000,3048,2944,2940,2940,60,16,16,16,20,24,24,24,24,24,24,24,24,24,24,24,24,24,24,24,24,24,24,24,24,24,24,24,24,24,24,24,20,16,16,16,2537.73,2616.33,2703.89,2775.3,2818.65,2904.82,2967.11,2994.11,2984.68,2971.89,2960.5,2954.49,2948.58,2942.49,2935.8,2930.28,2924.67,2922.71,2951.67,2980.92,3022.76,2871.65,2762.5,2889.68,2885.73,2880.47,2871.63,2866.57,2861.42,2857.4,2780.46,2100.51,444.163,1080.99,1315.56,1243.46,1288.91,2221.49,2773.89,2859.4,2949.43,3017.31,2987.32,2988.5,2990.16,2989.04,2852.15,2241.13,1683.44,1497.29,2784.31,3015.98,3030.28,3037.45,3027.85,3000.47,2965.84,2989.46,2996.5,2995.28,3000.07,3004.57,3011.96,3028.74,3055.43,3076.47,3087.99,3096.35,3104.23,3111.64,3118.38,3125.18,3132.54,3139.18,3144.34,3148.08,3152.26,3157.17,3162.17,3165.61,3167.35,3168.12,3169.36,3169.54,3167.15,3164.56,3160.01,3155.6,3152.91,3152.64,3154.42,3157.09,3161.7,3168.44,3174.54,3180.04,3185.14,3189.42,3193.22,3199.54,3202.65,3206.64,3210.26,3214.16,3216.67,3217.46,3216.83,3215.47,3210.03,3204.37,3200.62,3196.61,3191.28,3185.67,3179.02,3173.78,3169.49,3166.89,3165,3164.65,3165.46,3167.85,3170.8,3176.79,3182.49,3186.72,3190.56,3195.59,3199.65,3203.25,3205.07,3207.07,3207.9,3206.41,3204.44,3202.4,3198.4,3193.33,3187.02,3181.83,3177.47,3175.12,3173.85,3174.75,3174.87,3177.42,3179.96,3182.75,3184.83,3186.36,3187.14,3189.36,3191.48,3195.94,3198.68,3202.36,3206.95,3212.78,3218.84,3223.32,3228.09,3231.2,3234.64,3239.81,3241.59,3243.26,3244.51,3242.96,3241.86,3237.78,3230.61,3219.66,3207.2,3199.8,3189.92,3179.15,3168.13,3157.6,3148.94,3144.61,3141.77,3139.73,3139.95,3145.44,3149.07,3153.24,3157.04,3160.37,3163.42,3164.66,3168.31,3169.38,3169.4,3169.42,3170.53,3172.45,3174.71,3176.98,3179.66,3180.42,3179.27,3175.22,3170.67,3162.3,3159.53,3149.6,3147.01,3137.87,3132.35,3129.67,3129.08,3128.96,3130.24,3132.56,3135.03,3137.95,3142.56,3146.94,3153.72,3161.22,3168.38,3172.92,3178.19,3182.37,3185.49,3187.73,3187.74,3186.46,3184.41,3182.67,3183.46,3179.78,3175.65,3171.13,3167.74,3166.14,3165.38,3159.83,3158.45,3152.03,3151.17,3152.24,3155.4,3159.03,3165.98,3168.02,3172.4,3174.33,3173.9,3173.01,3171.4,3169.41,3166.99,3167.33,3166.84,3166.28,3166.07,3166.74,3167.72,3167.47,3166.63,3164.87,3162.31,3156.57,3158.25,3158.02,3155.96,3152.85,3149.93,3145.38,3140.57,3136.02,3130.76,3121.07,3115.02,3112.34,3107.28,3106.37,3112.88,3119.86,3128.13,3137.4,3148.55,3159.1,3169.44,3178.63,3184.6,3191.77,3196.96,3199.4,3203.46,3203.95,3203.88,3201.53,3198.93,3195.27,3191.04,3184.98,3179.04,3174.67,3169.93,3166.08,3164.2,3162.79,3157.95,3150.69,3150.78,3151.65,3153.34,3154.36,3154.38,3157.19,3161.08,3168.23,3165.51,3168.04,3169.07,3162.69,3160.41,3153.84,3143.34,3132.28,3120.67,3110.9,3104.17,3098.85,3088.5,3085.56
0,0,0,0,0,0,0,0,0,0,0,0,0,0,0,0,0,0,0,0,0,0,0,0,0,0,0,0,0,0,0,0,0,0,0,2392,2924,3200,3940,3940,3940,328,16,16,16,16,20,24,24,24,24,24,24,24,24,24,24,24,24,24,24,24,24,24,24,24,24,24,24,24,24,24,20,20,20,16,16,16,16,3357.76,3365.65,3365.75,3364.86,3348.67,3331.98,3307.46,3296.59,3282.83,3269.15,3255.57,3244.2,3240.05,3231.12,3223.41,3215.76,3215,3211.57,3114.12,3126.62,2984.87,3185.3,3177.43,3171.62,3161.24,3154.48,3144,3137.78,3118.61,2419.72,20.939,110.761,152.214,139.602,170.028,845.441,2868.9,2571.11,2694.98,3003.99,2710.94,2868.09,2919.74,2906.02,1419.85,902.824,507.757,324.207,1766.81,2989.92,3015.02,3036.68,3046.39,3012.6,2965.23,2869.68,2990.89,2996.63,2995.37,3000.23,3004.36,3010.45,3031.35,3058.42,3080.13,3092.82,3102.72,3111.27,3120.04,3127.3,3134.03,3142.46,3149.2,3154.41,3158.44,3161.88,3166.97,3171.67,3174.48,3175.74,3175.75,3176.18,3175.35,3172.04,3169.04,3163.59,3158.03,3154.42,3153.41,3155.5,3158.52,3163.32,3170,3176.54,3182.79,3189.01,3193.32,3197.78,3203.98,3207.47,3211.12,3215.3,3218.95,3221.25,3221.83,3220.84,3218.74,3212.73,3206.34,3202.07,3197.64,3191.96,3185.9,3178.36,3172.28,3167.46,3164.1,3162.07,3160.58,3160.99,3163.03,3165.08,3170.35,3176.29,3180.94,3185.24,3190.42,3194.48,3198.37,3201.02,3204.99,3207.37,3206.96,3206.12,3205.72,3202.81,3199.6,3194.12,3189.43,3185.05,3182.17,3180.16,3180.05,3179.08,3179.55,3180.01,3180.5,3180.14,3179.26,3177.95,3177.56,3177.34,3179.74,3180.77,3183.22,3186.92,3193.41,3199.42,3204.51,3209.74,3214.91,3219.57,3225.54,3229.55,3233.29,3236.75,3238.52,3238.95,3236.93,3231.71,3222.58,3211.7,3205.05,3195.61,3182.08,3173.56,3163.53,3154.15,3149.3,3144.91,3142.56,3140.91,3144.29,3146.3,3148.82,3151.65,3155.2,3157.37,3158.47,3161.88,3163.38,3164.09,3164.9,3166.42,3168.56,3170.64,3172.77,3172.99,3173.44,3175.42,3170.82,3165.8,3160.87,3150.88,3147.54,3140.77,3130.42,3124.32,3120.99,3120.84,3121,3122.28,3125.04,3127.79,3131.05,3136.01,3141.09,3148.05,3155.61,3160.04,3161.5,3166.88,3172.12,3175.48,3182.27,3183.57,3179.69,3178.82,3177.5,3178.45,3175.27,3170.84,3166.5,3163.36,3161.69,3160.58,3158.01,3156,3152.48,3151.26,3151.74,3154.07,3155.91,3158.54,3159.64,3163.09,3165.27,3164.95,3164.59,3163.93,3162.03,3160.3,3162.07,3162.82,3163.52,3164.33,3166.11,3167.68,3165.85,3166.18,3165.46,3163.23,3160.22,3160.56,3157.8,3155.08,3151.33,3148.25,3142.61,3136.2,3130.86,3124.83,3117.75,3112.32,3109.05,3107.57,3106.58,3112.5,3118.71,3126.84,3135.96,3147.3,3157.6,3167.87,3176.99,3182.69,3187.99,3193.35,3195.61,3199.35,3199.58,3201.35,3199.02,3193.27,3186.75,3181.77,3177.92,3169.01,3163.54,3158.2,3153.17,3153.1,3149.76,3144.58,3143.38,3142.61,3142.59,3143.17,3143.3,3144.06,3146.24,3149.35,3151.95,3152.97,3153.09,3151.87,3149.64,3145.48,3143.73,3138.05,3125.9,3116.13,3108.13,3102.27,3097.82,3093.95,3088.88
0,0,0,0,0,0,0,0,0,0,0,0,0,0,0,0,0,0,0,0,0,0,0,0,0,0,0,0,0,0,0,0,0,0,0,16,316,2224,2456,2856,16,16,16,16,16,20,20,20,24,24,24,24,24,24,24,24,24,24,24,24,24,24,24,24,24,24,24,24,24,24,24,24,20,20,20,16,16,16,16,16,3274.68,3358.05,3376.64,3359.39,3353.88,3343.88,3316.24,3302.28,3288.19,3273.07,3259.11,3246.75,3235.89,3226.38,3220.65,3209.08,3113.8,3135.17,2999.41,3193.25,3185.32,3176.71,3169.57,3162.45,3153.78,3143.83,3117.69,2415.41,3.126,0,0,0,18.932,525.542,2593.66,1665.8,2502.57,2977.21,2496.2,2749.75,2745.38,2641.99,1067.96,698.564,647.597,236.857,659.134,2737.77,2983.36,3028.7,3046.69,2861.5,2923.1,3003.17,2909.39,3002.32,3004.34,3002.48,3007.58,3011.1,3013.96,3035.86,3062.21,3085.34,3099.36,3110.18,3120.18,3129.51,3137.91,3145.43,3153.82,3161.35,3166.66,3170.29,3173.68,3177.94,3181.85,3184.24,3184.86,3183.31,3183.02,3181.19,3177.41,3173.84,3167.44,3160.81,3156.19,3154.55,3156.23,3159.29,3164.32,3171,3177.69,3184.09,3190.17,3194.77,3199.37,3205.32,3208.1,3211.96,3215.34,3218.68,3221.19,3221.66,3220.12,3217.7,3211.81,3205.62,3201.75,3197.18,3191.26,3185.19,3177.65,3171.47,3166.14,3161.94,3159.84,3158.06,3156.6,3158.1,3159.99,3164.89,3170.75,3175.41,3179.81,3184.87,3189.1,3193.79,3197.8,3202.32,3205.84,3205.96,3206.53,3207.57,3206.19,3204.11,3199.97,3195.92,3191.35,3188.5,3186.19,3185.36,3182.75,3181.79,3180.58,3178.96,3176.56,3173.5,3169.69,3167.41,3164.62,3164.54,3164.72,3166.14,3169.44,3175.3,3181.32,3186.73,3192.84,3198.56,3204.72,3211.51,3216.72,3221.85,3225.66,3227.66,3229.15,3227.92,3224.22,3217.24,3207.5,3198.84,3193.4,3181.68,3171.19,3162.7,3154.55,3149.13,3147.27,3144.51,3143.1,3142,3143.71,3145.37,3147.03,3149.63,3151.82,3151.92,3154.61,3155.17,3155.12,3157.87,3158.26,3156.11,3156.77,3157.55,3160.03,3159.79,3158.22,3154.68,3150.39,3146.73,3141.46,3136.17,3131.22,3121.3,3116.45,3114.5,3114.65,3115.56,3117.41,3120.44,3123.65,3126.48,3131.58,3136.86,3143.26,3150.67,3157.64,3161.94,3167.02,3172.99,3177.48,3181.51,3184.26,3185.12,3181.68,3181.83,3182.77,3179.74,3175.54,3171.59,3167.79,3165.64,3163.53,3160.17,3156.49,3151.63,3149.13,3147.8,3147.93,3148.29,3148.6,3148.93,3151.65,3154.15,3155.13,3155.78,3155.82,3155.61,3155.23,3155.03,3157.61,3158.96,3161.21,3163.39,3166.05,3167.63,3169.47,3169.4,3168.06,3165.67,3163.32,3160.85,3158.63,3154.89,3151.63,3144.84,3138.26,3132.3,3125.49,3118.28,3112.51,3108.36,3106.6,3108.31,3113.28,3118.91,3126.48,3134.95,3145.56,3156.1,3165.7,3174.73,3180.75,3186.24,3192.05,3194.55,3195.31,3198.72,3196.8,3191.57,3188.68,3184.89,3179.39,3172.18,3166.9,3161.05,3154.88,3149.29,3144.69,3140.5,3137.58,3135.55,3134.22,3133.7,3133.1,3132.26,3133.27,3135.03,3136.67,3138.25,3138.49,3138.28,3137.54,3136.15,3133.82,3129.78,3123.42,3116.54,3108.75,3102.9,3101.56,3094.49,3091.69,3090.25
0,0,0,0,0,0,0,0,0,0,0,0,0,0,0,0,0,0,0,0,0,0,0,0,0,0,0,0,0,0,0,0,0,0,0,16,16,16,28,160,16,16,16,16,20,20,20,20,20,20,20,24,24,24,24,24,24,24,24,24,24,24,24,24,24,24,24,24,24,24,24,20,20,20,20,16,16,16,16,16,16,3238.33,3388.09,3384.1,3382.97,3372.5,3359.13,3330.13,3317.48,3302.79,3287.07,3272.81,3259.91,3248.24,3234.75,3130.18,3154.36,3061.68,3211.17,3205.85,3199.89,3194.02,3187.81,3180.84,3172.65,3158.29,2542.04,22.32,0,0,9.555,60.313,678.612,2932.33,2809.68,2784.62,3039.18,2732.9,2025.88,2503.27,1442.8,990.803,858.115,800.393,710.231,769.491,1846.43,2881.11,2894.83,3036.23,2806.25,2828.26,3049.29,3029.13,2998.5,3018.19,3018.43,3017.18,3021.32,3023.89,3021.8,3043.17,3067.7,3091.65,3105.71,3118.74,3130.04,3140.29,3149.64,3158.02,3167.24,3175.66,3181.12,3184.29,3186.84,3190.65,3193.79,3195.07,3194.16,3192.07,3189.84,3186.7,3182.47,3177.67,3170.84,3162.78,3157.77,3154.98,3156.04,3158.92,3163.37,3170.01,3176.69,3182.7,3188.38,3193.13,3197.55,3202.29,3204.97,3208.45,3211.97,3214.77,3216.82,3217.13,3215.87,3213.51,3208.45,3202.9,3199.54,3195.58,3189.83,3184.32,3177.14,3171.18,3165.84,3160.71,3158.25,3155.79,3154.02,3154.45,3156,3159.98,3165.98,3170.29,3174.88,3180.06,3184.36,3189.35,3194.06,3198.95,3203.48,3204.74,3206.16,3208.14,3207.86,3206.88,3203.39,3200.35,3195.78,3192.28,3189.79,3188.18,3185.01,3182.43,3179.53,3176.09,3171.27,3166.01,3160.2,3155.67,3150.46,3149.17,3147.81,3148.1,3150.24,3155.56,3162.03,3168.59,3175.81,3182.61,3189.5,3196.95,3203.43,3208.62,3212.79,3215.01,3216.84,3216.23,3213.55,3207.15,3199.14,3191.63,3185.05,3174.44,3165.78,3158.27,3150.77,3146.34,3142.92,3139.83,3138.38,3139.77,3143.91,3145.87,3147.47,3150.01,3152.04,3152.06,3154.35,3154.82,3154.84,3153.15,3152.32,3152.22,3151.78,3151.15,3151.25,3147.97,3144.51,3136.66,3135.98,3127.3,3123.54,3119.86,3117.15,3112.98,3110.81,3114.28,3114.61,3112.16,3114.1,3117.11,3120.64,3123.73,3128.45,3134.05,3139.45,3146.6,3152.78,3157,3162.29,3168.39,3173.13,3176.76,3180.3,3181.9,3182.73,3183.06,3184.19,3180.94,3175.79,3172.84,3169.14,3166.99,3164.6,3161.66,3157.77,3153.79,3151.48,3149.41,3149.3,3148.73,3148.06,3147.21,3148.66,3150.05,3150.52,3151.35,3151.31,3150.6,3150.84,3151.69,3155.04,3157,3159.78,3162.52,3165.54,3167.93,3170.86,3171.89,3171.74,3170.54,3169.25,3167.83,3166.49,3163.19,3158.99,3151.95,3144.75,3138.18,3130.64,3122.79,3116.28,3111.12,3108.54,3109.92,3113.88,3118.44,3125.05,3132.33,3142.48,3152.27,3160.98,3169.87,3175.57,3181.94,3188.13,3190.33,3191.68,3191.19,3189.66,3187.13,3184.1,3180.33,3175,3168.2,3162.85,3156.89,3150.87,3144.52,3138.96,3134.03,3130.41,3127.41,3125.68,3124.42,3123.39,3122.45,3122.75,3124.03,3125.31,3125.96,3125.75,3125.44,3125.54,3124.76,3123.48,3120.8,3116.33,3111.34,3106.31,3101.81,3098.57,3095.03,3092.69,3091.88
