953.428,953.856,954.37,954.516,954.634,954.76,955.04,955.074,955.082,954.874,954.512,954.016,953.66,953.482,953.13,952.76,952.576,952.348,952.278,952.468,952.822,953.074,953.508,954.01,954.386,954.78,955.16,955.52,955.548,955.498,955.296,954.856,954.354,953.852,953.426,952.926,952.18,951.446,950.834,950.498,950.548,950.732,950.766,950.926,951.372,951.908,952.54,953.148,953.564,953.81,954.15,954.636,954.93,955.18,955.346,955.354,955.284,955.448,955.6,955.598,955.646,957.386,958.976,958.922,958.974,959.03,958.982,958.99,959.028,959.07,958.904,958.742,958.704,958.586,958.542,958.362,958.136,956.148,955.956,955.858,955.914,957.608,957.804,957.748,955.888,956.036,956.08,956.144,956.144,956.036,955.914,955.822,955.766,955.638,955.346,955.114,954.742,954.45,954.364,956.06,
953.586,953.958,954.376,954.542,954.674,954.836,955.016,955.084,955.092,954.814,954.394,953.878,953.512,953.258,952.864,952.53,952.336,952.07,951.992,952.224,952.5,952.84,953.27,953.822,954.338,954.724,955.2,955.69,955.852,955.89,955.786,955.392,954.842,954.37,953.908,953.304,952.596,951.836,951.192,950.77,950.824,950.91,950.932,951.13,951.542,952.02,952.588,953.26,953.682,953.884,954.244,954.712,955.048,955.266,955.328,955.328,955.294,955.348,955.464,955.432,955.48,957.21,958.764,958.682,958.73,958.688,958.706,958.672,958.694,958.732,958.484,958.36,958.272,958.1,958.042,957.89,957.638,957.372,957.124,957.09,957.12,957.198,957.426,957.446,955.768,955.888,956.054,956.136,956.152,956.11,956.074,956.012,955.956,955.938,955.71,955.472,955.236,954.88,954.742,956.368,
953.858,954.178,954.54,954.774,954.836,955.042,955.176,955.26,955.178,954.858,954.43,953.88,953.496,953.172,952.698,952.268,952.044,951.822,951.732,951.876,952.062,952.45,952.906,953.508,954.092,954.51,955.02,955.508,955.778,955.872,955.88,955.544,955.032,954.562,954.08,953.484,952.79,952.016,951.366,950.952,950.968,951.08,951.1,951.336,951.688,952.142,952.718,953.38,953.808,954.024,954.356,954.784,955.078,955.31,955.386,955.394,955.31,955.304,955.382,955.33,955.332,957.036,956.838,958.506,958.444,958.322,958.3,958.26,958.222,958.158,957.95,957.776,957.714,957.56,957.4,957.232,957.05,956.7,956.5,956.508,956.588,956.698,956.936,955.346,955.36,955.632,955.864,955.978,956.04,956.094,956.074,956.032,956.148,956.144,956.052,955.846,955.676,955.4,955.23,955.176,
954.272,954.554,954.874,955.15,955.238,955.362,955.522,955.498,955.37,955.018,954.56,953.984,953.496,953.082,952.538,952.12,951.794,951.498,951.364,951.506,951.688,951.986,952.47,953.056,953.668,954.132,954.66,955.132,955.378,955.536,955.6,955.26,954.798,954.396,953.972,953.41,952.716,952.076,951.406,951.098,951.162,951.25,951.362,951.478,951.952,952.404,953.01,953.68,954.066,954.3,954.678,955.034,955.326,955.506,955.532,955.44,955.43,955.302,955.368,955.25,955.166,955.114,954.92,956.514,956.31,956.258,956.23,956.068,956.008,955.96,955.73,955.556,955.46,955.286,953.51,953.342,953.13,952.84,954.23,954.23,954.26,954.368,954.772,954.902,954.904,955.19,955.52,955.678,955.802,955.926,956.016,956.04,956.184,956.358,956.266,956.258,956.07,955.874,955.708,955.672,
954.63,954.884,955.212,955.368,955.53,955.714,955.844,955.834,955.736,955.334,954.808,954.256,953.69,953.256,952.676,952.168,951.79,951.446,951.256,951.328,951.396,951.648,952.04,952.544,953.244,953.654,954.138,954.632,954.838,954.98,954.994,954.768,954.4,954.012,953.678,953.198,952.668,952.106,951.534,951.29,951.37,951.526,951.662,951.89,952.284,952.784,953.364,954.004,954.414,954.652,955.012,955.298,955.532,955.638,955.63,955.574,955.518,955.324,955.296,955.216,955.074,954.918,954.744,954.548,954.27,954.188,954.124,953.93,953.866,953.854,953.646,953.452,953.382,953.212,953.114,952.996,952.802,952.456,952.204,952.202,952.172,952.3,952.608,952.85,952.868,953.232,953.578,953.796,953.984,954.104,954.286,954.384,954.636,954.842,954.904,954.956,954.796,954.662,954.554,954.472,
954.946,955.14,955.454,955.726,955.852,956.048,956.186,956.148,955.984,955.576,955.016,954.49,953.924,953.458,952.85,952.218,951.77,951.358,951.05,951.03,951.026,951.272,951.552,951.964,952.598,952.968,953.454,953.918,954.094,954.216,954.128,953.93,953.624,953.272,953.046,952.718,952.226,951.824,951.39,951.29,951.472,951.662,951.866,952.138,952.616,953.15,953.742,954.41,954.818,955,955.32,955.544,955.718,955.764,955.8,955.708,955.58,955.318,955.318,955.124,954.916,954.714,954.474,954.24,953.95,953.814,953.75,953.552,953.434,953.37,953.228,953.064,953.124,952.964,952.79,952.7,952.56,952.222,951.998,951.918,951.912,951.978,952.34,952.502,952.642,952.936,953.312,953.554,953.736,953.906,954.078,954.29,954.576,954.958,955.058,955.214,955.24,955.168,955.012,954.956,
955.098,955.33,955.684,955.964,956.122,956.256,956.368,956.322,956.206,955.82,955.294,954.816,954.222,953.676,953.07,952.386,951.794,951.294,950.914,950.784,950.704,950.734,950.908,951.248,951.798,952.134,952.522,952.862,952.98,953.124,953,952.814,952.524,952.366,952.212,951.976,951.642,951.38,951.184,951.186,951.424,951.71,952.014,952.406,952.914,953.46,954.1,954.76,955.202,955.372,955.658,955.838,955.88,955.936,955.896,955.85,955.646,955.476,955.432,955.144,954.878,954.642,954.37,954.092,953.636,953.498,953.474,953.306,953.176,953.112,953.004,952.966,952.96,952.844,952.73,952.626,952.498,952.142,952.038,951.934,951.864,951.874,952.252,952.506,952.53,952.798,953.176,953.356,953.576,953.804,953.94,954.206,954.598,955.048,955.24,955.46,955.648,955.612,955.626,955.504,
955.056,955.368,955.68,955.936,956.066,956.246,956.316,956.25,956.122,955.666,955.212,954.728,954.112,953.614,952.996,952.246,951.694,951.16,950.718,950.526,950.364,950.332,950.38,950.602,951.036,951.378,951.614,951.848,951.902,951.84,951.798,951.644,951.448,951.368,951.204,951.214,950.996,950.958,950.872,950.986,951.376,951.834,952.238,952.632,953.268,953.916,954.534,955.202,955.658,955.92,956.052,956.186,956.268,956.184,956.172,956.03,955.866,955.568,955.588,955.216,954.884,954.644,954.33,954.008,953.542,953.382,953.318,953.104,952.968,952.978,952.878,952.84,952.874,952.78,952.684,952.546,952.452,952.2,951.974,951.9,951.778,951.746,952.084,952.274,952.324,952.55,952.84,953.044,953.218,953.422,953.636,953.884,954.372,954.94,955.22,955.528,955.788,955.788,955.886,955.874,
954.764,954.998,955.286,955.572,955.726,955.852,955.884,955.788,955.666,955.288,954.764,954.288,953.712,953.25,952.618,951.948,951.334,950.776,950.348,950.096,949.87,949.818,949.784,949.88,950.194,950.466,950.562,950.824,950.746,950.582,950.524,950.456,950.354,950.266,950.298,950.364,950.338,950.492,950.576,950.826,951.308,951.75,952.294,952.774,953.482,954.166,954.83,955.492,955.996,956.146,956.43,956.492,956.494,956.36,956.308,956.23,956.082,955.738,955.642,955.392,954.944,954.656,954.362,953.842,953.422,953.262,953.188,952.884,952.792,952.808,952.7,952.674,952.73,952.634,952.552,952.51,952.344,952.086,951.942,951.84,951.706,951.626,951.938,952.116,952.056,952.296,952.51,952.602,952.898,953.068,953.312,953.668,954.254,954.766,955.12,955.486,955.834,955.9,956.028,956.036,
954.378,954.64,954.914,955.194,955.184,955.368,955.406,955.298,955.142,954.722,954.248,953.846,953.322,952.89,952.294,951.598,951.084,950.504,950.092,949.878,949.602,949.456,949.324,949.342,949.604,949.622,949.668,949.804,949.722,949.488,949.392,949.3,949.198,949.26,949.416,949.502,949.65,949.918,950.168,950.536,951.016,951.65,952.238,952.83,953.656,954.332,954.96,955.726,956.162,956.462,956.6,956.632,956.652,956.428,956.328,956.412,956.138,955.916,955.802,955.45,954.954,954.662,954.36,953.842,953.298,953.05,952.992,952.762,952.668,952.724,952.588,952.572,952.634,952.508,952.46,952.478,952.34,952.164,952.008,951.914,951.744,951.674,951.966,952.094,952.036,952.196,952.398,952.526,952.794,953.026,953.28,953.662,954.204,954.794,955.232,955.552,955.976,955.978,956.116,956.128,
953.742,954.032,954.33,954.608,954.634,954.668,954.774,954.652,954.488,954.07,953.59,953.292,952.86,952.438,951.988,951.334,950.816,950.252,949.896,949.638,949.464,949.212,948.988,948.836,948.91,948.93,948.832,948.912,948.748,948.404,948.186,948.098,948.018,948.186,948.358,948.596,948.792,949.178,949.58,950.106,950.68,951.374,952.004,952.654,953.54,954.376,954.928,955.594,956.08,956.27,956.416,956.476,956.434,956.252,956.208,956.2,956.018,955.74,955.62,955.254,954.814,954.518,954.184,953.622,953.132,952.874,952.724,952.522,952.44,952.416,952.346,952.362,952.428,952.308,952.334,952.322,952.258,952.046,952.072,951.998,951.768,951.726,951.882,951.99,951.974,952.076,952.232,952.312,952.632,952.902,953.056,953.498,954.134,954.692,955.118,955.518,955.978,956.018,956.144,956.252,
952.992,953.234,953.51,953.702,953.706,953.884,953.85,953.794,953.636,953.26,952.824,952.534,952.214,951.8,951.456,950.886,950.38,949.894,949.532,949.342,949.074,948.864,948.608,948.378,948.356,948.338,948.154,948.166,947.886,947.494,947.252,947.152,947.128,947.236,947.48,947.726,947.96,948.47,949.006,949.558,950.19,950.974,951.67,952.31,953.292,954.06,954.602,955.244,955.69,955.986,956.054,956.062,956.058,955.894,955.852,955.908,955.678,955.502,955.38,955.124,954.672,954.428,953.982,953.44,952.916,952.712,952.56,952.302,952.252,952.2,952.056,952.074,952.168,952.102,952.164,952.136,952.06,952.032,952.052,951.936,951.748,951.654,951.88,951.876,951.786,951.972,952.052,952.082,952.388,952.62,952.864,953.336,953.9,954.506,954.988,955.428,955.816,955.936,956.056,956.228,
952.1,952.332,952.586,952.74,952.804,952.934,952.932,952.886,952.746,952.404,951.986,951.682,951.396,951.062,950.802,950.368,949.896,949.476,949.22,949.11,948.916,948.688,948.408,948.142,948.114,948.044,947.85,947.77,947.562,947.11,946.846,946.742,946.688,946.85,947.066,947.374,947.592,948.166,948.772,949.378,950,950.738,951.44,952.086,953.052,953.802,954.278,954.85,955.268,955.416,955.482,955.492,955.56,955.38,955.378,955.458,955.236,955.122,955.146,954.842,954.426,954.196,953.782,953.21,952.75,952.492,952.282,952.018,951.924,951.824,951.668,951.726,951.742,951.722,951.752,951.774,951.758,951.7,951.776,951.736,951.574,951.56,951.644,951.616,951.542,951.662,951.83,951.872,952.21,952.436,952.768,953.202,953.716,954.326,954.794,955.17,955.65,955.786,955.934,956.058,
951.216,951.478,951.778,951.902,951.894,951.982,952.102,952.012,951.88,951.518,951.122,950.788,950.516,950.276,950.048,949.616,949.234,948.884,948.762,948.744,948.668,948.568,948.324,948.1,948.082,947.972,947.764,947.674,947.492,947.02,946.8,946.77,946.74,946.864,947.096,947.306,947.532,948.08,948.662,949.234,949.828,950.634,951.164,951.788,952.724,953.366,953.794,954.202,954.598,954.682,954.768,954.822,954.826,954.686,954.724,954.798,954.682,954.634,954.682,954.428,954.062,953.82,953.484,952.914,952.462,952.202,951.866,951.606,951.516,951.41,951.198,951.27,951.24,951.18,951.222,951.31,951.266,951.298,951.5,951.402,951.302,951.226,951.292,951.294,951.226,951.374,951.478,951.57,951.954,952.18,952.538,952.986,953.522,954.022,954.526,954.922,955.408,955.508,955.702,955.8,
950.438,950.71,950.976,951.136,951.188,951.32,951.334,951.336,951.156,950.808,950.38,950.112,949.86,949.544,949.368,949.016,948.658,948.448,948.394,948.41,948.45,948.394,948.198,948.024,948.058,948.04,947.838,947.878,947.692,947.248,947.108,947.056,946.99,947.118,947.262,947.556,947.722,948.2,948.832,949.342,949.912,950.53,951.07,951.632,952.384,952.96,953.27,953.578,953.848,953.946,953.924,953.992,954,953.78,953.83,953.982,953.944,953.972,954.052,953.87,953.548,953.386,953.096,952.564,952.102,951.79,951.452,951.156,951.016,950.882,950.602,950.634,950.65,950.656,950.728,950.86,950.808,950.894,951.102,951.03,950.966,950.944,951.046,950.926,950.932,951.102,951.234,951.308,951.684,951.974,952.33,952.778,953.252,953.788,954.288,954.656,955.028,955.144,955.34,955.448,
949.778,950.058,950.384,950.48,950.62,950.768,950.786,950.746,950.588,950.28,949.796,949.522,949.136,948.896,948.698,948.474,948.126,947.972,948.018,948.156,948.252,948.3,948.242,948.162,948.258,948.278,948.104,948.202,948.142,947.788,947.698,947.678,947.692,947.812,947.938,948.2,948.374,948.826,949.344,949.768,950.244,950.726,951.162,951.558,952.156,952.602,952.692,952.932,953.074,953.08,952.98,953.048,953.112,952.914,952.996,953.146,953.172,953.24,953.398,953.194,952.938,952.872,952.598,952.18,951.736,951.43,951.056,950.682,950.468,950.38,950.094,950.11,950.136,950.148,950.314,950.444,950.486,950.586,950.806,950.82,950.748,950.71,950.754,950.682,950.658,950.84,950.88,950.978,951.388,951.684,951.998,952.498,952.992,953.494,953.978,954.378,954.762,954.876,955.03,955.148,
949.2,949.492,949.862,950.102,950.3,950.438,950.444,950.454,950.404,950.014,949.574,949.286,948.952,948.64,948.462,948.152,947.81,947.63,947.682,947.848,948.09,948.204,948.262,948.206,948.356,948.504,948.442,948.636,948.62,948.348,948.402,948.444,948.538,948.702,948.922,949.142,949.278,949.73,950.256,950.458,950.85,951.22,951.438,951.684,952.048,952.26,952.226,952.222,952.232,952.124,952.028,952.062,952.044,951.92,951.988,952.194,952.216,952.334,952.5,952.444,952.244,952.21,952.018,951.6,951.244,950.858,950.5,950.218,950.022,949.756,949.592,949.614,949.696,949.772,950.01,950.208,950.296,950.452,950.758,950.76,950.694,950.68,950.596,950.548,950.506,950.716,950.684,950.74,951.018,951.288,951.646,952.048,952.6,953.036,953.554,953.916,954.306,954.492,954.63,954.726,
948.896,949.306,949.692,950.01,950.258,950.416,950.504,950.548,950.506,950.112,949.662,949.354,948.932,948.604,948.446,948.168,947.738,947.556,947.654,947.804,948.008,948.306,948.39,948.426,948.714,948.924,949.044,949.286,949.408,949.348,949.448,949.586,949.762,949.918,950.118,950.344,950.556,950.876,951.344,951.45,951.756,951.924,952.02,952.03,952.228,952.182,951.95,951.732,951.59,951.446,951.284,951.238,951.196,951.04,951.208,951.322,951.364,951.536,951.742,951.706,951.592,951.578,951.402,951.088,950.718,950.436,950.06,949.736,949.596,949.338,949.29,949.394,949.494,949.616,949.936,950.202,950.298,950.5,950.838,950.804,950.796,950.754,950.668,950.578,950.534,950.646,950.59,950.514,950.784,950.944,951.232,951.634,952.082,952.574,953.02,953.416,953.754,953.942,954.212,954.258,
948.846,949.264,949.72,950.128,950.456,950.594,950.638,950.696,950.784,950.388,949.92,949.564,949.092,948.68,948.546,948.312,947.824,947.69,947.742,947.922,948.134,948.444,948.632,948.766,949.132,949.442,949.678,949.99,950.212,950.334,950.488,950.766,951.01,951.168,951.366,951.684,951.888,952.196,952.554,952.628,952.708,952.898,952.808,952.688,952.58,952.284,951.912,951.49,951.22,950.954,950.674,950.646,950.516,950.442,950.48,950.592,950.642,950.848,951.008,950.934,950.85,950.918,950.704,950.478,950.218,949.916,949.556,949.248,949.12,948.96,948.898,949.066,949.294,949.438,949.772,950.048,950.242,950.432,950.738,950.77,950.774,950.734,950.602,950.452,950.404,950.424,950.238,950.068,950.224,950.334,950.562,950.924,951.322,951.724,952.216,952.642,953.024,953.326,953.536,953.62,
948.918,949.368,949.92,950.388,950.842,951.022,951.054,951.226,951.234,950.82,950.384,949.962,949.498,948.996,948.87,948.624,948.14,947.872,947.95,948.082,948.32,948.722,948.952,949.13,949.54,950.026,950.406,950.828,951.142,951.372,951.762,952.052,952.404,952.662,952.858,953.112,953.35,953.616,953.918,953.92,953.92,953.86,953.742,953.394,953.108,952.642,952.09,951.58,951.088,950.742,950.404,950.244,950.092,950.032,950.044,950.154,950.176,950.324,950.466,950.364,950.32,950.3,950.206,949.958,949.756,949.45,949.052,948.836,948.796,948.684,948.672,948.9,949.126,949.372,949.746,950.062,950.248,950.482,950.778,950.708,950.752,950.652,950.55,950.298,950.226,950.13,949.882,949.596,949.61,949.616,949.77,950.176,950.55,951,951.5,951.884,952.386,952.724,952.966,953.052,
949.264,949.778,950.39,950.934,951.4,951.662,951.648,951.798,951.892,951.448,951.05,950.638,950.044,949.648,949.398,949.116,948.552,948.308,948.316,948.408,948.592,949.016,949.298,949.506,949.96,950.604,951.064,951.594,952.07,952.384,952.86,953.288,953.716,954.038,954.278,954.63,954.886,955.126,955.35,955.268,955.174,955.062,954.76,954.352,953.806,953.184,952.5,951.784,951.144,950.7,950.298,949.988,949.796,949.73,949.696,949.75,949.694,949.82,949.916,949.808,949.71,949.778,949.688,949.47,949.284,949.03,948.694,948.496,948.53,948.474,948.488,948.778,949.09,949.432,949.8,950.166,950.374,950.606,950.78,950.822,950.746,950.628,950.462,950.228,950.082,949.862,949.54,949.19,949.112,949.03,949.192,949.476,949.816,950.252,950.734,951.194,951.694,952.094,952.386,952.522,
951.79,950.312,950.842,951.45,951.88,952.186,952.21,952.378,952.386,952.014,951.584,951.226,950.618,950.19,949.886,949.592,949.016,948.676,948.62,948.652,948.828,949.272,949.566,949.762,950.298,950.942,951.58,952.14,952.682,953.22,953.732,954.312,954.848,955.236,955.552,955.844,956.162,956.342,956.58,956.488,956.318,956.06,955.724,955.17,954.504,953.728,952.934,952.128,951.412,950.874,950.37,950.038,949.802,949.632,949.662,949.646,949.598,949.686,949.768,949.648,949.55,949.582,949.486,949.284,949.062,948.946,948.646,948.426,948.426,948.47,948.586,948.886,949.286,949.592,949.954,950.298,950.578,950.716,950.928,950.904,950.83,950.63,950.492,950.174,949.914,949.666,949.198,948.712,948.6,948.51,948.564,948.832,949.152,949.562,949.97,950.502,951.044,951.472,951.778,951.978,
950.256,952.746,951.318,951.83,952.334,952.628,952.626,952.818,952.79,952.452,952.124,951.738,951.158,950.7,950.504,950.042,949.464,949.05,948.932,948.93,949.044,949.458,949.724,949.972,950.5,951.228,951.896,952.598,953.194,953.8,954.374,955.084,955.788,956.194,956.5,956.876,957.166,957.386,957.63,957.498,957.22,956.934,956.516,955.932,955.2,954.27,953.398,952.532,951.806,951.22,950.736,950.414,950.11,950.064,949.982,949.982,949.97,950.04,950.052,949.93,949.802,949.756,949.66,949.448,949.224,949.046,948.788,948.552,948.59,948.634,948.74,949.118,949.534,949.798,950.154,950.56,950.744,950.966,951.036,951,950.868,950.696,950.47,950.178,949.826,949.492,948.926,948.428,948.226,948.03,948.074,948.308,948.574,948.972,949.402,949.898,950.498,950.932,951.276,951.456,
952.532,950.902,951.372,951.92,952.466,952.654,952.72,952.904,952.996,952.666,952.42,952.12,951.552,951.13,950.894,950.45,949.862,949.484,949.356,949.28,949.368,949.686,949.924,950.2,950.742,951.45,952.138,952.876,953.548,954.236,954.986,955.772,956.47,956.996,957.38,957.722,958.036,958.178,958.364,958.21,957.886,957.6,957.146,956.516,955.688,954.754,953.92,953.018,952.314,951.78,951.272,950.94,950.72,950.722,950.714,950.76,950.634,950.68,950.59,950.484,950.312,950.25,949.992,949.718,949.464,949.238,948.952,948.682,948.67,948.742,948.892,949.216,949.578,949.848,950.146,950.506,950.732,950.87,950.968,950.844,950.686,950.456,950.21,949.934,949.592,949.136,948.598,948.028,947.824,947.592,947.682,947.894,948.142,948.49,948.98,949.486,950.026,950.52,950.84,950.986,
950.372,950.768,951.198,951.672,952.13,952.456,952.532,952.808,952.892,952.654,952.492,952.294,951.848,951.452,951.28,950.896,950.316,949.836,949.658,949.6,949.642,949.964,950.082,950.326,950.84,951.508,952.204,952.99,953.73,954.4,955.162,955.972,956.764,957.286,957.704,957.994,958.284,958.43,958.654,958.442,958.13,957.796,957.304,956.704,955.858,954.914,954.072,953.268,952.572,952.108,951.72,951.48,951.318,951.314,951.322,951.396,951.348,951.408,951.33,951.114,950.868,950.68,950.364,950.048,949.684,949.37,949.026,948.714,948.678,948.72,948.764,949.098,949.428,949.572,949.874,950.204,950.442,950.548,950.572,950.426,950.176,949.96,949.796,949.478,949.06,948.648,948.052,947.572,947.356,947.174,947.248,947.512,947.728,948.076,948.496,949.052,949.574,950.016,950.316,950.374,
952.126,952.46,952.816,951.148,951.736,952.03,952.204,952.52,952.6,952.51,952.468,952.342,952.076,951.74,951.604,951.144,950.634,950.29,950.002,949.9,949.9,950.178,950.31,950.434,950.968,951.512,952.24,952.986,953.732,954.458,955.12,955.946,956.704,957.196,957.5,957.832,958.126,958.124,958.214,958.128,957.838,957.558,957.044,956.472,955.686,954.816,953.99,953.316,952.706,952.32,952.056,951.926,951.896,951.954,952.042,952.21,952.128,952.078,952.018,951.778,951.538,951.332,950.916,950.47,950.06,949.706,949.25,948.868,948.764,948.838,948.842,948.996,949.314,949.344,949.596,949.888,950.106,950.184,950.154,949.994,949.756,949.574,949.334,949.032,948.674,948.256,947.762,947.32,947.11,946.962,947.094,947.31,947.652,947.928,948.338,948.808,949.292,949.722,949.956,950.06,
953.908,952.202,952.412,952.776,951.274,951.59,951.856,952.188,952.364,952.31,952.408,952.45,952.264,952.006,951.852,951.468,950.912,950.52,950.352,950.154,950.212,950.404,950.454,950.528,950.922,951.416,952.052,952.66,953.4,954.048,954.604,955.382,956.136,956.564,956.82,957.06,957.24,957.174,957.272,957.12,956.864,956.554,956.118,955.628,954.932,954.178,953.5,952.908,952.508,952.168,952.088,952.104,952.222,952.438,952.614,952.852,952.844,952.854,952.788,952.496,952.132,951.912,951.406,950.854,950.436,949.966,949.434,948.972,948.774,948.772,948.706,948.828,949.02,949.034,949.244,949.532,949.682,949.636,949.652,949.414,949.206,948.992,948.848,948.554,948.192,947.834,947.434,947.112,947.018,946.982,947.132,947.476,947.758,948.102,948.432,948.86,949.376,949.708,949.92,949.89,
953.486,953.78,952.018,952.268,950.656,951.082,951.402,951.834,952.032,952.07,952.26,952.398,952.302,952.2,952.096,951.698,951.178,950.864,950.624,950.414,950.38,950.562,950.584,950.574,950.9,951.354,951.814,952.376,953.038,953.54,953.98,954.694,955.294,955.708,955.916,956.014,956.016,955.926,955.92,955.786,955.506,955.342,954.938,954.472,953.88,953.378,952.75,952.328,952.114,952.032,952.074,952.326,952.562,952.86,953.162,953.456,953.496,953.54,953.452,953.13,952.744,952.4,951.904,951.306,950.77,950.292,949.61,949.156,948.904,948.816,948.618,948.628,948.78,948.702,948.91,949.146,949.252,949.176,949.12,948.906,948.73,948.48,948.346,948.082,947.836,947.552,947.284,947.076,947.146,947.21,947.418,947.798,948.168,948.452,948.858,949.148,949.56,949.87,949.976,949.902,
953.22,953.476,951.61,951.81,950.198,950.508,950.984,951.458,951.728,951.882,952.108,952.334,952.334,952.318,952.252,951.856,951.472,951.222,950.994,950.76,950.832,950.954,950.922,950.876,951.09,951.45,951.818,952.23,952.668,953.046,953.318,953.86,954.338,954.55,954.66,954.622,954.46,954.4,954.35,954.168,953.962,953.814,953.476,953.164,952.716,952.31,951.908,951.702,951.662,951.762,951.886,952.306,952.688,953.182,953.59,953.932,954.078,954.14,954.034,953.708,953.348,953.008,952.438,951.82,951.23,950.564,949.82,949.362,949.058,948.868,948.56,948.542,948.624,948.508,948.626,948.936,948.94,948.822,948.706,948.514,948.326,948.128,948.048,947.78,947.582,947.39,947.25,947.238,947.432,947.534,947.81,948.21,948.602,948.946,949.242,949.456,949.842,950.038,950.006,949.878,
948.85,949.114,949.232,949.39,949.706,950.042,950.516,951.036,951.386,951.57,951.854,952.236,952.204,952.27,952.286,951.938,951.546,951.328,951.15,951.026,951.068,951.2,951.19,951.106,951.25,951.458,951.666,951.904,952.31,952.434,952.508,952.896,953.188,953.308,953.332,953.18,952.958,952.7,952.652,952.52,952.276,952.19,951.85,951.616,951.348,951.076,950.922,950.922,950.954,951.264,951.658,952.208,952.772,953.332,953.87,954.352,954.484,954.55,954.502,954.178,953.852,953.49,952.888,952.206,951.562,950.854,950.106,949.55,949.266,948.956,948.644,948.516,948.492,948.422,948.506,948.78,948.796,948.58,948.43,948.288,948.078,947.908,947.786,947.522,947.394,947.254,947.28,947.324,947.564,947.794,948.116,948.558,949.02,949.418,949.668,949.806,950.166,950.262,950.116,949.924,
948.762,949.128,949.24,949.396,949.624,949.966,950.512,950.992,951.408,951.58,951.88,952.202,952.202,952.28,952.262,951.96,951.588,951.408,951.336,951.206,951.358,951.518,951.472,951.32,951.436,951.536,951.598,951.718,951.898,951.928,951.83,952.046,952.132,952.046,951.92,951.744,951.316,950.976,950.846,950.656,950.446,950.448,950.182,950.012,949.912,949.81,949.82,950.038,950.264,950.656,951.284,951.98,952.69,953.42,953.928,954.458,954.706,954.892,954.872,954.51,954.146,953.792,953.176,952.442,951.788,951.032,950.23,949.71,949.406,949.098,948.776,948.64,948.608,948.502,948.572,948.834,948.804,948.602,948.468,948.274,948.11,947.922,947.816,947.582,947.404,947.396,947.446,947.548,947.938,948.232,948.582,949.162,949.628,949.968,950.22,950.324,950.56,950.592,950.474,950.316,
948.932,949.224,949.398,949.528,949.708,950.004,950.504,950.94,951.31,951.518,951.81,952.022,952.026,952.154,952.128,951.842,951.54,951.416,951.37,951.32,951.51,951.694,951.64,951.442,951.538,951.572,951.528,951.48,951.51,951.34,951.086,951.096,951.032,950.82,950.64,950.262,949.786,949.348,949.138,949.012,948.762,948.746,948.622,948.468,948.526,948.584,948.816,949.126,949.584,950.094,950.772,951.64,952.436,953.232,953.876,954.364,954.686,954.9,954.95,954.656,954.286,953.882,953.264,952.514,951.87,951.102,950.354,949.874,949.538,949.27,948.92,948.81,948.832,948.752,948.876,949.006,948.964,948.76,948.632,948.478,948.318,948.196,947.994,947.74,947.642,947.692,947.81,947.914,948.274,948.618,948.98,949.588,950.14,950.504,950.71,950.824,951.016,951.126,950.898,950.72,
949.266,949.57,949.778,949.862,949.916,950.19,950.612,951.046,951.33,951.466,951.714,951.832,951.86,951.944,951.96,951.644,951.402,951.31,951.284,951.294,951.526,951.76,951.716,951.6,951.584,951.506,951.28,951.15,951.05,950.782,950.316,950.212,949.946,949.678,949.39,949.002,948.484,947.966,947.752,947.554,947.362,947.412,947.344,947.252,947.384,947.638,947.986,948.46,949.004,949.594,950.386,951.284,952.182,953.038,953.746,954.27,954.56,954.82,954.942,954.634,954.274,953.882,953.234,952.518,951.86,951.066,950.474,950.02,949.82,949.53,949.262,949.112,949.178,949.154,949.298,949.474,949.41,949.162,949.036,948.964,948.834,948.654,948.48,948.246,948.12,948.272,948.35,948.44,948.798,949.094,949.436,950.008,950.496,950.862,951.11,951.218,951.386,951.44,951.328,951.216,
949.732,949.948,950.164,950.156,950.126,950.278,950.63,951.036,951.25,951.366,951.49,951.54,951.544,951.644,951.682,951.436,951.16,951.096,951.12,951.256,951.524,951.84,951.816,951.638,951.544,951.416,951.128,950.974,950.8,950.318,949.79,949.508,949.212,948.842,948.512,948.118,947.62,947.056,946.802,946.582,946.434,946.636,946.538,946.512,946.706,947.078,947.576,948.128,948.706,949.402,950.178,951.136,952.086,953.046,953.748,954.3,954.68,954.954,955.054,954.766,954.47,954.008,953.432,952.684,952.104,951.416,950.796,950.51,950.308,950.076,949.802,949.724,949.846,949.844,950.034,950.248,950.108,949.894,949.814,949.684,949.584,949.434,949.2,948.936,948.826,948.896,949.014,949.074,949.358,949.502,949.866,950.374,950.862,951.2,951.46,951.514,951.654,951.724,951.616,951.556,
950.17,950.368,950.594,950.544,950.41,950.496,950.762,951.118,951.22,951.318,951.402,951.34,951.252,951.422,951.354,951.27,950.992,950.97,951.028,951.174,951.416,951.744,951.756,951.626,951.532,951.256,950.944,950.704,950.446,949.908,949.342,949.012,948.612,948.178,947.888,947.446,946.982,946.412,946.102,945.956,945.862,946.008,946.012,946.07,946.318,946.724,947.318,947.95,948.562,949.228,950.092,951.028,951.956,952.902,953.708,954.232,954.64,954.88,954.992,954.658,954.398,954.006,953.358,952.608,952.026,951.36,950.804,950.654,950.6,950.278,950.072,950.07,950.228,950.368,950.598,950.692,950.642,950.41,950.382,950.378,950.274,950.186,949.922,949.602,949.49,949.59,949.678,949.692,949.832,949.984,950.246,950.672,951.154,951.494,951.724,951.812,951.934,952.032,951.92,951.95,
950.342,950.442,950.632,950.654,950.464,950.518,950.78,950.95,951.068,951.122,951.156,951.102,950.924,951.088,951.04,950.922,950.662,950.67,950.706,950.82,951.104,951.4,951.452,951.35,951.266,950.996,950.656,950.418,950.122,949.642,949.034,948.676,948.242,947.836,947.606,947.178,946.684,946.228,945.922,945.816,945.756,945.962,945.98,946.026,946.33,946.738,947.418,948.086,948.716,949.316,950.206,951.098,952.044,952.912,953.616,954.188,954.512,954.75,954.798,954.502,954.294,953.842,953.212,952.55,951.926,951.27,950.89,950.646,950.598,950.484,950.39,950.352,950.63,950.826,951.186,951.278,951.244,951.134,951.106,951.16,951.086,950.932,950.726,950.37,950.136,950.29,950.28,950.182,950.276,950.288,950.494,950.84,951.234,951.538,951.772,951.9,952.046,952.152,952.036,952.124,
950.456,950.476,950.666,950.622,950.414,950.454,950.6,950.714,950.79,950.862,950.812,950.68,950.548,950.56,950.546,950.408,950.238,950.282,950.276,950.51,950.748,950.97,951.038,950.98,950.812,950.624,950.24,950.044,949.78,949.228,948.728,948.442,948.036,947.696,947.494,947.186,946.762,946.382,946.09,945.928,945.95,946.21,946.308,946.328,946.65,947.09,947.694,948.346,948.946,949.48,950.168,951.044,951.908,952.71,953.382,953.846,954.212,954.432,954.48,954.3,953.99,953.624,953.066,952.352,951.778,951.226,950.888,950.682,950.658,950.634,950.564,950.68,950.964,951.282,951.542,951.824,951.74,951.68,951.66,951.712,951.706,951.616,951.406,950.968,950.832,950.858,950.816,950.6,950.578,950.542,950.592,950.88,951.212,951.472,951.742,951.828,951.994,952.11,952.016,952.146,
950.458,950.364,950.398,950.334,950.08,950.134,950.204,950.294,950.32,950.296,950.296,950.154,949.952,949.982,949.852,949.824,949.638,949.592,949.622,949.81,950.012,950.316,950.336,950.29,950.184,949.906,949.64,949.488,949.276,948.902,948.558,948.306,947.952,947.73,947.634,947.498,947.17,946.764,946.52,946.488,946.54,946.874,946.912,947.026,947.3,947.684,948.254,948.782,949.21,949.722,950.35,951.096,951.88,952.556,953.078,953.516,953.912,954.062,954.132,953.936,953.71,953.384,952.844,952.25,951.774,951.228,951.01,950.848,950.852,950.878,950.854,950.978,951.324,951.598,951.978,952.154,952.034,952.07,952.09,952.142,952.14,952.088,951.854,951.5,951.254,951.198,951.096,950.834,950.698,950.602,950.586,950.794,951.106,951.384,951.596,951.7,951.828,951.876,951.864,952.026,
950.26,950.1,950.104,950.012,949.772,949.772,949.758,949.834,949.85,949.822,949.75,949.602,949.45,949.348,949.248,949.186,949.066,948.988,949.028,949.096,949.312,949.6,949.632,949.552,949.446,949.302,949.062,949.05,948.862,948.622,948.35,948.236,947.982,947.868,947.934,947.876,947.552,947.328,947.226,947.212,947.344,947.714,947.746,947.772,948.086,948.416,948.816,949.27,949.598,949.96,950.446,951.026,951.636,952.296,952.838,953.11,953.544,953.66,953.772,953.634,953.488,953.178,952.698,952.236,951.804,951.324,951.156,951.014,951.038,951.006,951.044,951.208,951.474,951.764,952.132,952.358,952.314,952.26,952.336,952.372,952.388,952.346,952.224,951.814,951.504,951.418,951.282,950.976,950.806,950.614,950.54,950.656,950.896,951.116,951.346,951.484,951.628,951.638,951.714,951.854,
949.778,949.566,949.56,949.4,949.208,949.168,949.158,949.196,949.102,949.06,949.002,948.922,948.764,948.714,948.712,948.566,948.364,948.278,948.232,948.356,948.532,948.668,948.646,948.592,948.586,948.442,948.34,948.416,948.318,948.184,948.138,948.156,948.118,948.082,948.204,948.288,948.154,948.038,947.994,948.062,948.234,948.536,948.656,948.752,948.908,949.104,949.41,949.728,949.86,950.15,950.514,950.95,951.47,952.046,952.394,952.74,953.084,953.274,953.37,953.198,953.038,952.878,952.572,952.084,951.678,951.218,951.122,950.998,951.048,951.044,951.11,951.186,951.522,951.708,952.104,952.346,952.274,952.128,952.2,952.258,952.216,952.27,952.2,951.814,951.468,951.378,951.216,950.858,950.708,950.574,950.434,950.432,950.634,950.858,951.142,951.234,951.354,951.354,951.396,951.474,
949.308,949.084,948.99,948.878,948.622,948.626,948.606,948.61,948.536,948.452,948.37,948.286,948.188,948.114,948.016,947.852,947.65,947.518,947.474,947.598,947.632,947.764,947.684,947.644,947.674,947.686,947.606,947.792,947.754,947.764,947.868,948.03,948.046,948.21,948.468,948.672,948.66,948.748,948.78,948.888,949.182,949.542,949.632,949.66,949.748,949.868,950.048,950.172,950.182,950.328,950.574,950.822,951.294,951.632,951.954,952.244,952.614,952.824,952.83,952.684,952.57,952.412,952.216,951.89,951.542,951.13,951.042,950.876,950.974,951.016,951.09,951.128,951.37,951.558,951.888,952.07,951.998,951.852,951.894,951.904,951.832,951.798,951.77,951.428,951.072,950.918,950.758,950.416,950.264,950.14,949.99,949.96,950.192,950.4,950.654,950.8,950.988,950.912,950.914,950.958,
948.872,948.624,948.588,948.416,948.276,948.238,948.158,948.134,948.036,947.928,947.822,947.748,947.55,947.39,947.326,947.086,946.846,946.73,946.588,946.688,946.712,946.862,946.798,946.804,946.828,946.912,946.912,947.174,947.246,947.394,947.62,947.92,948.106,948.356,948.73,949.008,949.226,949.372,949.542,949.792,950.174,950.434,950.552,950.55,950.6,950.638,950.61,950.674,950.518,950.492,950.668,950.808,951.03,951.32,951.53,951.742,952.104,952.216,952.37,952.344,952.258,952.17,952.098,951.926,951.662,951.362,951.286,951.164,951.164,951.238,951.342,951.338,951.48,951.544,951.812,951.926,951.866,951.63,951.556,951.46,951.366,951.29,951.192,950.748,950.392,950.186,950.054,949.644,949.498,949.434,949.274,949.238,949.454,949.714,949.934,950.174,950.248,950.214,950.19,950.246,
948.806,948.446,948.364,948.282,948.12,948.02,947.942,947.792,947.752,947.566,947.354,947.196,946.936,946.726,946.634,946.32,946.018,945.864,945.76,945.714,945.76,945.894,945.82,945.826,945.988,946.112,946.146,946.48,946.646,946.876,947.166,947.492,947.75,948.18,948.602,949.078,949.35,949.774,950.034,950.338,950.828,951.082,951.264,951.272,951.262,951.182,951.078,950.972,950.66,950.482,950.472,950.506,950.524,950.664,950.87,951.012,951.344,951.456,951.682,951.694,951.672,951.728,951.802,951.788,951.692,951.458,951.406,951.374,951.368,951.414,951.404,951.314,951.384,951.366,951.494,951.496,951.342,951.002,950.894,950.754,950.478,950.316,950.17,949.774,949.318,949.16,948.98,948.636,948.494,948.504,948.422,948.458,948.66,948.964,949.204,949.48,949.668,949.586,949.524,949.622,
948.754,948.45,948.368,948.238,948.066,948,947.79,947.726,947.558,947.246,947.008,946.768,946.476,946.15,945.91,945.6,945.208,944.946,944.838,944.844,944.856,945.002,944.928,945.014,945.188,945.384,945.412,945.774,945.996,946.308,946.702,947.028,947.494,947.894,948.412,948.982,949.398,949.898,950.294,950.76,951.294,951.644,951.82,951.772,951.662,951.534,951.396,951.116,950.744,950.444,950.364,950.17,950.12,950.188,950.172,950.378,950.622,950.81,951.072,951.212,951.298,951.512,951.666,951.774,951.818,951.71,951.712,951.67,951.728,951.738,951.628,951.474,951.346,951.232,951.248,951.104,950.738,950.378,950.198,949.942,949.454,949.176,948.954,948.5,948.124,947.936,947.798,947.496,947.36,947.604,947.41,947.524,947.814,948.064,948.362,948.672,948.922,948.868,948.836,948.92,
948.966,948.698,948.63,948.514,948.338,948.138,947.886,947.778,947.568,947.17,946.86,946.498,946.09,945.724,945.422,945.024,944.552,944.298,944.198,944.128,944.092,944.232,944.19,944.302,944.5,944.684,944.866,945.212,945.508,945.856,946.228,946.578,947.016,947.5,948.146,948.778,949.244,949.854,950.352,950.982,951.56,951.888,952.17,952.09,951.91,951.786,951.536,951.178,950.69,950.22,949.982,949.782,949.638,949.544,949.478,949.612,949.852,950.104,950.448,950.722,950.91,951.236,951.522,951.818,951.92,952.026,952.12,952.01,952.01,951.946,951.868,951.542,951.256,951.004,950.794,950.58,950.192,949.646,949.324,948.916,948.348,947.968,947.68,947.264,946.808,946.696,946.55,946.35,946.37,946.656,946.606,946.75,947.056,947.292,947.598,947.97,948.27,948.264,948.268,948.486,
949.314,949.048,949.064,948.916,948.776,948.494,948.234,948.006,947.71,947.29,946.822,946.392,945.732,945.286,944.888,944.428,943.894,943.574,943.456,943.414,943.338,943.524,943.486,943.624,943.814,944.038,944.284,944.67,944.938,945.29,945.716,946.044,946.498,946.976,947.642,948.416,948.946,949.566,950.274,950.916,951.506,951.95,952.214,952.164,952.012,951.848,951.528,951.114,950.578,950.062,949.722,949.418,949.21,949.068,949.008,949.102,949.306,949.532,950.04,950.354,950.56,950.978,951.45,951.82,952.128,952.236,952.404,952.392,952.328,952.244,952.026,951.646,951.234,950.792,950.506,950.064,949.622,948.936,948.55,948.018,947.356,946.864,946.54,946.094,945.752,945.498,945.382,945.264,945.344,945.742,945.736,945.996,946.338,946.544,946.87,947.268,947.602,947.644,947.712,947.924,
949.776,949.554,949.564,949.418,949.276,948.996,948.7,948.476,948.096,947.528,946.988,946.396,945.758,945.15,944.652,944.098,943.51,943.138,942.946,942.856,942.852,942.96,942.908,943.106,943.296,943.496,943.732,944.174,944.458,944.736,945.094,945.452,945.886,946.39,947.116,947.86,948.416,949.112,949.838,950.58,951.26,951.68,952.028,951.998,951.8,951.656,951.332,950.938,950.384,949.862,949.488,949.1,948.826,948.706,948.538,948.626,948.838,949.094,949.548,949.902,950.232,950.688,951.24,951.742,952.038,952.324,952.568,952.638,952.586,952.426,952.146,951.664,951.192,950.64,950.242,949.652,949.066,948.368,947.954,947.398,946.566,945.966,945.64,945.168,944.848,944.67,944.552,944.45,944.504,945.01,945.156,945.396,945.72,945.956,946.324,946.738,947.14,947.174,947.364,947.64,
950.266,950.104,950.148,949.996,949.874,949.566,949.182,948.906,948.442,947.824,947.176,946.504,945.796,945.06,944.498,943.908,943.218,942.862,942.632,942.5,942.47,942.61,942.58,942.806,942.97,943.164,943.328,943.746,944.026,944.276,944.512,944.896,945.228,945.682,946.346,947.086,947.682,948.358,949.208,949.992,950.69,951.188,951.49,951.502,951.392,951.282,950.938,950.586,950.07,949.514,949.064,948.722,948.536,948.32,948.124,948.196,948.27,948.612,949.024,949.42,949.77,950.272,950.918,951.424,951.84,952.16,952.466,952.566,952.5,952.318,952.01,951.58,950.97,950.35,949.802,949.24,948.586,947.888,947.426,946.924,946.016,945.416,945.058,944.636,944.374,944.202,944.132,944.03,944.182,944.682,944.942,945.262,945.49,945.728,946.134,946.434,946.886,947.02,947.146,947.466,
950.812,950.67,950.672,950.538,950.358,950.048,949.61,949.324,948.92,948.304,947.516,946.798,945.924,945.152,944.498,943.85,943.236,942.796,942.52,942.418,942.35,942.514,942.406,942.534,942.732,942.942,943.116,943.624,943.826,943.96,944.112,944.372,944.604,945.044,945.546,946.382,946.842,947.54,948.286,949.092,949.898,950.406,950.74,950.824,950.74,950.626,950.382,950.06,949.62,949.116,948.614,948.294,948.108,947.832,947.646,947.702,947.666,947.962,948.468,948.836,949.176,949.702,950.32,950.89,951.324,951.774,952.154,952.194,952.15,951.918,951.672,951.222,950.634,949.992,949.376,948.768,948.13,947.518,947.12,946.61,945.782,945.222,944.878,944.57,944.368,944.22,944.22,944.142,944.298,944.862,945.17,945.456,945.704,945.834,946.226,946.636,947.022,947.142,947.266,947.666,
950.964,950.884,950.902,950.834,950.652,950.382,949.942,949.666,949.244,948.64,947.84,947.044,946.122,945.346,944.614,944.002,943.308,942.84,942.588,942.498,942.474,942.578,942.55,942.628,942.794,942.96,943.014,943.486,943.68,943.762,943.822,943.952,944.074,944.444,944.916,945.634,945.984,946.59,947.386,948.202,948.962,949.546,949.928,950.034,949.968,949.976,949.748,949.484,949.058,948.542,948.078,947.766,947.602,947.364,947.16,947.22,947.216,947.384,947.9,948.334,948.71,949.158,949.722,950.308,950.78,951.278,951.664,951.73,951.68,951.516,951.228,950.788,950.212,949.548,948.988,948.396,947.818,947.258,946.954,946.534,945.784,945.338,945.052,944.896,944.772,944.666,944.712,944.73,944.906,945.438,945.782,946.096,946.248,946.368,946.706,946.978,947.38,947.518,947.662,948.056,
950.828,950.834,950.9,950.864,950.762,950.528,950.218,949.9,949.572,948.91,948.22,947.414,946.474,945.714,945.078,944.448,943.75,943.252,943.036,942.908,942.854,942.938,942.952,943.008,943.008,943.066,943.148,943.494,943.614,943.526,943.508,943.56,943.662,943.918,944.274,944.932,945.252,945.768,946.498,947.326,948.094,948.712,949.07,949.228,949.208,949.292,949.086,948.928,948.56,947.986,947.5,947.23,947.098,946.9,946.604,946.646,946.638,946.798,947.268,947.628,948.002,948.454,948.91,949.44,949.922,950.402,950.714,950.814,950.776,950.596,950.372,950.084,949.588,948.98,948.516,947.958,947.528,947.14,946.878,946.532,946.012,945.678,945.448,945.458,945.508,945.552,945.628,945.686,945.914,946.47,946.794,947.026,947.11,947.254,947.526,947.77,948.102,948.254,948.354,948.716,
950.364,950.376,950.556,950.548,950.53,950.338,950.078,949.924,949.674,949.154,948.45,947.766,946.866,946.148,945.572,945.024,944.338,943.938,943.688,943.59,943.568,943.56,943.56,943.484,943.522,943.544,943.468,943.74,943.706,943.542,943.422,943.382,943.428,943.592,943.904,944.466,944.678,945.118,945.82,946.544,947.326,948.018,948.398,948.502,948.552,948.672,948.504,948.278,947.908,947.446,946.932,946.668,946.536,946.27,946.102,946.134,946.024,946.172,946.59,946.908,947.27,947.624,948.002,948.51,948.928,949.402,949.636,949.742,949.756,949.666,949.478,949.312,948.986,948.476,948.122,947.684,947.36,947.208,947.124,946.914,946.564,946.334,946.354,946.492,946.638,946.664,946.864,946.868,947.086,947.568,947.856,948.024,948.072,948.136,948.362,948.584,948.934,949.018,949.124,949.36,
949.8,949.936,950.09,950.198,950.278,950.208,950.122,949.996,949.838,949.312,948.746,948.136,947.36,946.71,946.216,945.688,945.11,944.736,944.53,944.424,944.408,944.354,944.264,944.18,944.178,944.042,943.822,944.002,943.908,943.58,943.402,943.262,943.18,943.236,943.524,943.942,944.14,944.566,945.216,945.99,946.69,947.398,947.816,947.944,948.042,948.194,948.12,947.918,947.526,946.974,946.44,946.168,946.018,945.82,945.526,945.574,945.466,945.564,945.938,946.224,946.586,946.862,947.136,947.556,947.942,948.368,948.632,948.642,948.658,948.622,948.556,948.512,948.35,947.97,947.816,947.484,947.392,947.376,947.472,947.46,947.236,947.22,947.44,947.648,947.996,948.086,948.216,948.284,948.474,948.828,949.092,949.196,949.232,949.27,949.436,949.64,949.866,949.978,950.016,950.196,
949.128,949.334,949.632,949.862,950.006,949.952,949.96,949.994,949.906,949.568,949.098,948.556,947.914,947.386,947.032,946.538,946.018,945.692,945.508,945.444,945.356,945.316,945.152,945.016,944.834,944.618,944.362,944.342,944.038,943.576,943.284,943.052,942.958,942.972,943.154,943.562,943.774,944.112,944.762,945.518,946.246,946.94,947.416,947.646,947.736,947.902,947.808,947.63,947.208,946.552,946.116,945.758,945.594,945.35,945.096,945.09,944.954,945.046,945.45,945.628,945.868,946.128,946.354,946.676,947.06,947.312,947.604,947.598,947.674,947.68,947.696,947.828,947.798,947.638,947.558,947.42,947.522,947.762,948.046,948.102,948.132,948.266,948.63,949.016,949.398,949.542,949.688,949.676,949.802,950.134,950.292,950.336,950.362,950.4,950.55,950.632,950.878,950.896,950.934,951.086,
948.572,948.866,949.226,949.522,949.752,949.79,949.9,950.04,950.09,949.864,949.488,949.122,948.616,948.232,947.984,947.566,947.174,946.798,946.712,946.574,946.544,946.468,946.2,945.94,945.702,945.396,944.99,944.75,944.426,943.784,943.412,943.04,942.872,942.826,942.92,943.326,943.52,943.854,944.492,945.342,946.084,946.804,947.34,947.652,947.764,947.842,947.706,947.478,947.022,946.434,945.902,945.51,945.314,944.976,944.71,944.73,944.592,944.604,944.954,945.012,945.288,945.446,945.67,945.926,946.206,946.49,946.618,946.684,946.774,946.836,946.958,947.21,947.426,947.41,947.584,947.644,947.88,948.288,948.716,948.936,949.238,949.55,949.994,950.428,950.988,951.196,951.286,951.288,951.422,951.594,951.708,951.752,951.726,951.764,951.872,951.958,952.118,952.102,951.98,951.994,
948.11,948.492,948.93,949.324,949.584,949.692,949.836,950.078,950.224,950.09,949.826,949.622,949.2,949.042,948.912,948.584,948.168,947.906,947.838,947.73,947.69,947.54,947.28,946.928,946.592,946.156,945.602,945.216,944.71,944.026,943.43,943.066,942.822,942.734,942.806,943.12,943.358,943.716,944.414,945.222,946.058,946.744,947.246,947.648,947.882,947.928,947.7,947.408,946.93,946.246,945.734,945.336,945.01,944.746,944.464,944.444,944.29,944.226,944.452,944.502,944.734,944.894,944.962,945.236,945.446,945.654,945.76,945.746,945.85,945.956,946.256,946.604,946.982,947.164,947.454,947.692,948.178,948.712,949.278,949.686,950.118,950.646,951.218,951.794,952.418,952.722,952.83,952.812,952.938,953.082,953.196,953.146,953.136,953.198,953.246,953.274,953.332,953.346,953.146,952.882,
947.888,948.4,948.822,949.27,949.572,949.6,949.83,950.07,950.308,950.22,950.076,949.936,949.742,949.664,949.696,949.466,949.144,948.892,948.868,948.814,948.742,948.56,948.224,947.824,947.4,946.848,946.178,945.61,944.91,944.148,943.46,943.05,942.724,942.534,942.612,942.858,943.222,943.628,944.294,945.17,946.036,946.828,947.484,947.904,948.194,948.226,947.994,947.702,947.152,946.508,945.952,945.482,945.156,944.758,944.456,944.364,944.13,944.06,944.132,944.116,944.26,944.486,944.474,944.598,944.86,945.034,944.972,944.962,945.132,945.284,945.584,946.122,946.562,946.922,947.35,947.736,948.364,949.036,949.648,950.262,950.852,951.38,952.108,952.69,953.358,953.71,953.88,953.9,953.948,954.07,954.144,954.156,954.204,954.266,954.298,954.294,954.312,954.214,953.896,953.54,
947.974,948.474,948.89,949.302,949.612,949.642,949.84,950.13,950.294,950.22,950.214,950.174,950.052,950.08,950.29,950.19,949.936,949.76,949.74,949.652,949.616,949.488,949.098,948.576,948.104,947.494,946.68,945.916,945.058,944.22,943.48,942.858,942.48,942.292,942.28,942.512,942.882,943.384,944.17,945.052,945.982,946.894,947.616,948.12,948.478,948.604,948.446,948.098,947.53,946.922,946.35,945.85,945.43,944.964,944.676,944.504,944.186,944.006,944.07,943.966,944.126,944.264,944.264,944.37,944.636,944.792,944.724,944.656,944.758,944.872,945.188,945.74,946.3,946.672,947.22,947.724,948.298,949.074,949.772,950.226,950.92,951.59,952.32,952.998,953.622,954.092,954.22,954.326,954.44,954.578,954.614,954.698,954.754,954.872,954.906,954.952,954.82,954.672,954.298,953.832,
948.476,948.944,949.276,949.7,949.926,949.79,950.04,950.284,950.354,950.26,950.224,950.306,950.304,950.408,950.65,950.566,950.358,950.294,950.258,950.198,950.158,950.042,949.592,949.09,948.62,947.85,947.03,946.076,945.152,944.192,943.302,942.68,942.222,941.92,941.844,942.126,942.516,943.04,943.898,944.89,945.808,946.772,947.528,948.228,948.664,948.798,948.696,948.388,947.91,947.29,946.81,946.36,945.836,945.372,944.994,944.83,944.436,944.208,944.118,944.03,944.118,944.232,944.34,944.508,944.71,944.68,944.562,944.522,944.648,944.716,945.056,945.552,946.112,946.5,947.026,947.582,948.176,948.874,949.588,950.04,950.762,951.424,952.196,952.9,953.57,954.034,954.204,954.444,954.588,954.716,954.806,954.896,955.072,955.2,955.224,955.186,955.04,954.828,954.368,953.738,
949.116,949.504,949.724,950.024,950.108,949.946,950.036,950.33,950.298,950.064,950.038,950.08,950.178,950.364,950.642,950.61,950.412,950.436,950.426,950.398,950.354,950.314,949.84,949.362,948.854,948.026,947.202,946.198,945.238,944.22,943.31,942.642,942.1,941.75,941.688,941.84,942.244,942.734,943.558,944.542,945.614,946.574,947.472,948.162,948.728,948.892,948.902,948.612,948.228,947.734,947.24,946.844,946.378,945.852,945.438,945.24,944.844,944.486,944.336,944.17,944.274,944.446,944.594,944.73,944.882,944.884,944.794,944.68,944.788,944.802,945.036,945.504,946.024,946.296,946.83,947.358,947.918,948.52,949.084,949.512,950.126,950.896,951.694,952.392,953.062,953.618,953.84,954.072,954.394,954.6,954.692,954.864,955.074,955.226,955.336,955.186,955.034,954.772,954.124,953.434,
949.92,950.202,950.188,950.342,950.26,949.9,949.96,950.152,949.94,949.632,949.518,949.544,949.58,949.904,950.188,950.174,949.968,950.03,950.114,950.072,950.176,950.186,949.746,949.27,948.806,948.098,947.176,946.266,945.288,944.344,943.368,942.584,942.052,941.638,941.48,941.568,941.976,942.464,943.2,944.174,945.296,946.298,947.26,948.152,948.828,949.026,949.122,949.036,948.752,948.302,947.988,947.552,947.09,946.492,946.056,945.714,945.278,944.898,944.724,944.5,944.52,944.694,944.822,945.014,945.246,945.242,945.052,945.008,945.046,944.974,945.134,945.476,945.902,946.122,946.45,946.946,947.364,947.81,948.28,948.71,949.23,949.88,950.694,951.354,952.048,952.614,952.98,953.298,953.718,953.978,954.178,954.43,954.71,954.864,954.918,954.788,954.52,954.236,953.55,952.724,
950.422,950.524,950.374,950.248,949.922,949.57,949.45,949.45,949.2,948.822,948.618,948.592,948.624,948.956,949.244,949.2,949.006,949.138,949.258,949.338,949.482,949.574,949.236,948.852,948.412,947.862,947.042,946.174,945.206,944.306,943.276,942.484,941.914,941.396,941.192,941.212,941.582,942.012,942.736,943.734,944.772,945.902,946.934,947.822,948.606,948.974,949.278,949.248,949.09,948.814,948.564,948.11,947.71,947.192,946.682,946.202,945.692,945.33,945.026,944.778,944.766,944.858,945.032,945.27,945.536,945.544,945.378,945.31,945.35,945.224,945.332,945.562,945.79,945.862,946.072,946.396,946.704,946.982,947.38,947.64,948.114,948.642,949.344,949.97,950.614,951.238,951.67,952.092,952.616,952.974,953.232,953.626,953.904,954.04,954.166,953.996,953.764,953.352,952.642,951.714,
950.654,950.586,950.164,949.782,949.324,948.778,948.588,948.54,948.072,947.596,947.404,947.358,947.424,947.706,948.018,948.058,947.846,948.05,948.25,948.422,948.634,948.81,948.6,948.26,947.936,947.488,946.772,945.974,945.122,944.21,943.26,942.466,941.872,941.316,941.04,940.95,941.246,941.714,942.404,943.34,944.398,945.532,946.566,947.516,948.426,948.938,949.32,949.506,949.484,949.334,949.144,948.814,948.41,947.812,947.214,946.7,946.086,945.562,945.258,944.984,944.922,945.096,945.284,945.522,945.794,945.94,945.79,945.754,945.754,945.53,945.488,945.698,945.766,945.618,945.754,945.852,945.926,946.07,946.37,946.524,946.84,947.272,947.924,948.496,949.156,949.764,950.208,950.694,951.2,951.726,952.08,952.528,952.86,953.016,953.076,952.89,952.648,952.182,951.414,950.538,
950.458,950.278,949.664,949.084,948.52,947.866,947.548,947.432,946.844,946.284,946.092,946.09,946.1,946.368,946.672,946.604,946.446,946.738,947.076,947.29,947.556,947.768,947.656,947.53,947.38,947.018,946.406,945.786,945.048,944.284,943.29,942.536,941.786,941.268,940.924,940.804,940.918,941.318,941.934,942.876,943.922,944.998,946.09,947.112,948.138,948.822,949.318,949.592,949.71,949.628,949.466,949.22,948.798,948.12,947.45,946.972,946.254,945.714,945.368,945.106,945.058,945.158,945.398,945.744,946.014,946.144,946.108,946.024,945.95,945.814,945.648,945.606,945.632,945.39,945.274,945.27,945.234,945.192,945.282,945.344,945.59,945.796,946.318,946.84,947.446,948.052,948.528,949.074,949.668,950.196,950.65,951.092,951.458,951.628,951.67,951.556,951.306,950.85,950.122,949.342,
949.746,949.434,948.802,948.136,947.462,946.808,946.42,946.222,945.55,944.982,944.782,944.646,944.668,944.916,945.236,945.154,945.054,945.46,945.826,946.098,946.406,946.704,946.68,946.596,946.666,946.436,945.952,945.5,944.86,944.204,943.308,942.576,941.932,941.366,940.992,940.822,940.866,941.126,941.688,942.564,943.574,944.66,945.736,946.836,947.862,948.636,949.272,949.648,949.812,949.774,949.672,949.454,948.95,948.3,947.65,947.006,946.248,945.696,945.36,945.086,945.014,945.18,945.416,945.74,946.106,946.364,946.432,946.334,946.354,946.082,945.882,945.774,945.66,945.198,944.988,944.892,944.616,944.422,944.326,944.242,944.24,944.41,944.838,945.256,945.736,946.324,946.796,947.404,948.118,948.726,949.212,949.748,950.064,950.26,950.358,950.232,949.994,949.514,948.848,948.062,
948.622,948.252,947.554,946.876,946.164,945.486,945.16,944.944,944.306,943.756,943.498,943.356,943.344,943.644,943.904,943.838,943.714,944.108,944.456,944.776,945.152,945.484,945.61,945.656,945.804,945.714,945.282,945.042,944.534,943.932,943.174,942.61,942.008,941.466,941.138,941.038,940.968,941.208,941.722,942.53,943.478,944.602,945.654,946.728,947.712,948.548,949.226,949.652,949.83,949.816,949.684,949.402,948.912,948.24,947.512,946.914,946.188,945.58,945.332,945.046,945.06,945.264,945.524,945.958,946.432,946.686,946.868,946.816,946.78,946.496,946.228,946.058,945.75,945.188,944.832,944.546,944.178,943.792,943.61,943.286,943.146,943.202,943.534,943.882,944.326,944.83,945.362,945.918,946.628,947.266,947.82,948.394,948.73,948.916,949.006,948.922,948.772,948.288,947.658,946.934,
947.296,946.916,946.268,945.486,944.81,944.204,943.898,943.62,943.068,942.546,942.368,942.252,942.242,942.57,942.782,942.68,942.612,943.026,943.416,943.704,944.082,944.582,944.758,944.914,945.07,945.124,944.876,944.718,944.416,944.022,943.35,942.794,942.258,941.79,941.474,941.358,941.256,941.48,941.876,942.676,943.526,944.606,945.634,946.612,947.556,948.408,949.044,949.53,949.756,949.666,949.526,949.222,948.74,948.058,947.394,946.706,946.022,945.454,945.294,945.116,945.166,945.374,945.684,946.148,946.662,947.066,947.306,947.182,947.116,946.87,946.598,946.378,945.888,945.304,944.814,944.43,943.956,943.496,943.168,942.802,942.544,942.44,942.704,942.918,943.292,943.776,944.25,944.772,945.54,946.072,946.738,947.272,947.652,947.822,947.844,947.798,947.65,947.172,946.604,945.946,
945.832,945.49,944.896,944.182,943.532,943.042,942.752,942.586,942.084,941.622,941.564,941.458,941.458,941.66,941.912,941.844,941.818,942.18,942.584,942.97,943.364,943.826,944.05,944.212,944.556,944.654,944.514,944.514,944.344,943.924,943.42,942.968,942.428,941.964,941.836,941.74,941.618,941.766,942.18,942.83,943.592,944.69,945.578,946.472,947.366,948.152,948.78,949.254,949.48,949.356,949.168,948.874,948.416,947.81,947.128,946.536,945.88,945.432,945.362,945.328,945.422,945.714,946.03,946.548,947.036,947.474,947.682,947.588,947.478,947.132,946.828,946.568,946.018,945.324,944.822,944.338,943.756,943.22,942.846,942.434,942.044,941.938,942.074,942.206,942.572,942.988,943.45,943.962,944.624,945.22,945.81,946.41,946.828,946.874,947.014,946.99,946.778,946.39,945.834,945.328,
944.576,944.244,943.72,943.088,942.542,942.094,941.816,941.572,941.232,940.838,940.838,940.768,940.732,940.976,941.208,941.158,941.24,941.596,941.996,942.328,942.77,943.264,943.522,943.818,944.088,944.32,944.224,944.272,944.252,943.918,943.452,943.068,942.654,942.31,942.194,942.198,942.008,942.176,942.518,943.098,943.794,944.68,945.53,946.278,947.068,947.788,948.37,948.798,949.048,948.924,948.772,948.478,948.072,947.484,946.878,946.318,945.748,945.352,945.522,945.536,945.666,945.932,946.3,946.85,947.446,947.842,948.132,947.956,947.758,947.372,947.038,946.736,946.144,945.486,944.9,944.36,943.79,943.26,942.816,942.346,941.996,941.812,941.93,941.908,942.202,942.648,943.048,943.506,944.166,944.64,945.256,945.842,946.174,946.258,946.24,946.208,946.076,945.69,945.264,944.808,
943.692,943.372,942.928,942.29,941.822,941.446,941.278,941.1,940.622,940.334,940.436,940.318,940.276,940.466,940.662,940.598,940.668,941.078,941.408,941.72,942.184,942.618,942.948,943.258,943.632,943.83,943.864,944.026,944.128,943.904,943.55,943.312,943.026,942.72,942.618,942.718,942.53,942.644,942.958,943.37,943.87,944.64,945.288,945.868,946.544,947.238,947.648,948.084,948.298,948.174,948.034,947.834,947.414,946.984,946.522,946.026,945.584,945.332,945.546,945.724,945.996,946.358,946.756,947.28,947.852,948.224,948.542,948.382,948.104,947.812,947.41,947.024,946.492,945.792,945.274,944.674,944.064,943.544,943.094,942.612,942.248,941.99,942.046,942.15,942.412,942.878,943.202,943.666,944.274,944.722,945.24,945.688,946.02,946.02,945.986,945.914,945.766,945.44,945.074,944.69,
942.956,942.734,942.448,941.984,941.546,941.076,940.914,940.684,940.282,940.094,940.166,940.038,940.04,940.18,940.306,940.32,940.444,940.71,941.064,941.288,941.81,942.276,942.622,942.976,943.412,943.632,943.732,944.016,944.21,944.07,943.886,943.698,943.532,943.406,943.344,943.436,943.232,943.252,943.518,943.784,944.174,944.708,945.126,945.652,946.214,946.708,947.024,947.368,947.59,947.376,947.266,947.064,946.71,946.304,945.93,945.694,945.374,945.222,945.644,945.92,946.308,946.742,947.152,947.806,948.398,948.78,949.068,948.93,948.712,948.318,947.974,947.58,947.028,946.326,945.83,945.21,944.614,944.06,943.63,943.148,942.78,942.582,942.63,942.704,942.92,943.402,943.822,944.276,944.852,945.238,945.73,946.076,946.242,946.196,946.058,945.922,945.728,945.404,944.956,944.61,
942.51,942.236,942.046,941.624,941.294,940.93,940.724,940.532,940.162,939.92,939.992,939.89,939.834,939.948,940.068,940.02,940.176,940.466,940.72,940.968,941.476,942.056,942.364,942.768,943.28,943.552,943.696,944.108,944.442,944.372,944.248,944.184,944.098,944.116,944.106,944.136,943.914,943.904,944.082,944.232,944.406,944.764,944.954,945.42,945.776,946.048,946.242,946.472,946.668,946.454,946.346,946.1,945.758,945.532,945.278,945.192,945.062,945.138,945.712,946.086,946.666,947.212,947.702,948.388,948.974,949.322,949.55,949.51,949.31,948.97,948.634,948.214,947.634,946.93,946.5,945.952,945.252,944.718,944.328,943.768,943.482,943.302,943.388,943.466,943.76,944.19,944.454,944.954,945.456,945.854,946.254,946.48,946.578,946.51,946.278,946.078,945.882,945.512,945.154,944.77,
942.234,942.082,941.906,941.606,941.226,940.886,940.732,940.376,940.034,939.882,939.782,939.65,939.644,939.758,939.796,939.798,939.984,940.234,940.482,940.736,941.234,941.792,942.222,942.61,943.058,943.404,943.684,944.172,944.638,944.516,944.522,944.622,944.616,944.686,944.85,944.98,944.764,944.674,944.686,944.672,944.706,944.916,944.95,945.058,945.246,945.414,945.368,945.516,945.638,945.41,945.288,945.03,944.818,944.654,944.614,944.686,944.732,945.028,945.714,946.314,946.89,947.624,948.182,948.894,949.546,949.854,950.072,950.028,949.888,949.538,949.18,948.78,948.226,947.574,947.148,946.56,945.928,945.446,944.984,944.582,944.256,944.104,944.278,944.284,944.536,944.956,945.312,945.652,946.108,946.46,946.812,946.938,946.9,946.772,946.468,946.202,945.968,945.63,945.276,944.842,
942.352,942.13,942.014,941.708,941.384,941.118,940.886,940.528,940.134,939.876,939.828,939.664,939.552,939.55,939.554,939.522,939.702,939.884,940.114,940.316,940.838,941.398,941.8,942.372,942.828,943.184,943.598,944.094,944.662,944.71,944.812,945.056,945.156,945.394,945.614,945.742,945.592,945.51,945.398,945.232,945.122,945.142,944.876,944.796,944.798,944.758,944.542,944.614,944.578,944.426,944.228,944.04,943.906,943.798,943.866,944.054,944.274,944.792,945.576,946.342,947.052,947.898,948.574,949.34,950.074,950.332,950.572,950.602,950.378,950.048,949.658,949.298,948.74,948.112,947.76,947.212,946.632,946.146,945.8,945.368,945.13,944.962,945.084,945.14,945.43,945.778,946.148,946.384,946.77,947.026,947.294,947.322,947.29,946.96,946.646,946.362,946.084,945.746,945.354,944.974,
942.664,942.438,942.292,942.016,941.636,941.316,941.092,940.636,940.17,939.91,939.838,939.568,939.402,939.408,939.358,939.262,939.434,939.566,939.796,939.968,940.544,941.08,941.618,942.166,942.702,943.128,943.602,944.228,944.844,945.072,945.268,945.592,945.822,946.2,946.5,946.61,946.432,946.278,946.058,945.708,945.432,945.17,944.712,944.49,944.32,944.13,943.766,943.714,943.556,943.334,943.192,943.046,942.952,942.94,943.118,943.42,943.74,944.452,945.402,946.182,947.094,947.96,948.734,949.574,950.362,950.668,950.912,950.928,950.748,950.478,950.166,949.842,949.286,948.782,948.452,947.862,947.34,946.866,946.568,946.206,945.964,945.866,945.95,945.976,946.242,946.54,946.836,947.016,947.304,947.452,947.638,947.618,947.48,947.11,946.682,946.376,946.11,945.768,945.386,945.09,
942.89,942.638,942.524,942.24,941.86,941.546,941.254,940.782,940.344,939.984,939.928,939.566,939.414,939.334,939.16,939.054,939.222,939.316,939.444,939.66,940.164,940.73,941.266,941.85,942.47,943.01,943.522,944.308,944.836,945.226,945.648,946.096,946.386,946.94,947.26,947.35,947.18,946.978,946.688,946.286,945.846,945.454,944.83,944.37,944.008,943.658,943.166,942.968,942.802,942.466,942.278,942.154,942.068,942.128,942.33,942.698,943.162,943.99,944.966,945.908,946.802,947.856,948.696,949.608,950.4,950.826,951.008,951.082,950.992,950.822,950.602,950.282,949.87,949.364,949.14,948.574,948.094,947.708,947.404,947.084,946.93,946.728,946.79,946.766,946.928,947.19,947.334,947.492,947.602,947.678,947.718,947.54,947.35,946.968,946.518,946.186,945.888,945.608,945.324,945.044,
943.07,942.798,942.682,942.324,941.91,941.586,941.31,940.802,940.378,940.058,939.89,939.616,939.492,939.384,939.206,939.034,939.226,939.286,939.352,939.616,940.1,940.55,941.058,941.736,942.326,942.848,943.512,944.298,944.942,945.478,946.008,946.578,947.036,947.544,948.018,948.06,947.896,947.682,947.346,946.778,946.326,945.75,944.866,944.256,943.724,943.204,942.638,942.4,942.106,941.688,941.538,941.354,941.252,941.424,941.658,942.044,942.464,943.4,944.362,945.338,946.238,947.272,948.18,949.19,950.056,950.436,950.76,950.998,951.12,951.062,950.844,950.604,950.248,949.928,949.71,949.306,948.818,948.314,948.036,947.718,947.474,947.292,947.31,947.25,947.224,947.34,947.422,947.428,947.418,947.34,947.32,947.032,946.8,946.42,946.03,945.694,945.544,945.278,944.996,944.806,
943.048,942.874,942.74,942.386,941.952,941.64,941.488,941.022,940.566,940.32,940.116,939.848,939.698,939.6,939.412,939.276,939.352,939.328,939.384,939.574,939.982,940.456,940.96,941.576,942.198,942.72,943.374,944.224,944.896,945.61,946.264,946.946,947.394,948.042,948.448,948.506,948.37,948.098,947.638,947.108,946.476,945.836,944.886,944.12,943.504,942.834,942.186,941.87,941.524,941.084,940.896,940.718,940.646,940.748,941.044,941.384,941.908,942.792,943.728,944.664,945.666,946.658,947.68,948.678,949.564,949.964,950.368,950.73,951.014,951.034,950.91,950.71,950.472,950.21,950.086,949.706,949.176,948.704,948.39,948.096,947.872,947.554,947.496,947.334,947.266,947.252,947.254,947.098,947.012,946.796,946.668,946.426,946.176,945.92,945.544,945.304,945.172,945.004,944.792,944.702,
942.85,942.624,942.554,942.298,941.898,941.642,941.412,941.05,940.694,940.48,940.32,940.008,939.85,939.71,939.522,939.412,939.454,939.348,939.326,939.562,939.936,940.312,940.752,941.43,942.066,942.568,943.326,944.142,944.9,945.61,946.4,947,947.526,948.134,948.638,948.812,948.688,948.31,947.928,947.316,946.692,946.076,945.052,944.228,943.486,942.778,942.114,941.798,941.364,940.854,940.634,940.436,940.356,940.472,940.722,940.998,941.504,942.312,943.226,944.2,945.032,946.086,947.076,948.014,948.914,949.368,949.726,950.118,950.508,950.56,950.572,950.406,950.296,950.058,950.072,949.788,949.322,948.78,948.492,948.232,947.968,947.626,947.544,947.254,947.044,946.966,946.854,946.626,946.362,946.15,946.042,945.766,945.58,945.264,945.022,944.834,944.824,944.652,944.532,944.422,
942.528,942.274,942.116,941.878,941.554,941.316,941.16,940.832,940.536,940.422,940.214,939.952,939.848,939.606,939.456,939.348,939.358,939.258,939.2,939.378,939.73,940.158,940.686,941.376,941.958,942.574,943.276,944.074,944.88,945.626,946.404,947.108,947.558,948.212,948.666,948.902,948.836,948.496,948.02,947.428,946.808,946.164,945.122,944.266,943.556,942.866,942.268,941.896,941.48,941.066,940.82,940.692,940.636,940.712,940.908,941.11,941.484,942.238,942.976,943.744,944.582,945.466,946.382,947.214,947.974,948.492,948.8,949.154,949.494,949.726,949.746,949.736,949.676,949.566,949.616,949.468,949.162,948.706,948.394,948.128,947.798,947.438,947.298,946.932,946.654,946.486,946.302,945.986,945.678,945.48,945.304,944.998,944.866,944.68,944.434,944.334,944.358,944.242,944.128,944.112,
942.162,941.916,941.714,941.418,941.068,940.868,940.696,940.514,940.35,940.266,940.122,939.904,939.784,939.63,939.398,939.222,939.182,939.104,939.06,939.226,939.492,940.03,940.462,941.224,941.844,942.43,943.036,943.876,944.586,945.362,946.174,946.752,947.194,947.702,948.188,948.454,948.384,948.108,947.648,947.194,946.652,946.084,945.236,944.436,943.722,943.234,942.756,942.468,942.066,941.676,941.39,941.318,941.26,941.26,941.41,941.57,941.792,942.366,942.996,943.64,944.276,945.094,945.862,946.468,947.122,947.43,947.694,948.022,948.282,948.534,948.646,948.596,948.618,948.66,948.788,948.808,948.598,948.174,947.862,947.62,947.3,946.932,946.782,946.366,946.062,945.854,945.634,945.292,944.928,944.794,944.584,944.364,944.32,944.17,943.944,943.944,943.946,943.834,943.724,943.762,
941.55,941.164,940.87,940.61,940.29,940.014,939.93,939.75,939.754,939.682,939.59,939.388,939.3,939.178,938.982,938.832,938.752,938.742,938.728,938.874,939.262,939.652,940.162,940.85,941.532,942.066,942.658,943.414,944.274,944.956,945.756,946.248,946.674,947.18,947.646,947.894,947.77,947.512,947.15,946.788,946.382,945.992,945.302,944.654,944.106,943.708,943.428,943.184,942.876,942.528,942.352,942.256,942.172,942.214,942.286,942.308,942.42,942.888,943.392,943.864,944.35,944.998,945.566,945.962,946.362,946.622,946.726,946.92,947.126,947.356,947.41,947.452,947.486,947.616,947.786,947.862,947.724,947.426,947.146,946.876,946.516,946.17,946.03,945.692,945.36,945.106,944.906,944.514,944.244,944.008,943.89,943.676,943.726,943.612,943.52,943.512,943.588,943.432,943.334,943.41,
940.576,940.138,939.854,939.464,939.106,938.902,938.756,938.614,938.586,938.576,938.542,938.452,938.352,938.32,938.252,938.152,938.228,938.284,938.366,938.624,939.004,939.338,939.794,940.58,941.204,941.716,942.252,942.902,943.632,944.304,945.036,945.518,945.816,946.26,946.622,946.906,946.836,946.63,946.398,946.116,945.92,945.772,945.346,944.878,944.47,944.32,944.254,944.212,944.068,943.838,943.682,943.608,943.544,943.62,943.682,943.596,943.536,943.792,944.012,944.316,944.62,945.026,945.366,945.516,945.636,945.73,945.722,945.742,945.744,946.04,946.096,946.056,946.152,946.328,946.578,946.69,946.652,946.412,946.184,945.922,945.588,945.252,945.098,944.804,944.472,944.25,944.092,943.718,943.524,943.406,943.338,943.234,943.29,943.268,943.21,943.238,943.352,943.16,942.98,942.946,
939.44,938.876,938.504,938.164,937.766,937.456,937.328,937.234,937.222,937.262,937.36,937.264,937.166,937.32,937.344,937.442,937.596,937.714,937.912,938.2,938.658,939.042,939.512,940.084,940.71,941.142,941.614,942.286,942.816,943.428,944.048,944.444,944.628,944.928,945.29,945.568,945.466,945.39,945.294,945.252,945.294,945.27,945.146,944.926,944.828,944.916,944.978,945.224,945.192,945.126,945.166,945.16,945.162,945.268,945.224,945.096,944.832,944.88,945.002,945.01,945.044,945.178,945.192,944.992,944.866,944.73,944.586,944.45,944.37,944.562,944.576,944.706,944.818,944.942,945.21,945.39,945.356,945.234,945.032,944.776,944.466,944.128,944.042,943.698,943.488,943.322,943.248,943.016,942.82,942.856,942.854,942.808,942.884,942.858,942.87,942.88,942.924,942.706,942.464,942.328,
938.258,937.578,937.22,936.73,936.26,935.91,935.794,935.694,935.716,935.798,935.918,935.898,935.994,936.216,936.418,936.636,936.902,937.174,937.444,937.84,938.288,938.656,939.042,939.592,940.11,940.472,940.878,941.394,941.916,942.334,942.862,943.082,943.276,943.452,943.84,944.096,944.032,944.106,944.114,944.264,944.498,944.742,944.914,944.95,945.148,945.502,945.87,946.248,946.424,946.498,946.664,946.802,946.91,946.948,946.94,946.788,946.364,946.174,946.056,945.842,945.56,945.416,945.07,944.524,944.214,943.924,943.608,943.308,943.108,943.268,943.232,943.342,943.514,943.626,943.932,944.152,944.244,944.16,944.06,943.784,943.498,943.218,943.156,942.876,942.718,942.67,942.648,942.514,942.43,942.546,942.588,942.578,942.724,942.668,942.652,942.67,942.7,942.318,941.996,941.84,
937.384,936.588,935.978,935.488,934.96,934.61,934.368,934.304,934.274,934.358,934.562,934.568,934.748,935.082,935.442,935.758,936.074,936.448,936.82,937.318,937.796,938.156,938.598,939.03,939.414,939.724,940.062,940.576,940.888,941.102,941.526,941.742,941.81,941.99,942.302,942.524,942.514,942.718,942.92,943.17,943.684,944.178,944.63,944.984,945.468,946.202,946.698,947.25,947.736,947.98,948.236,948.494,948.664,948.66,948.652,948.392,947.908,947.512,947.112,946.656,946.092,945.768,945.102,944.352,943.754,943.306,942.784,942.322,942.01,942.084,942.048,942.176,942.3,942.512,942.812,943.076,943.232,943.296,943.19,943.016,942.702,942.534,942.514,942.332,942.3,942.284,942.332,942.286,942.358,942.56,942.622,942.674,942.766,942.71,942.728,942.634,942.58,942.09,941.672,941.402,
936.644,935.728,935.14,934.354,933.746,933.268,933.084,932.942,932.914,933.052,933.288,933.448,933.608,934.084,934.568,934.906,935.328,935.85,936.32,936.842,937.3,937.72,938.028,938.412,938.806,938.97,939.2,939.612,939.738,939.968,940.2,940.324,940.358,940.416,940.76,940.956,940.964,941.286,941.628,942.188,942.876,943.698,944.416,945.05,945.824,946.698,947.58,948.336,948.936,949.34,949.78,950.104,950.278,950.364,950.294,949.956,949.322,948.758,948.2,947.488,946.694,946.146,945.284,944.298,943.544,942.91,942.258,941.654,941.21,941.296,941.114,941.158,941.378,941.628,941.874,942.25,942.496,942.624,942.536,942.362,942.132,941.994,942.034,941.936,941.982,942.112,942.15,942.174,942.42,942.68,942.808,942.884,942.906,942.838,942.754,942.632,942.48,941.902,941.378,941.022,
935.932,934.962,934.156,933.398,932.68,932.154,931.94,931.92,931.844,931.99,932.286,932.51,932.826,933.348,933.94,934.414,934.898,935.454,936.002,936.526,937.002,937.344,937.626,937.86,938.058,938.216,938.266,938.722,938.754,938.796,939.012,939.038,939.04,939.128,939.43,939.764,939.742,940.184,940.672,941.386,942.33,943.294,944.216,945.152,946.162,947.354,948.296,949.194,949.996,950.632,951.098,951.476,951.652,951.666,951.604,951.184,950.406,949.622,948.882,948.014,947.056,946.33,945.362,944.222,943.31,942.668,941.912,941.264,940.778,940.706,940.576,940.598,940.772,941.042,941.396,941.75,942.04,942.236,942.198,942.044,941.838,941.766,941.812,941.796,941.792,942.008,942.202,942.332,942.574,942.88,943.04,943.086,943.102,942.896,942.826,942.646,942.318,941.74,941.104,940.742,
935.614,934.542,933.746,932.952,932.232,931.726,931.514,931.488,931.444,931.626,932.014,932.294,932.624,933.168,933.89,934.438,934.898,935.502,935.998,936.528,936.902,937.162,937.352,937.412,937.494,937.512,937.498,937.8,937.74,937.796,937.896,937.882,937.878,937.906,938.314,938.6,938.624,939.174,939.796,940.622,941.646,942.82,943.954,945.066,946.294,947.58,948.658,949.738,950.686,951.352,951.898,952.328,952.484,952.408,952.202,951.712,950.948,950.046,949.274,948.182,947.232,946.4,945.338,944.218,943.198,942.514,941.7,941.03,940.528,940.34,940.194,940.184,940.394,940.666,941.018,941.38,941.688,941.956,941.918,941.788,941.704,941.63,941.684,941.712,941.892,942.104,942.34,942.532,942.86,943.118,943.24,943.28,943.272,943.068,943,942.712,942.284,941.654,940.984,940.582,
935.492,934.542,933.696,932.93,932.136,931.696,931.452,931.446,931.46,931.72,932.076,932.364,932.726,933.384,934.104,934.652,935.142,935.686,936.198,936.614,936.85,936.988,937.038,936.968,936.934,936.872,936.874,937.134,937.048,937.004,937.096,937.132,937.136,937.204,937.634,937.876,937.908,938.546,939.18,940.074,941.17,942.346,943.466,944.706,946.01,947.336,948.49,949.682,950.706,951.438,952.042,952.524,952.57,952.446,952.236,951.74,950.89,949.972,949.164,948.08,947.054,946.298,945.208,944.124,943.18,942.478,941.67,941.01,940.526,940.344,940.116,940.17,940.378,940.626,941.012,941.37,941.586,941.85,941.892,941.768,941.702,941.702,941.806,941.818,942.056,942.306,942.546,942.838,943.234,943.458,943.55,943.6,943.518,943.34,943.204,942.82,942.36,941.726,941.104,940.514,
935.714,934.66,933.95,933.156,932.416,932.018,931.744,931.79,931.868,932.148,932.542,932.796,933.132,933.82,934.536,935.134,935.54,935.988,936.412,936.728,936.896,937.008,937.02,936.862,936.72,936.614,936.516,936.806,936.654,936.576,936.636,936.708,936.784,936.826,937.204,937.472,937.582,938.138,938.818,939.706,940.73,941.854,943.006,944.222,945.616,946.824,947.854,949.098,950.132,950.944,951.602,952.146,952.082,952.05,951.808,951.288,950.376,949.54,948.676,947.63,946.65,945.898,944.846,943.822,943.048,942.29,941.59,940.952,940.546,940.354,940.214,940.204,940.366,940.71,941.11,941.46,941.758,941.908,941.972,941.944,941.912,941.986,942.09,942.11,942.312,942.682,942.978,943.3,943.668,943.912,943.994,944.064,945.878,945.702,943.612,943.246,942.752,942.066,941.428,940.766,
935.83,934.91,934.268,933.55,932.854,932.476,932.332,932.366,932.536,932.764,933.242,933.528,933.912,934.452,935.196,935.664,936.012,936.38,936.746,937.002,937.082,937.178,937.118,936.93,936.778,936.708,936.634,936.874,936.76,936.622,936.616,936.666,936.676,936.732,937.058,937.158,937.214,937.778,938.432,939.202,940.192,941.236,942.282,943.556,944.898,945.982,947.106,948.312,949.346,950.132,950.828,951.376,951.25,951.242,950.936,950.42,949.512,948.67,947.92,946.952,945.914,945.262,944.418,943.526,942.81,942.142,941.55,941.022,940.63,940.416,940.312,940.364,940.58,940.92,941.274,941.7,941.936,942.14,942.17,942.2,942.24,942.282,942.402,942.466,942.708,943.04,943.394,943.778,944.188,944.396,944.448,944.484,944.332,946.024,945.886,945.518,945.074,944.308,943.698,943.014,
935.826,935.03,934.526,933.844,933.316,932.97,932.89,933.05,933.248,933.516,933.958,934.266,934.65,935.112,935.834,936.348,936.532,936.844,937.258,937.406,937.452,937.648,937.574,937.384,937.256,937.282,937.208,937.41,937.282,937.196,937.088,937.13,937.128,937.108,937.248,937.284,937.28,937.648,938.146,938.818,939.62,940.594,941.514,942.854,944.064,945.268,946.368,947.57,948.582,949.28,949.95,950.45,950.28,950.208,949.774,949.23,948.372,947.57,946.874,945.944,945.088,944.61,943.854,943.194,942.598,942.092,941.586,941.194,940.898,940.712,940.62,940.608,940.858,941.162,941.532,941.89,942.142,942.308,942.336,942.408,942.49,942.586,942.692,942.81,944.952,945.292,947.638,946.05,946.42,946.68,946.718,946.758,946.632,946.46,946.322,946.048,947.492,946.81,946.214,943.512,
935.382,934.77,934.432,933.942,933.502,933.388,933.34,933.572,933.76,934.084,934.478,934.834,935.194,935.636,936.322,936.674,936.866,937.236,937.616,937.828,937.874,938.146,938.154,938.036,938.054,938.142,938.136,938.27,938.172,938.048,937.91,937.864,937.782,937.678,937.666,937.51,937.42,937.524,937.896,938.46,939.164,940.018,940.922,942.084,943.39,944.596,945.734,946.932,947.814,948.472,949.128,949.548,949.27,949.09,948.572,947.936,947.154,946.374,945.708,944.822,944.13,943.734,943.078,942.588,942.226,941.928,941.526,941.282,941.066,940.918,940.87,940.818,941.008,941.358,941.666,942.084,942.238,942.31,942.324,942.344,942.47,942.58,942.668,944.828,945.066,947.338,947.714,948.142,948.562,948.884,948.96,947.014,946.89,948.772,948.722,948.474,948.11,947.5,946.916,944.34,
934.636,934.222,933.966,933.752,933.422,933.418,933.514,933.796,934.076,934.392,934.818,935.154,935.522,935.958,936.6,937.036,937.184,937.528,937.992,938.264,938.394,938.838,938.914,938.87,939.062,939.232,939.25,939.418,939.306,939.192,938.928,938.794,938.628,938.414,938.216,937.972,937.732,937.762,938.046,938.432,938.99,939.732,940.486,941.54,942.88,943.972,945.088,946.164,946.972,947.55,948.078,948.368,948.078,949.716,947.264,946.56,945.782,945.024,944.466,943.72,943.168,942.794,942.302,941.946,941.804,941.584,941.354,941.252,943.106,941.126,941.054,941.03,941.238,941.466,941.76,943.962,942.184,942.146,942.144,942.244,942.262,944.318,944.378,944.672,944.884,947.17,947.652,948.124,948.606,948.958,949.084,951.162,949.13,949.142,949.22,949.092,948.754,948.348,947.788,947.172,
933.67,933.462,933.464,933.324,933.312,933.374,933.544,933.902,934.186,934.494,934.904,935.212,935.5,935.97,936.57,937.032,937.234,937.68,938.132,938.518,938.868,939.39,939.648,939.83,940.108,940.374,940.42,940.57,940.398,940.226,939.88,939.692,939.456,939.166,938.818,938.464,938.204,938.068,938.242,938.52,938.96,939.54,940.228,941.182,942.476,943.36,944.366,945.41,946.074,946.592,946.978,949.086,948.714,948.376,947.696,947.14,946.394,945.754,945.174,942.602,944.06,941.932,941.568,941.276,941.212,944.978,944.898,944.898,944.962,944.896,944.89,944.926,945.078,945.292,945.51,945.772,945.828,945.694,943.716,943.81,943.89,944.006,944.084,944.498,944.668,947.054,947.532,948.152,950.58,951.004,951.234,951.416,949.464,949.544,949.668,949.608,949.37,949.024,948.536,947.92,
932.662,932.666,932.884,932.958,933.082,933.304,933.446,933.888,934.222,934.444,934.806,935.082,935.408,935.926,936.484,936.962,937.238,937.726,938.328,938.91,939.396,940.096,940.478,940.818,941.216,941.55,941.692,941.812,941.59,941.298,940.85,940.532,940.212,939.71,939.256,938.716,938.416,938.32,938.31,938.468,938.792,939.302,939.888,940.796,941.986,942.876,943.71,944.638,945.256,945.608,946.004,947.968,947.512,947.062,946.45,945.924,945.184,944.66,944.15,945.472,945.134,944.994,944.716,944.572,944.504,944.474,944.474,944.586,944.682,944.67,944.682,944.644,944.774,944.992,945.176,945.34,945.332,945.188,945.112,945.188,945.228,945.414,945.524,945.98,946.338,948.84,949.354,950.016,950.664,951.234,951.552,951.786,949.874,950.006,950.128,950.218,950.13,949.806,949.324,948.73,
931.684,931.796,932.136,932.388,932.638,932.952,933.164,933.506,933.838,934.062,934.438,934.694,935.098,935.578,936.224,936.71,937.086,937.69,938.462,939.18,939.906,940.83,941.382,941.832,942.306,942.728,942.86,942.926,942.64,942.208,941.638,941.212,940.736,940.144,939.512,938.964,938.63,938.518,938.366,938.544,938.738,939.166,939.656,940.54,941.574,942.318,943.068,943.868,944.366,946.612,946.84,946.83,946.418,945.968,945.388,944.886,946.144,943.738,945.236,944.81,944.604,944.496,944.296,944.154,944.214,944.234,944.308,944.392,944.464,944.446,944.46,944.452,944.586,944.716,944.784,944.928,944.972,944.672,944.644,944.74,944.764,944.952,945.158,945.756,946.22,948.674,949.31,950,950.772,951.48,951.928,952.212,950.338,950.52,950.784,950.876,950.85,950.636,950.062,949.548,
930.79,931.02,931.366,931.8,932.164,932.482,932.628,933.012,933.238,933.486,933.778,934.07,934.362,934.954,935.718,936.284,936.896,937.71,938.598,939.516,940.486,941.504,942.172,942.752,943.332,943.748,943.862,943.81,943.498,942.892,942.208,941.706,941.054,940.408,939.796,939.192,938.886,938.672,938.61,938.626,938.762,939.208,939.644,940.372,941.3,941.906,942.498,943.214,943.624,945.74,945.828,945.784,945.434,944.998,944.438,944.078,945.454,945.084,944.754,944.382,944.142,944.112,943.982,943.904,943.964,943.932,943.972,944.09,944.194,944.158,944.09,944.048,944.186,944.33,944.304,944.444,944.406,944.248,944.246,944.404,944.372,944.532,944.8,945.578,946.036,946.582,949.312,950.04,950.766,951.636,952.224,952.658,950.808,951.064,951.408,951.586,951.664,951.45,950.93,950.294,
929.96,930.412,930.844,931.294,931.722,932.108,932.29,932.642,932.852,933.054,933.372,933.716,934.04,934.614,935.38,936.082,936.81,937.714,938.764,939.73,940.78,941.892,942.68,943.326,943.914,944.402,944.412,944.306,943.896,943.254,942.526,941.868,941.182,940.518,939.904,939.314,938.944,938.714,938.558,938.64,938.734,939.05,939.456,940.02,940.854,941.474,942.042,942.532,944.716,944.874,944.926,944.806,946.324,945.79,945.31,943.076,944.588,944.278,944.108,943.868,943.708,943.712,943.722,943.712,943.672,943.684,943.702,943.768,943.836,943.796,943.738,943.668,943.802,941.874,943.786,943.836,943.838,943.734,943.748,943.812,943.878,944.144,944.516,945.328,945.948,946.538,949.246,949.962,950.822,951.776,952.47,950.898,951.148,951.458,951.832,952.076,952.26,952.186,951.624,951.034,
